# .PCD v0.7 - Point Cloud Data file format
VERSION 0.7
FIELDS x y z intensity laser_id azimuth distance_m adjustedtime timestamp vertical_angle
SIZE 4 4 4 1 1 2 8 8 4 8
TYPE F F F U U U F U U F
COUNT 1 1 1 1 1 1 1 1 1 1
WIDTH 524
HEIGHT 1
VIEWPOINT 0 0 0 1 0 0 0
POINTS 524
DATA ascii
40.81594467 19.51194763 0.00000000 15 5 6585 45.24000000 3178268070 3178268070 0.00000000
40.61494064 14.73448086 -0.50298792 22 6 6586 43.20800000 3178268072 3178268072 -0.66700000
12.32135010 5.88754463 -2.12451339 2 7 6586 13.82000000 3178268072 3178268072 -8.84300000
14.59061337 6.11535788 -2.01372552 36 8 6586 15.94800000 3178268074 3178268074 -7.25400000
40.66206741 21.93089867 0.26851040 19 9 6586 46.20000000 3178268074 3178268074 0.33300000
40.37180710 16.91273499 -0.25439909 16 10 6587 43.77200000 3178268077 3178268077 -0.33300000
15.56410313 7.43370247 -1.85791957 2 11 6587 17.34800000 3178268077 3178268077 -6.14800000
18.07795525 6.55126667 -1.79493582 2 12 6588 19.31200000 3178268079 3178268079 -5.33300000
40.78263092 19.46979332 1.05158699 15 13 6588 45.20400000 3178268079 3178268079 1.33300000
40.31051254 14.60016060 0.49912310 32 14 6589 42.87600000 3178268081 3178268081 0.66700000
19.78164864 9.43959999 -1.53268921 6 15 6589 21.97200000 3178268081 3178268081 -4.00000000
18.80151367 7.86484337 -1.66374075 5 16 6590 20.44800000 3178268084 3178268084 -4.66700000
40.68900299 21.90876961 1.34491360 28 17 6590 46.23200000 3178268084 3178268084 1.66700000
40.41208267 16.90474129 0.76462483 21 18 6590 43.81200000 3178268086 3178268086 1.00000000
20.10407639 10.82493019 -1.46334851 8 19 6590 22.88000000 3178268086 3178268086 -3.66700000
20.64889717 7.47072029 -1.27882588 16 20 6591 21.99600000 3178268088 3178268088 -3.33300000
40.61188889 16.97166634 1.79323709 9 22 6592 44.05200000 3178268091 3178268091 2.33300000
20.69714355 9.86316395 -1.06798232 26 23 6592 22.95200000 3178268091 3178268091 -2.66700000
20.67053795 8.63395882 -1.17400014 26 24 6593 22.43200000 3178268093 3178268093 -3.00000000
42.74251175 17.84452820 3.78116989 32 26 6594 46.47200000 3178268095 3178268095 4.66700000
20.73111725 11.14389515 -0.95890069 26 27 6594 23.55600000 3178268095 3178268095 -2.33300000
20.70281982 7.47388887 -0.76862651 17 28 6595 22.02400000 3178268098 3178268098 -2.00000000
20.78775024 9.89299011 -0.53570360 12 31 6595 23.02800000 3178268100 3178268100 -1.33300000
5.41303587 2.24990487 -2.73349500 7 0 6603 6.46800000 3178268121 3178268121 -25.00000000
36.52942657 19.56228638 -0.72329754 8 1 6603 41.44400000 3178268121 3178268121 -1.00000000
20.74731255 8.61928368 -0.65383887 16 2 6604 22.47600000 3178268123 3178268123 -1.66700000
8.01611042 3.79947329 -2.48332834 3 3 6604 9.21200000 3178268123 3178268123 -15.63900000
10.63548851 4.41624117 -2.30320144 4 4 6605 11.74400000 3178268126 3178268126 -11.31000000
40.74644470 19.30427742 0.00000000 15 5 6605 45.08800000 3178268126 3178268126 0.00000000
40.50170517 14.54159832 -0.50098568 22 6 6605 43.03600000 3178268128 3178268128 -0.66700000
12.33366203 5.84326887 -2.12328362 2 7 6605 13.81200000 3178268128 3178268128 -8.84300000
14.60820675 6.06286907 -2.01322055 26 8 6606 15.94400000 3178268130 3178268130 -7.25400000
40.77011490 21.80580521 0.26871964 19 9 6606 46.23600000 3178268130 3178268130 0.33300000
40.38995361 16.75484848 -0.25414336 16 10 6607 43.72800000 3178268133 3178268133 -0.33300000
15.58995724 7.37932825 -1.85791957 2 11 6607 17.34800000 3178268133 3178268133 -6.14800000
18.10446167 6.48946667 -1.79530764 4 12 6608 19.31600000 3178268135 3178268135 -5.33300000
40.70213699 19.25719833 1.04777181 15 13 6608 45.04000000 3178268135 3178268135 1.33300000
40.30098724 14.43777847 0.49837804 21 14 6609 42.81200000 3178268137 3178268137 0.66700000
19.81087112 9.36878586 -1.53241026 6 15 6609 21.96800000 3178268137 3178268137 -4.00000000
18.82148552 7.79611492 -1.66308987 5 16 6610 20.44000000 3178268139 3178268139 -4.66700000
40.45485306 21.60087967 1.33467364 9 17 6610 45.88000000 3178268139 3178268139 1.66700000
40.43759155 16.74979782 0.76399654 21 18 6610 43.77600000 3178268142 3178268142 1.00000000
20.15230370 10.76032829 -1.46411598 5 19 6610 22.89200000 3178268142 3178268142 -3.66700000
20.64477158 7.38783312 -1.27696550 10 20 6611 21.96400000 3178268144 3178268144 -3.33300000
40.03334427 18.91512871 2.57858181 21 21 6611 44.35200000 3178268144 3178268144 3.33300000
40.54532242 16.77784348 1.78770089 9 22 6612 43.91600000 3178268146 3178268146 2.33300000
20.69892883 9.77550030 -1.06630719 26 23 6612 22.91600000 3178268146 3178268146 -2.66700000
20.66732788 8.54801178 -1.17211604 18 24 6613 22.39600000 3178268149 3178268149 -3.00000000
42.63137817 17.62363625 3.76587319 21 26 6614 46.28400000 3178268151 3178268151 4.66700000
20.73462296 11.05266190 -0.95727241 26 27 6614 23.51600000 3178268151 3178268151 -2.33300000
20.70242882 7.39216709 -0.76764935 17 28 6615 21.99600000 3178268153 3178268153 -2.00000000
20.80045509 9.81013203 -0.53514528 12 31 6615 23.00400000 3178268156 3178268156 -1.33300000
5.42420912 2.23237586 -2.73518538 7 0 6623 6.47200000 3178268176 3178268176 -25.00000000
36.73524475 19.50781059 -0.72602010 8 1 6623 41.60000000 3178268176 3178268176 -1.00000000
20.74399567 8.53312016 -0.65279156 19 2 6624 22.44000000 3178268179 3178268179 -1.66700000
8.02932453 3.77146864 -2.48332834 3 3 6624 9.21200000 3178268179 3178268179 -15.63900000
10.64721107 4.37759781 -2.30241704 2 4 6625 11.74000000 3178268181 3178268181 -11.31000000
40.75926590 19.13642883 0.00000000 15 5 6625 45.02800000 3178268181 3178268181 0.00000000
40.52206802 14.38942528 -0.50061315 22 6 6625 43.00400000 3178268183 3178268183 -0.66700000
12.35040569 5.79850101 -2.12266874 2 7 6625 13.80800000 3178268183 3178268183 -8.84300000
14.62561035 6.01033163 -2.01271558 18 8 6626 15.94000000 3178268186 3178268186 -7.25400000
40.66930008 21.56965065 0.26755726 9 9 6626 46.03600000 3178268186 3178268186 0.33300000
40.37789536 16.58488464 -0.25370166 16 10 6627 43.65200000 3178268188 3178268188 -0.33300000
15.61562061 7.32486391 -1.85791957 2 11 6627 17.34800000 3178268188 3178268188 -6.14800000
18.12700462 6.42623091 -1.79530764 4 12 6628 19.31600000 3178268190 3178268190 -5.33300000
40.73290253 19.09802818 1.04684126 15 13 6628 45.00000000 3178268190 3178268190 1.33300000
40.26819611 14.26762581 0.49735364 21 14 6629 42.72400000 3178268192 3178268192 0.66700000
19.83983994 9.29788303 -1.53213120 6 15 6629 21.96400000 3178268192 3178268192 -4.00000000
18.84489632 7.72885513 -1.66276443 5 16 6630 20.43600000 3178268195 3178268195 -4.66700000
40.57947540 21.48572731 1.33630276 18 17 6630 45.93600000 3178268195 3178268195 1.66700000
40.38480377 16.56301498 0.76190227 21 18 6630 43.65600000 3178268197 3178268197 1.00000000
20.17915916 10.68431473 -1.46334851 8 19 6630 22.88000000 3178268197 3178268197 -3.66700000
20.65161133 7.30906296 -1.27580273 20 20 6631 21.94400000 3178268199 3178268199 -3.33300000
40.24016953 18.84130859 2.58765149 14 21 6631 44.50800000 3178268199 3178268199 3.33300000
40.60364151 16.63621140 1.78770089 9 22 6632 43.91600000 3178268202 3178268202 2.33300000
20.70397377 9.68963814 -1.06481826 26 23 6632 22.88400000 3178268202 3178268202 -2.66700000
20.67116356 8.46522141 -1.17065072 30 24 6633 22.36800000 3178268204 3178268204 -3.00000000
42.02468491 19.65897560 5.69666052 9 25 6633 46.74400000 3178268204 3178268204 7.00000000
42.83283997 17.53210640 3.77824068 32 26 6634 46.43600000 3178268206 3178268206 4.66700000
20.72714233 10.95593643 -0.95515561 26 27 6634 23.46400000 3178268206 3178268206 -2.33300000
20.70172119 7.31053925 -0.76667213 17 28 6635 21.96800000 3178268209 3178268209 -2.00000000
20.82008171 9.73069191 -0.53477305 10 31 6635 22.98800000 3178268211 3178268211 -1.33300000
5.42525387 2.21069217 -2.73180437 6 0 6643 6.46400000 3178268232 3178268232 -25.00000000
36.98359299 19.47449493 -0.72958040 8 1 6643 41.80400000 3178268232 3178268232 -1.00000000
20.73662567 8.44557667 -0.65162796 21 2 6644 22.40000000 3178268234 3178268234 -1.66700000
8.03894806 3.74179268 -2.48224998 2 3 6644 9.20800000 3178268234 3178268234 -15.63900000
10.65879440 4.33892679 -2.30163264 4 4 6645 11.73600000 3178268236 3178268236 -11.31000000
40.64448166 18.90966988 0.00000000 7 5 6645 44.82800000 3178268236 3178268236 0.00000000
40.37203598 14.17765045 -0.49814522 10 6 6645 42.79200000 3178268239 3178268239 -0.66700000
12.36340427 5.75202036 -2.12143874 2 7 6645 13.80000000 3178268239 3178268239 -8.84300000
40.58149338 21.34191322 0.26648787 19 9 6646 45.85200000 3178268241 3178268241 0.33300000
40.36143494 16.41370201 -0.25323671 16 10 6647 43.57200000 3178268243 3178268243 -0.33300000
15.64109421 7.27031088 -1.85791957 2 11 6647 17.34800000 3178268243 3178268243 -6.14800000
18.15308380 6.36423397 -1.79567945 4 12 6648 19.32000000 3178268245 3178268245 -5.33300000
40.78844070 18.95067215 1.04656219 15 13 6648 44.98800000 3178268245 3178268245 1.33300000
40.30265427 14.12168694 0.49716738 21 14 6649 42.70800000 3178268248 3178268248 0.66700000
19.86855507 9.22689152 -1.53185213 6 15 6649 21.96000000 3178268248 3178268248 -4.00000000
18.87545395 7.66452694 -1.66308987 5 16 6650 20.44000000 3178268250 3178268250 -4.66700000
40.56926727 21.29934120 1.33351004 18 17 6650 45.84000000 3178268250 3178268250 1.66700000
40.40447617 16.39834213 0.76113433 21 18 6651 43.61200000 3178268252 3178268252 1.00000000
20.21111298 10.60657215 -1.46283686 8 19 6651 22.87200000 3178268252 3178268252 -3.66700000
20.64684677 7.22637749 -1.27394223 20 20 6651 21.91200000 3178268255 3178268255 -3.33300000
40.31293869 18.70409012 2.58811665 14 21 6651 44.51600000 3178268255 3178268255 3.33300000
40.58369064 16.46282768 1.78428149 9 22 6652 43.83200000 3178268257 3178268257 2.33300000
20.69779778 9.59881783 -1.06277084 24 23 6652 22.84000000 3178268257 3178268257 -2.66700000
20.67097282 8.38100624 -1.16897595 30 24 6653 22.33600000 3178268259 3178268259 -3.00000000
42.15428543 19.54054832 5.70494747 9 25 6653 46.81200000 3178268259 3178268259 7.00000000
42.29890442 17.14141464 3.72584200 42 26 6654 45.79200000 3178268262 3178268262 4.66700000
20.72278023 10.86125469 -0.95320165 26 27 6654 23.41600000 3178268262 3178268262 -2.33300000
20.70446968 7.23032427 -0.76583457 17 28 6655 21.94400000 3178268264 3178268264 -2.00000000
20.84666443 9.65459633 -0.53458697 8 31 6655 22.98000000 3178268266 3178268266 -1.33300000
5.42957592 2.19038463 -2.73011398 6 0 6663 6.46000000 3178268287 3178268287 -25.00000000
37.07616425 19.35823822 -0.73006904 8 1 6663 41.83200000 3178268287 3178268287 -1.00000000
20.73631287 8.36117935 -0.65069705 18 2 6664 22.36800000 3178268289 3178268289 -1.66700000
8.05195999 3.71370864 -2.48224998 2 3 6664 9.20800000 3178268289 3178268289 -15.63900000
10.68842697 4.30755854 -2.30477047 2 4 6665 11.75200000 3178268291 3178268291 -11.31000000
40.64848709 18.73921013 0.00000000 15 5 6665 44.76000000 3178268291 3178268291 0.00000000
40.62399673 14.09908962 -0.50061315 22 6 6666 43.00400000 3178268294 3178268294 -0.66700000
12.38799286 5.70832157 -2.12205362 1 7 6666 13.80400000 3178268294 3178268294 -8.84300000
14.69665909 5.91994047 -2.01675606 2 8 6666 15.97200000 3178268296 3178268296 -7.25400000
40.79761124 21.27410507 0.26741776 19 9 6666 46.01200000 3178268296 3178268296 0.33300000
40.35911560 16.24881172 -0.25286475 16 10 6667 43.50800000 3178268298 3178268298 -0.33300000
15.65915203 7.21234131 -1.85706282 2 11 6667 17.34000000 3178268298 3178268298 -6.14800000
18.18271446 6.30343819 -1.79642296 4 12 6668 19.32800000 3178268301 3178268301 -5.33300000
40.70541000 18.73961449 1.04274702 15 13 6668 44.82400000 3178268301 3178268301 1.33300000
40.31391144 13.96782398 0.49670175 21 14 6669 42.66800000 3178268303 3178268303 0.66700000
19.91151619 9.16248512 -1.53268921 6 15 6669 21.97200000 3178268303 3178268303 -4.00000000
18.90949059 7.60156679 -1.66374075 5 16 6670 20.44800000 3178268305 3178268305 -4.66700000
40.56179810 21.11513519 1.33083379 9 17 6670 45.74800000 3178268305 3178268305 1.66700000
40.43265533 16.25382423 0.76064569 20 18 6670 43.58400000 3178268308 3178268308 1.00000000
20.24971581 10.54133511 -1.46309268 8 19 6670 22.87600000 3178268308 3178268308 -3.66700000
20.64553070 7.14512062 -1.27231431 20 20 6671 21.88400000 3178268310 3178268310 -3.33300000
40.30178833 18.52823067 2.58323288 14 21 6671 44.43200000 3178268310 3178268310 3.33300000
40.54818726 16.28382874 1.78021073 18 22 6672 43.73200000 3178268312 3178268312 2.33300000
20.69487000 9.50982666 -1.06090963 24 23 6672 22.80000000 3178268312 3178268312 -2.66700000
20.67044640 8.29689693 -1.16730118 30 24 6673 22.30400000 3178268315 3178268315 -3.00000000
44.02975464 20.22349930 5.94917393 10 25 6673 48.81600000 3178268315 3178268315 7.00000000
42.59528732 17.08866310 3.74667120 21 26 6674 46.04800000 3178268317 3178268317 4.66700000
20.72510338 10.77042294 -0.95157337 26 27 6674 23.37600000 3178268317 3178268317 -2.33300000
20.71068764 7.15148449 -0.76513654 17 28 6675 21.92400000 3178268319 3178268319 -2.00000000
20.86373520 9.56978798 -0.53412169 6 31 6676 22.96000000 3178268321 3178268321 -1.33300000
5.44055510 2.17276311 -2.73180437 7 0 6683 6.46400000 3178268342 3178268342 -25.00000000
37.47381592 19.39969444 -0.73656136 8 1 6683 42.20400000 3178268342 3178268342 -1.00000000
20.73566628 8.27688694 -0.64976615 13 2 6684 22.33600000 3178268344 3178268344 -1.66700000
8.06487465 3.68557954 -2.48224998 2 3 6684 9.20800000 3178268344 3178268344 -15.63900000
10.69611168 4.26731586 -2.30320144 2 4 6685 11.74400000 3178268347 3178268347 -11.31000000
40.60449982 18.54734802 0.00000000 15 5 6685 44.64000000 3178268347 3178268347 0.00000000
40.37030792 13.85334110 -0.49688798 21 6 6686 42.68400000 3178268349 3178268349 -0.66700000
12.41143894 5.66668606 -2.12266874 2 7 6686 13.80800000 3178268349 3178268349 -8.84300000
14.71723366 5.86860371 -2.01675606 2 8 6686 15.97200000 3178268351 3178268351 -7.25400000
40.83964539 21.11503220 0.26720855 9 9 6686 45.97600000 3178268351 3178268351 0.33300000
40.34127426 16.07821655 -0.25239980 16 10 6687 43.42800000 3178268354 3178268354 -0.33300000
15.74212170 7.18405485 -1.86391699 4 11 6687 17.40400000 3178268354 3178268354 -6.14800000
18.18577003 6.23347378 -1.79456413 4 12 6688 19.30800000 3178268356 3178268356 -5.33300000
40.63959885 18.53766632 1.03939712 15 13 6688 44.68000000 3178268356 3178268356 1.33300000
40.30187988 13.80627728 0.49595672 21 14 6689 42.60400000 3178268358 3178268358 0.66700000
19.93611717 9.08961487 -1.53213120 6 15 6689 21.96400000 3178268358 3178268358 -4.00000000
18.93220520 7.53403997 -1.66341531 5 16 6690 20.44400000 3178268361 3178268361 -4.66700000
40.74539948 21.03026772 1.33444095 18 17 6690 45.87200000 3178268361 3178268361 1.66700000
40.45941925 16.10075760 0.76008719 20 18 6690 43.55200000 3178268363 3178268363 1.00000000
20.27574730 10.46509361 -1.46232522 8 19 6690 22.86400000 3178268363 3178268363 -3.66700000
20.64767647 7.06525373 -1.27091897 20 20 6691 21.86000000 3178268365 3178268365 -3.33300000
40.24629974 18.33281136 2.57555866 21 21 6691 44.30000000 3178268365 3178268365 3.33300000
40.58992767 16.13628387 1.77955949 9 22 6692 43.71600000 3178268368 3178268368 2.33300000
20.69521141 9.42262840 -1.05923450 27 23 6692 22.76400000 3178268368 3178268368 -2.66700000
20.66215897 8.20994282 -1.16520774 22 24 6693 22.26400000 3178268370 3178268370 -3.00000000
42.42495346 16.84864044 3.72649288 21 26 6694 45.80000000 3178268372 3178268372 4.66700000
20.72704506 10.67970657 -0.94994509 26 27 6694 23.33600000 3178268372 3178268372 -2.33300000
20.70525932 7.06881428 -0.76401979 15 28 6695 21.89200000 3178268374 3178268374 -2.00000000
20.89899635 9.50220394 -0.53421474 6 31 6695 22.96400000 3178268377 3178268377 -1.33300000
5.44810629 2.15375876 -2.73180437 6 0 6703 6.46400000 3178268397 3178268397 -25.00000000
37.53063202 19.26329041 -0.73635191 8 1 6703 42.19200000 3178268397 3178268397 -1.00000000
20.74583817 8.19710922 -0.64918435 13 2 6704 22.31600000 3178268400 3178268400 -1.66700000
8.07418156 3.65581656 -2.48117161 2 3 6704 9.20400000 3178268400 3178268400 -15.63900000
10.70729446 4.22851276 -2.30241704 2 4 6705 11.74000000 3178268402 3178268402 -11.31000000
40.46492386 18.31314087 0.00000000 23 5 6705 44.41600000 3178268402 3178268402 0.00000000
40.37436295 13.70524979 -0.49637580 21 6 6705 42.64000000 3178268404 3178268404 -0.66700000
12.42656136 5.62386751 -2.12205362 2 7 6705 13.80400000 3178268404 3178268404 -8.84300000
14.73762894 5.81719494 -2.01675606 4 8 6706 15.97200000 3178268407 3178268407 -7.25400000
40.79563522 20.91213417 0.26644138 19 9 6706 45.84400000 3178268407 3178268407 0.33300000
40.33761978 15.91381359 -0.25202784 16 10 6707 43.36400000 3178268409 3178268409 -0.33300000
15.76347828 7.12742233 -1.86348867 2 11 6707 17.40000000 3178268409 3178268409 -6.14800000
18.22250557 6.17506838 -1.79605114 4 12 6708 19.32400000 3178268411 3178268411 -5.33300000
40.48177338 18.29523468 1.03372085 22 13 6708 44.43600000 3178268411 3178268411 1.33300000
40.30436707 13.65011692 0.49539793 21 14 6709 42.55600000 3178268414 3178268414 0.66700000
19.96045113 9.01668358 -1.53157318 6 15 6709 21.95600000 3178268414 3178268414 -4.00000000
18.96209908 7.46936941 -1.66374075 5 16 6710 20.44800000 3178268416 3178268416 -4.66700000
40.78296661 20.86969757 1.33327734 27 17 6710 45.83200000 3178268416 3178268416 1.66700000
40.38885498 15.90959358 0.75771368 20 18 6710 43.41600000 3178268418 3178268418 1.00000000
20.31215286 10.39425373 -1.46232522 8 19 6710 22.86400000 3178268418 3178268418 -3.66700000
20.65329933 6.98673868 -1.26975620 20 20 6711 21.84000000 3178268421 3178268421 -3.33300000
40.21905136 18.15114784 2.56974483 14 21 6711 44.20000000 3178268421 3178268421 3.33300000
40.38566971 15.89205551 1.76816142 9 22 6712 43.43600000 3178268423 3178268423 2.33300000
20.68791199 9.33225822 -1.05718708 22 23 6712 22.72000000 3178268423 3178268423 -2.66700000
20.66095352 8.12607193 -1.16353297 26 24 6713 22.23200000 3178268425 3178268425 -3.00000000
41.97295380 18.92506409 5.65327501 19 25 6713 46.38800000 3178268425 3178268425 7.00000000
42.53544998 16.72086716 3.73104930 31 26 6714 45.85600000 3178268427 3178268427 4.66700000
20.72504616 10.58729076 -0.94815397 26 27 6714 23.29200000 3178268427 3178268427 -2.33300000
20.71087074 6.99010468 -0.76332182 17 28 6715 21.87200000 3178268430 3178268430 -2.00000000
20.95191383 9.43375111 -0.53468001 6 31 6716 22.98400000 3178268432 3178268432 -1.33300000
5.45559120 2.13472819 -2.73180437 6 0 6723 6.46400000 3178268453 3178268453 -25.00000000
37.75804520 19.21378899 -0.73949337 8 1 6723 42.37200000 3178268453 3178268453 -1.00000000
20.74081230 8.11153603 -0.64813709 13 2 6724 22.28000000 3178268455 3178268455 -1.66700000
8.09040833 3.62918663 -2.48224998 2 3 6724 9.20800000 3178268455 3178268455 -15.63900000
10.72929573 4.19396782 -2.30398583 2 4 6725 11.74800000 3178268457 3178268457 -11.31000000
40.41910172 18.12268448 0.00000000 22 5 6725 44.29600000 3178268457 3178268457 0.00000000
40.36887360 13.54641914 -0.49572387 21 6 6725 42.58400000 3178268460 3178268460 -0.66700000
12.44611645 5.58045673 -2.12205362 2 7 6725 13.80400000 3178268460 3178268460 -8.84300000
14.75045395 5.76282787 -2.01574588 2 8 6726 15.96400000 3178268462 3178268462 -7.25400000
40.81489563 20.74242020 0.26609266 9 9 6726 45.78400000 3178268462 3178268462 0.33300000
40.33703232 15.75108814 -0.25167912 16 10 6727 43.30400000 3178268464 3178268464 -0.33300000
15.78826237 7.07235432 -1.86348867 2 11 6727 17.40000000 3178268464 3178268464 -6.14800000
18.21751404 6.10256672 -1.79344869 6 12 6728 19.29600000 3178268467 3178268467 -5.33300000
40.37019730 18.07537651 1.02925432 15 13 6728 44.24400000 3178268467 3178268467 1.33300000
40.29867172 13.49156761 0.49474603 21 14 6729 42.50000000 3178268469 3178268469 0.66700000
19.98451996 8.94369411 -1.53101504 6 15 6729 21.94800000 3178268469 3178268469 -4.00000000
18.98062706 7.40023756 -1.66308987 5 16 6730 20.44000000 3178268471 3178268471 -4.66700000
40.71650314 20.65666199 1.32873929 18 17 6730 45.67600000 3178268471 3178268471 1.66700000
40.41806030 15.75834370 0.75722504 20 18 6730 43.38800000 3178268474 3178268474 1.00000000
20.33407211 10.31606388 -1.46130180 8 19 6730 22.84800000 3178268474 3178268474 -3.66700000
20.64726639 6.90447140 -1.26789582 20 20 6731 21.80800000 3178268476 3178268476 -3.33300000
39.96136856 17.86721420 2.54927969 21 21 6731 43.84800000 3178268476 3178268476 3.33300000
40.49675751 15.77274418 1.77060390 18 22 6732 43.49600000 3178268478 3178268478 2.33300000
20.68753052 9.24531460 -1.05551195 24 23 6732 22.68400000 3178268478 3178268478 -2.66700000
20.66685867 8.04520798 -1.16227686 22 24 6733 22.20800000 3178268480 3178268480 -3.00000000
41.87563705 18.70557022 5.63133860 18 25 6733 46.20800000 3178268480 3178268480 7.00000000
41.49007797 16.14294624 3.63438821 20 26 6734 44.66800000 3178268483 3178268483 4.66700000
20.71909142 10.49321365 -0.94620001 26 27 6734 23.24400000 3178268483 3178268483 -2.33300000
20.70480728 6.90764666 -0.76220500 17 28 6735 21.84000000 3178268485 3178268485 -2.00000000
20.99202156 9.36381531 -0.53486609 6 31 6736 22.99200000 3178268487 3178268487 -1.33300000
5.45962906 2.11436248 -2.73011398 7 0 6743 6.46000000 3178268508 3178268508 -25.00000000
38.09983063 19.22057533 -0.74486870 9 1 6743 42.68000000 3178268508 3178268508 -1.00000000
20.72798538 8.02321148 -0.64685714 13 2 6744 22.23600000 3178268510 3178268510 -1.66700000
8.10654736 3.60248804 -2.48332834 4 3 6744 9.21200000 3178268510 3178268510 -15.63900000
10.74021244 4.15507460 -2.30320144 2 4 6745 11.74400000 3178268513 3178268513 -11.31000000
40.39803696 17.94413948 0.00000000 22 5 6745 44.20400000 3178268513 3178268513 0.00000000
40.31341171 13.37142467 -0.49446666 21 6 6745 42.47600000 3178268515 3178268515 -0.66700000
12.47274399 5.54018641 -2.12328362 2 7 6745 13.81200000 3178268515 3178268515 -8.84300000
14.77418041 5.71273518 -2.01625109 2 8 6746 15.96800000 3178268517 3178268517 -7.25400000
40.75488281 20.53323364 0.26523250 19 9 6746 45.63600000 3178268517 3178268517 0.33300000
40.33207321 15.58711910 -0.25130716 16 10 6747 43.24000000 3178268520 3178268520 -0.33300000
15.81285286 7.01719952 -1.86348867 2 11 6747 17.40000000 3178268520 3178268520 -6.14800000
18.20845795 6.02892399 -1.79047453 14 12 6748 19.26400000 3178268522 3178268522 -5.33300000
40.36359406 17.90354156 1.02748632 15 13 6748 44.16800000 3178268522 3178268522 1.33300000
40.28476334 13.33071232 0.49400100 21 14 6749 42.43600000 3178268524 3178268524 0.66700000
20.01926613 8.87549782 -1.53129411 6 15 6749 21.95200000 3178268524 3178268524 -4.00000000
19.01378250 7.33680820 -1.66374075 5 16 6750 20.44800000 3178268527 3178268527 -4.66700000
40.75264359 20.49644279 1.32757556 18 17 6750 45.63600000 3178268527 3178268527 1.66700000
40.43924332 15.60420513 0.75659674 20 18 6750 43.35200000 3178268529 3178268529 1.00000000
20.36639214 10.24322796 -1.46104598 8 19 6750 22.84400000 3178268529 3178268529 -3.66700000
20.64470100 6.82358503 -1.26626790 20 20 6751 21.78000000 3178268531 3178268531 -3.33300000
39.90300751 17.67424774 2.54160547 14 21 6751 43.71600000 3178268531 3178268531 3.33300000
40.53292465 15.62410069 1.76978970 18 22 6752 43.47600000 3178268533 3178268533 2.33300000
20.68679428 9.15848732 -1.05383694 19 23 6752 22.64800000 3178268533 3178268533 -2.66700000
20.67245102 7.96440125 -1.16102087 26 24 6753 22.18400000 3178268536 3178268536 -3.00000000
42.00239563 18.58659554 5.63962555 28 25 6753 46.27600000 3178268536 3178268536 7.00000000
42.42047882 16.33468628 3.71087098 21 26 6754 45.60800000 3178268538 3178268538 4.66700000
20.71273041 10.39930725 -0.94424605 25 27 6754 23.19600000 3178268538 3178268538 -2.33300000
20.69842148 6.82531595 -0.76108825 17 28 6755 21.80800000 3178268540 3178268540 -2.00000000
21.02092171 9.28886604 -0.53477305 6 31 6756 22.98800000 3178268543 3178268543 -1.33300000
5.47036123 2.09658933 -2.73180437 7 0 6763 6.46400000 3178268563 3178268563 -25.00000000
38.34553909 19.17691040 -0.74835920 9 1 6763 42.88000000 3178268563 3178268563 -1.00000000
20.73719597 7.94365740 -0.64627528 7 2 6764 22.21600000 3178268566 3178268566 -1.66700000
8.11554718 3.57261705 -2.48224998 3 3 6764 9.20800000 3178268566 3178268566 -15.63900000
10.75465012 4.11755896 -2.30320144 4 4 6765 11.74400000 3178268568 3178268568 -11.31000000
40.42381668 17.78690529 0.00000000 22 5 6765 44.16400000 3178268568 3178268568 0.00000000
40.27242279 13.20196724 -0.49339566 32 6 6765 42.38400000 3178268570 3178268570 -0.66700000
12.50286007 5.50138998 -2.12512827 2 7 6765 13.82400000 3178268570 3178268570 -8.84300000
14.79773808 5.66254711 -2.01675606 4 8 6766 15.97200000 3178268573 3178268573 -7.25400000
40.76905441 20.36225128 0.26486054 9 9 6766 45.57200000 3178268573 3178268573 0.33300000
40.33019638 15.42480564 -0.25095844 16 10 6767 43.18000000 3178268575 3178268575 -0.33300000
15.84089184 6.96356010 -1.86391699 2 11 6767 17.40400000 3178268575 3178268575 -6.14800000
18.21803665 5.96161175 -1.78935921 24 12 6768 19.25200000 3178268577 3178268577 -5.33300000
40.34896088 17.72875595 1.02553225 14 13 6768 44.08400000 3178268577 3178268577 1.33300000
40.30064011 13.18006420 0.49362850 21 14 6769 42.40400000 3178268579 3178268579 0.66700000
20.05377769 8.80716801 -1.53157318 6 15 6769 21.95600000 3178268579 3178268579 -4.00000000
19.04300117 7.27181482 -1.66406620 5 16 6770 20.45200000 3178268582 3178268582 -4.66700000
40.68080902 20.28270340 1.32292116 18 17 6770 45.47600000 3178268582 3178268582 1.66700000
40.37016678 15.41586781 0.75429302 30 18 6770 43.22000000 3178268584 3178268584 1.00000000
20.40202332 10.17207432 -1.46104598 8 19 6770 22.84400000 3178268584 3178268584 -3.66700000
20.63802719 6.74156046 -1.26440740 20 20 6771 21.74800000 3178268586 3178268586 -3.33300000
39.90594864 17.50918007 2.53788447 20 21 6771 43.65200000 3178268586 3178268586 3.33300000
40.60588455 15.48964119 1.77060390 9 22 6772 43.49600000 3178268589 3178268589 2.33300000
20.68936348 9.07338333 -1.05234790 24 23 6772 22.61600000 3178268589 3178268589 -2.66700000
20.67399788 7.88223124 -1.15955544 26 24 6773 22.15600000 3178268591 3178268591 -3.00000000
42.25609970 18.52274895 5.66497469 19 25 6773 46.48400000 3178268591 3178268591 7.00000000
42.35430145 16.13966370 3.70013070 31 26 6774 45.47600000 3178268593 3178268593 4.66700000
20.71670341 10.31091499 -0.94278061 25 27 6774 23.16000000 3178268593 3178268593 -2.33300000
20.69551468 6.74435282 -0.76011103 17 28 6775 21.78000000 3178268596 3178268596 -2.00000000
21.04222679 9.21062279 -0.53449392 6 31 6776 22.97600000 3178268598 3178268598 -1.33300000
5.48103619 2.07876706 -2.73349500 6 0 6783 6.46800000 3178268619 3178268619 -25.00000000
38.41941452 19.04649544 -0.74849880 9 1 6783 42.88800000 3178268619 3178268619 -1.00000000
20.74610519 7.86413670 -0.64569348 10 2 6784 22.19600000 3178268621 3178268621 -1.66700000
8.12443733 3.54272699 -2.48117161 4 3 6784 9.20400000 3178268621 3178268621 -15.63900000
10.77262592 4.08138275 -2.30398583 2 4 6785 11.74800000 3178268623 3178268623 -11.31000000
40.41231918 17.61372757 0.00000000 15 5 6785 44.08400000 3178268623 3178268623 0.00000000
40.33728790 13.06747246 -0.49362850 32 6 6785 42.40400000 3178268626 3178268626 -0.66700000
12.52198696 5.45771360 -2.12512827 2 7 6785 13.82400000 3178268626 3178268626 -8.84300000
14.81370258 5.60945368 -2.01625109 3 8 6786 15.96800000 3178268628 3178268628 -7.25400000
40.68574524 20.14350128 0.26386088 19 9 6786 45.40000000 3178268628 3178268628 0.33300000
40.34264374 15.26835918 -0.25070271 16 10 6787 43.13600000 3178268630 3178268630 -0.33300000
15.86510277 6.90822268 -1.86391699 4 11 6787 17.40400000 3178268630 3178268630 -6.14800000
18.23494720 5.89675713 -1.78898740 28 12 6788 19.24800000 3178268632 3178268632 -5.33300000
40.35193253 17.56227112 1.02404344 14 13 6788 44.02000000 3178268632 3178268632 1.33300000
40.30834198 13.02700901 0.49316284 21 14 6789 42.36400000 3178268635 3178268635 0.66700000
20.08073997 8.73552132 -1.53129411 6 15 6789 21.95200000 3178268635 3178268635 -4.00000000
19.06453896 7.20388889 -1.66374075 5 16 6790 20.44800000 3178268637 3178268637 -4.66700000
40.72268677 20.12640572 1.32199025 18 17 6790 45.44400000 3178268637 3178268637 1.66700000
40.40502548 15.26778793 0.75394398 30 18 6790 43.20000000 3178268639 3178268639 1.00000000
20.43382835 10.09902668 -1.46079016 8 19 6790 22.84000000 3178268639 3178268639 -3.66700000
20.63863182 6.66211891 -1.26301205 20 20 6791 21.72400000 3178268642 3178268642 -3.33300000
40.00344849 17.38569260 2.54021001 20 21 6791 43.69200000 3178268642 3178268642 3.33300000
40.61857605 15.33228016 1.76881278 18 22 6792 43.45200000 3178268644 3178268644 2.33300000
20.68059540 8.98359680 -1.05030048 24 23 6792 22.57200000 3178268644 3178268644 -2.66700000
20.66401291 7.79591751 -1.15746200 30 24 6793 22.11600000 3178268646 3178268646 -3.00000000
42.73565674 18.55539131 5.72054720 19 25 6793 46.94000000 3178268646 3178268646 7.00000000
42.64539337 16.08033752 3.72063470 31 26 6794 45.72800000 3178268649 3178268649 4.66700000
20.72031021 10.22262287 -0.94131517 25 27 6794 23.12400000 3178268649 3178268649 -2.33300000
20.70371056 6.66716957 -0.75955266 17 28 6795 21.76400000 3178268651 3178268651 -2.00000000
21.06531715 9.13761044 -0.53430778 4 31 6795 22.96800000 3178268653 3178268653 -1.33300000
5.49165297 2.06089568 -2.73518538 7 0 6803 6.47200000 3178268674 3178268674 -25.00000000
38.48925400 18.91403389 -0.74856859 9 1 6803 42.89200000 3178268674 3178268674 -1.00000000
20.76219749 7.78745890 -0.64534444 7 2 6804 22.18400000 3178268676 3178268676 -1.66700000
8.14029121 3.51587319 -2.48224998 4 3 6804 9.20800000 3178268676 3178268676 -15.63900000
10.77946186 4.04100084 -2.30241704 4 4 6805 11.74000000 3178268679 3178268679 -11.31000000
40.40378189 17.44243240 0.00000000 22 5 6805 44.00800000 3178268679 3178268679 0.00000000
40.36205292 12.91222954 -0.49334911 32 6 6806 42.38000000 3178268681 3178268681 -0.66700000
12.54190731 5.41178131 -2.12512827 2 7 6806 13.82400000 3178268681 3178268681 -8.84300000
14.84062481 5.56049442 -2.01726103 4 8 6806 15.97600000 3178268683 3178268683 -7.25400000
40.79530716 20.02074242 0.26411662 9 9 6806 45.44400000 3178268683 3178268683 0.33300000
40.35448837 15.11201286 -0.25044698 16 10 6807 43.09200000 3178268685 3178268685 -0.33300000
15.89277172 6.85437632 -1.86434543 2 11 6807 17.40800000 3178268685 3178268685 -6.14800000
18.25541878 5.83306980 -1.78898740 16 12 6808 19.24800000 3178268688 3178268688 -5.33300000
40.36157990 17.39914703 1.02274072 22 13 6808 43.96400000 3178268688 3178268688 1.33300000
40.28498459 12.86432648 0.49232468 20 14 6809 42.29200000 3178268690 3178268690 0.66700000
20.12210274 8.67011070 -1.53213120 6 15 6809 21.96400000 3178268690 3178268690 -4.00000000
19.09330368 7.13869381 -1.66406620 5 16 6810 20.45200000 3178268692 3178268692 -4.66700000
40.66343307 19.92081070 1.31780124 27 17 6810 45.30000000 3178268692 3178268692 1.66700000
40.42325211 15.10559368 0.75324589 30 18 6811 43.16000000 3178268695 3178268695 1.00000000
20.46712112 10.02231026 -1.46053433 8 19 6811 22.83600000 3178268695 3178268695 -3.66700000
20.63513184 6.58154202 -1.26138425 16 20 6811 21.69600000 3178268697 3178268697 -3.33300000
39.95385742 17.19858360 2.53323340 20 21 6811 43.57200000 3178268697 3178268697 3.33300000
40.55204010 15.14565372 1.76360226 9 22 6812 43.32400000 3178268699 3178268699 2.33300000
20.68613625 8.90029907 -1.04899764 24 23 6812 22.54400000 3178268699 3178268699 -2.66700000
20.65367699 7.70976973 -1.15536857 30 24 6813 22.07600000 3178268702 3178268702 -3.00000000
42.92781830 18.46100044 5.73760891 19 25 6813 47.08000000 3178268702 3178268702 7.00000000
42.86188126 15.99130344 3.73462939 31 26 6814 45.90000000 3178268704 3178268704 4.66700000
20.70560265 10.12565231 -0.93903553 27 27 6814 23.06800000 3178268704 3178268704 -2.33300000
20.70400047 6.58758736 -0.75871503 17 28 6815 21.74000000 3178268706 3178268706 -2.00000000
21.07871437 9.05613041 -0.53384256 4 31 6815 22.94800000 3178268709 3178268709 -1.33300000
5.49201632 2.03918982 -2.73180437 8 0 6823 6.46400000 3178268729 3178268729 -25.00000000
38.57301712 18.78832245 -0.74891764 9 1 6823 42.91200000 3178268729 3178268729 -1.00000000
20.81924248 7.72606659 -0.64627528 7 2 6824 22.21600000 3178268732 3178268732 -1.66700000
8.15605545 3.48895192 -2.48332834 3 3 6824 9.21200000 3178268732 3178268732 -15.63900000
10.79350185 4.00334883 -2.30241704 4 4 6825 11.74000000 3178268734 3178268734 -11.31000000
40.40557480 17.27612877 0.00000000 22 5 6825 43.94400000 3178268734 3178268734 0.00000000
40.39925003 12.76885033 -0.49325597 21 6 6826 42.37200000 3178268736 3178268736 -0.66700000
12.55345249 5.36486244 -2.12389851 2 7 6826 13.81600000 3178268736 3178268736 -8.84300000
14.85994434 5.50865698 -2.01726103 4 8 6826 15.97600000 3178268738 3178268738 -7.25400000
40.81099319 19.85197449 0.26376790 9 9 6826 45.38400000 3178268738 3178268738 0.33300000
40.34323120 14.94743347 -0.25005177 16 10 6827 43.02400000 3178268741 3178268741 -0.33300000
15.91294384 6.79729605 -1.86391699 4 11 6827 17.40400000 3178268741 3178268741 -6.14800000
18.26427460 5.76571369 -1.78787208 16 12 6828 19.23600000 3178268743 3178268743 -5.33300000
40.34851074 17.22674751 1.02087963 14 13 6828 43.88400000 3178268743 3178268743 1.33300000
40.27624130 12.70677948 0.49167278 20 14 6829 42.23600000 3178268745 3178268745 0.66700000
20.15224457 8.59981823 -1.53213120 6 15 6829 21.96400000 3178268745 3178268745 -4.00000000
19.11436653 7.07061911 -1.66374075 5 16 6830 20.44800000 3178268748 3178268748 -4.66700000
40.49893570 19.66522598 1.31023765 18 17 6830 45.04000000 3178268748 3178268748 1.66700000
40.37559509 14.93538666 0.75143081 30 18 6830 43.05600000 3178268750 3178268750 1.00000000
20.50383377 9.95612717 -1.46079016 8 19 6830 22.84000000 3178268750 3178268750 -3.66700000
20.63893509 6.50347137 -1.26022136 16 20 6831 21.67600000 3178268752 3178268752 -3.33300000
39.98058701 17.04491806 2.53114033 20 21 6831 43.53600000 3178268752 3178268752 3.33300000
40.56716919 14.99015617 1.76197398 18 22 6832 43.28400000 3178268755 3178268755 2.33300000
20.68031883 8.81237316 -1.04713643 24 23 6832 22.50400000 3178268755 3178268755 -2.66700000
20.65423203 7.62794065 -1.15390313 30 24 6833 22.04800000 3178268757 3178268757 -3.00000000
42.80523682 15.80017376 3.72486567 31 26 6834 45.78000000 3178268759 3178268759 4.66700000
20.70845413 10.03762531 -0.93757010 25 27 6834 23.03200000 3178268759 3178268759 -2.33300000
20.70780182 6.50928259 -0.75801706 17 28 6835 21.72000000 3178268762 3178268762 -2.00000000
49.44195938 18.24010277 9.60843086 17 30 6835 53.56800000 3178268764 3178268764 10.33300000
34.52991104 14.69265270 -0.87320524 4 31 6835 37.53600000 3178268764 3178268764 -1.33300000
5.49910116 2.02000690 -2.73180437 6 0 6843 6.46400000 3178268784 3178268784 -25.00000000
38.61315536 18.64139175 -0.74842900 9 1 6843 42.88400000 3178268784 3178268784 -1.00000000
20.86109924 7.65885878 -0.64674073 5 2 6844 22.23200000 3178268786 3178268786 -1.66700000
8.16818428 3.46046066 -2.48332834 3 3 6844 9.21200000 3178268786 3178268786 -15.63900000
10.80741024 3.96564817 -2.30241704 4 4 6845 11.74000000 3178268789 3178268789 -11.31000000
40.40670013 17.11002731 0.00000000 22 5 6845 43.88000000 3178268789 3178268789 0.00000000
40.36883545 12.61214828 -0.49237126 21 6 6845 42.29600000 3178268791 3178268791 -0.66700000
12.57481289 5.32474566 -2.12451339 2 7 6845 13.82000000 3178268791 3178268791 -8.84300000
14.87535667 5.45538616 -2.01675606 2 8 6846 15.97200000 3178268793 3178268793 -7.25400000
40.76113892 19.65207100 0.26300073 9 9 6846 45.25200000 3178268793 3178268793 0.33300000
40.33131790 14.78311634 -0.24965656 16 10 6847 42.95600000 3178268796 3178268796 -0.33300000
15.94023705 6.74325752 -1.86434543 2 11 6847 17.40800000 3178268796 3178268796 -6.14800000
18.29189491 5.70429611 -1.78861570 4 12 6848 19.24400000 3178268798 3178268798 -5.33300000
40.34578323 17.05932617 1.01929772 14 13 6848 43.81600000 3178268798 3178268798 1.33300000
40.29362106 12.55778122 0.49134684 20 14 6849 42.20800000 3178268800 3178268800 0.66700000
20.18214226 8.52942181 -1.53213120 6 15 6849 21.96400000 3178268800 3178268800 -4.00000000
19.14267540 7.00522423 -1.66406620 5 16 6850 20.45200000 3178268802 3178268802 -4.66700000
40.53490829 19.50813293 1.30919039 9 17 6850 45.00400000 3178268802 3178268802 1.66700000
40.31480789 14.75312519 0.74933654 20 18 6850 42.93600000 3178268805 3178268805 1.00000000
20.52047729 9.87583923 -1.45951104 8 19 6850 22.82000000 3178268805 3178268805 -3.66700000
20.63482285 6.42308092 -1.25859356 16 20 6851 21.64800000 3178268807 3178268807 -3.33300000
39.98833847 16.88351250 2.52788472 20 21 6851 43.48000000 3178268807 3178268807 3.33300000
40.58546448 14.83610916 1.76050842 18 22 6852 43.24800000 3178268809 3178268809 2.33300000
20.67782211 8.72614956 -1.04546130 24 23 6852 22.46800000 3178268809 3178268809 -2.66700000
20.65822220 7.54757261 -1.15264714 30 24 6853 22.02400000 3178268812 3178268812 -3.00000000
43.38488388 18.29972839 5.78148174 19 25 6853 47.44000000 3178268812 3178268812 7.00000000
42.05123520 15.35528660 3.65456676 41 26 6854 44.91600000 3178268814 3178268814 4.66700000
20.70734024 9.94797134 -0.93594182 27 27 6854 22.99200000 3178268814 3178268814 -2.33300000
20.70367241 6.42866135 -0.75703990 15 28 6855 21.69200000 3178268816 3178268816 -2.00000000
49.53490067 18.07819939 9.61417103 17 30 6855 53.60000000 3178268819 3178268819 10.33300000
34.68048477 14.61395931 -0.87571764 9 31 6855 37.64400000 3178268819 3178268819 -1.33300000
5.50611877 2.00079894 -2.73180437 6 0 6863 6.46400000 3178268839 3178268839 -25.00000000
38.63109207 18.48405266 -0.74752146 9 1 6863 42.83200000 3178268839 3178268839 -1.00000000
20.90649605 7.59281778 -0.64732254 5 2 6864 22.25200000 3178268842 3178268842 -1.66700000
8.16955757 3.42745662 -2.48009324 2 3 6864 9.20000000 3178268842 3178268842 -15.63900000
10.82856083 3.93057561 -2.30398583 4 4 6865 11.74800000 3178268844 3178268844 -11.31000000
40.39978027 16.94103432 0.00000000 15 5 6865 43.80800000 3178268844 3178268844 0.00000000
40.37057495 12.45818424 -0.49185905 21 6 6865 42.25200000 3178268846 3178268846 -0.66700000
12.59332371 5.28081894 -2.12451339 2 7 6865 13.82000000 3178268846 3178268846 -8.84300000
14.89430904 5.40342855 -2.01675606 4 8 6866 15.97200000 3178268849 3178268849 -7.25400000
40.77535248 19.48380089 0.26265201 9 9 6866 45.19200000 3178268849 3178268849 0.33300000
40.33002853 14.62315464 -0.24933110 16 10 6867 42.90000000 3178268851 3178268851 -0.33300000
15.94900608 6.68142796 -1.86263192 2 11 6867 17.39200000 3178268851 3178268851 -6.14800000
18.32691956 5.64510012 -1.79010272 4 12 6868 19.26000000 3178268853 3178268853 -5.33300000
40.35713577 16.89830971 1.01808810 14 13 6868 43.76400000 3178268853 3178268853 1.33300000
40.29516220 12.40410900 0.49083462 20 14 6869 42.16400000 3178268855 3178268855 0.66700000
20.21179199 8.45892048 -1.53213120 6 15 6869 21.96400000 3178268855 3178268855 -4.00000000
19.17450905 6.94107533 -1.66471708 5 16 6870 20.46000000 3178268858 3178268858 -4.66700000
40.55945206 19.34586525 1.30779409 9 17 6870 44.95600000 3178268858 3178268858 1.66700000
40.30589294 14.59052944 0.74821955 30 18 6870 42.87200000 3178268860 3178268860 1.00000000
20.55842972 9.80586815 -1.45976686 8 19 6870 22.82400000 3178268860 3178268860 -3.66700000
20.62658119 6.34162474 -1.25673306 10 20 6871 21.61600000 3178268862 3178268862 -3.33300000
39.97334671 16.71301651 2.52323341 20 21 6871 43.40000000 3178268862 3178268862 3.33300000
40.38142776 14.60193157 1.74943614 18 22 6872 42.97600000 3178268865 3178268865 2.33300000
20.67866325 8.64159203 -1.04397225 26 23 6872 22.43600000 3178268865 3178268865 -2.66700000
20.66190147 7.46726990 -1.15139103 30 24 6873 22.00000000 3178268867 3178268867 -3.00000000
42.24688339 17.64626884 5.62158918 28 25 6873 46.12800000 3178268867 3178268867 7.00000000
42.10832977 15.20976162 3.65489221 20 26 6874 44.92000000 3178268869 3178268869 4.66700000
20.70585442 9.85844707 -0.93431348 27 27 6874 22.95200000 3178268869 3178268869 -2.33300000
20.69541168 6.34697580 -0.75592309 17 28 6875 21.66000000 3178268872 3178268872 -2.00000000
49.59770584 17.90517998 9.61417103 17 30 6875 53.60000000 3178268874 3178268874 10.33300000
34.71652603 14.48665237 -0.87534547 14 31 6875 37.62800000 3178268874 3178268874 -1.33300000
5.51306915 1.98156691 -2.73180437 7 0 6883 6.46400000 3178268895 3178268895 -25.00000000
38.58696747 18.29768562 -0.74542719 9 1 6883 42.71200000 3178268895 3178268895 -1.00000000
20.94039917 7.52249765 -0.64755529 5 2 6884 22.26000000 3178268897 3178268897 -1.66700000
8.18858624 3.40187430 -2.48224998 3 3 6884 9.20800000 3178268897 3178268897 -15.63900000
10.83852386 3.89142752 -2.30320144 4 4 6885 11.74400000 3178268899 3178268899 -11.31000000
40.40325546 16.77689934 0.00000000 15 5 6885 43.74800000 3178268899 3178268899 0.00000000
40.46737671 12.33351421 -0.49251094 21 6 6885 42.30800000 3178268902 3178268902 -0.66700000
12.61533070 5.23834324 -2.12512827 2 7 6885 13.82400000 3178268902 3178268902 -8.84300000
14.92054939 5.35408497 -2.01776624 4 8 6886 15.98000000 3178268904 3178268904 -7.25400000
40.83588409 19.33792496 0.26260552 18 9 6886 45.18400000 3178268904 3178268904 0.33300000
40.32811356 14.46338272 -0.24900563 16 10 6887 42.84400000 3178268906 3178268906 -0.33300000
15.97590446 6.62723875 -1.86306024 2 11 6887 17.39600000 3178268906 3178268906 -6.14800000
18.35413361 5.58341122 -1.79084635 4 12 6888 19.26800000 3178268908 3178268908 -5.33300000
40.34199524 16.72670174 1.01622701 14 13 6888 43.68400000 3178268908 3178268908 1.33300000
40.44919205 12.29711628 0.49218500 10 14 6889 42.28000000 3178268911 3178268911 0.66700000
20.23750877 8.38678932 -1.53185213 6 15 6889 21.96000000 3178268911 3178268911 -4.00000000
19.19111443 6.87141371 -1.66406620 5 16 6890 20.45200000 3178268913 3178268913 -4.66700000
40.71710205 19.24688721 1.31070316 18 17 6890 45.05600000 3178268913 3178268913 1.66700000
40.30638123 14.42383766 0.74724221 30 18 6891 42.81600000 3178268915 3178268915 1.00000000
20.59423065 9.73045158 -1.45976686 8 19 6891 22.82400000 3178268915 3178268915 -3.66700000
20.62184525 6.26146460 -1.25510514 10 20 6891 21.58800000 3178268918 3178268918 -3.33300000
39.92444611 16.52908325 2.51648927 20 21 6891 43.28400000 3178268918 3178268918 3.33300000
40.54504776 14.50126362 1.75432098 9 22 6892 43.09600000 3178268920 3178268920 2.33300000
20.68285751 8.55866337 -1.04266942 26 23 6892 22.40800000 3178268920 3178268920 -2.66700000
20.66151047 7.38568926 -1.14992559 30 24 6893 21.97200000 3178268922 3178268922 -3.00000000
42.22751236 17.46530914 5.61086464 28 25 6893 46.04000000 3178268922 3178268922 7.00000000
42.89701462 15.32557583 3.71868181 21 26 6894 45.70400000 3178268925 3178268925 4.66700000
20.70760918 9.77076054 -0.93284804 27 27 6894 22.91600000 3178268925 3178268925 -2.33300000
20.68300819 6.26426792 -0.75466675 17 28 6895 21.62400000 3178268927 3178268927 -2.00000000
49.60431290 17.71209335 9.60340881 17 30 6895 53.54000000 3178268929 3178268929 10.33300000
34.59317398 14.29360771 -0.87097198 9 31 6895 37.44000000 3178268929 3178268929 -1.33300000
5.51653671 1.96109629 -2.73011398 8 0 6903 6.46000000 3178268950 3178268950 -25.00000000
38.65422058 18.16458130 -0.74549699 9 1 6903 42.71600000 3178268950 3178268950 -1.00000000
20.97406387 7.45203352 -0.64778799 5 2 6904 22.26800000 3178268952 3178268952 -1.66700000
8.19328690 3.37033939 -2.48009324 2 3 6904 9.20000000 3178268952 3178268952 -15.63900000
10.85573769 3.85488296 -2.30398583 2 4 6905 11.74800000 3178268954 3178268954 -11.31000000
40.39868164 16.60990524 0.00000000 22 5 6905 43.68000000 3178268954 3178268954 0.00000000
40.51996994 12.18741512 -0.49260408 10 6 6906 42.31600000 3178268957 3178268957 -0.66700000
12.63444519 5.19207096 -2.12512827 1 7 6906 13.82400000 3178268957 3178268957 -8.84300000
14.93540859 5.30064297 -2.01726103 4 8 6906 15.97600000 3178268959 3178268959 -7.25400000
40.75105667 19.12389374 0.26162910 18 9 6906 45.01600000 3178268959 3178268959 0.33300000
40.32934952 14.30514050 -0.24870341 16 10 6907 42.79200000 3178268961 3178268961 -0.33300000
16.00629807 6.57445383 -1.86391699 2 11 6907 17.40400000 3178268961 3178268961 -6.14800000
18.37732506 5.52045488 -1.79121804 4 12 6908 19.27200000 3178268964 3178268964 -5.33300000
40.33724976 16.55996323 1.01464510 14 13 6908 43.61600000 3178268964 3178268964 1.33300000
40.53400803 12.16849709 0.49269721 31 14 6909 42.32400000 3178268966 3178268966 0.66700000
20.25927925 8.31306648 -1.53129411 6 15 6909 21.95200000 3178268966 3178268966 -4.00000000
19.21122551 6.80305147 -1.66374075 5 16 6910 20.44800000 3178268968 3178268968 -4.66700000
40.76593781 19.09615898 1.31012130 18 17 6910 45.03600000 3178268968 3178268968 1.66700000
40.28236008 14.26473236 0.74591583 20 18 6910 42.74000000 3178268971 3178268971 1.00000000
20.60108185 9.65025139 -1.45797610 8 19 6910 22.79600000 3178268971 3178268971 -3.66700000
20.62062645 6.18256187 -1.25370979 13 20 6911 21.56400000 3178268973 3178268973 -3.33300000
39.99667740 16.39567947 2.51741958 20 21 6911 43.30000000 3178268973 3178268973 3.33300000
40.56527710 14.34898376 1.75301838 18 22 6912 43.06400000 3178268975 3178268975 2.33300000
20.67563248 8.47126484 -1.04080820 24 23 6912 22.36800000 3178268975 3178268975 -2.66700000
20.66080284 7.30420208 -1.14846027 30 24 6913 21.94400000 3178268978 3178268978 -3.00000000
42.27719879 17.31328773 5.60940218 18 25 6913 46.02800000 3178268978 3178268978 7.00000000
44.64179611 15.77342319 3.86513782 11 26 6914 47.50400000 3178268980 3178268980 4.66700000
20.71262550 9.68487549 -0.93154544 25 27 6914 22.88400000 3178268980 3178268980 -2.33300000
20.68559837 6.18630552 -0.75396872 17 28 6915 21.60400000 3178268982 3178268982 -2.00000000
49.53902054 17.48432541 9.57829762 17 30 6916 53.40000000 3178268984 3178268984 10.33300000
34.65273285 14.16974831 -0.87115806 9 31 6916 37.44800000 3178268984 3178268984 -1.33300000
5.53360891 1.94543517 -2.73518538 7 0 6923 6.47200000 3178269005 3178269005 -25.00000000
38.69926453 18.02110100 -0.74514794 9 1 6923 42.69600000 3178269005 3178269005 -1.00000000
20.98486137 7.37347317 -0.64732254 2 2 6924 22.25200000 3178269007 3178269007 -1.66700000
8.19786644 3.33881307 -2.47793674 3 3 6924 9.19200000 3178269007 3178269007 -15.63900000
10.86542606 3.81566620 -2.30320144 2 4 6925 11.74400000 3178269010 3178269010 -11.31000000
40.39343262 16.44314957 0.00000000 15 5 6925 43.61200000 3178269010 3178269010 0.00000000
40.73480606 12.09713936 -0.49469948 10 6 6926 42.49600000 3178269012 3178269012 -0.66700000
12.66347504 5.15240526 -2.12697291 2 7 6926 13.83600000 3178269012 3178269012 -8.84300000
14.95382023 5.24847603 -2.01726103 4 8 6926 15.97600000 3178269014 3178269014 -7.25400000
40.78491974 18.96634865 0.26141989 9 9 6926 44.98000000 3178269014 3178269014 0.33300000
40.32997131 14.14706516 -0.24840119 16 10 6927 42.74000000 3178269017 3178269017 -0.33300000
16.02915001 6.51854134 -1.86391699 2 11 6927 17.40400000 3178269017 3178269017 -6.14800000
18.45757675 5.47439194 -1.79716647 4 12 6928 19.33600000 3178269019 3178269019 -5.33300000
40.33923721 16.39647102 1.01324928 14 13 6928 43.55600000 3178269019 3178269019 1.33300000
40.48803711 12.00078964 0.49162623 20 14 6929 42.23200000 3178269021 3178269021 0.66700000
20.28447533 8.24079609 -1.53101504 6 15 6929 21.94800000 3178269021 3178269021 -4.00000000
19.23861694 6.73726797 -1.66406620 5 16 6930 20.45200000 3178269024 3178269024 -4.66700000
40.67277527 18.87967300 1.30500138 18 17 6930 44.86000000 3178269024 3178269024 1.66700000
40.26774216 14.10156250 0.74472910 19 18 6930 42.67200000 3178269026 3178269026 1.00000000
20.60567665 9.56483650 -1.45592940 8 19 6930 22.76400000 3178269026 3178269026 -3.66700000
