# .PCD v0.7 - Point Cloud Data file format
VERSION 0.7
FIELDS x y z intensity laser_id azimuth distance_m adjustedtime timestamp vertical_angle
SIZE 4 4 4 1 1 2 8 8 4 8
TYPE F F F U U U F U U F
COUNT 1 1 1 1 1 1 1 1 1 1
WIDTH 522
HEIGHT 1
VIEWPOINT 0 0 0 1 0 0 0
POINTS 522
DATA ascii
16.03928757 20.14249039 -1.49952161 4 20 3433 25.79200000 3177359410 3177359410 -3.33300000
40.74116135 62.90399933 4.36461258 36 21 3433 75.07200000 3177359410 3177359410 3.33300000
40.28872299 55.98516846 2.81010509 28 22 3434 69.03200000 3177359412 3177359412 2.33300000
15.62378502 24.11376572 -1.33842123 2 23 3434 28.76400000 3177359412 3177359412 -2.66700000
16.24555397 22.56649780 -1.45724237 4 24 3435 27.84400000 3177359414 3177359414 -3.00000000
42.54940796 59.08310699 5.94383764 28 26 3436 73.05200000 3177359416 3177359416 4.66700000
15.74874401 27.10255623 -1.27706885 4 27 3436 31.37200000 3177359416 3177359416 -2.33300000
19.64230537 24.63193130 -1.10017169 4 28 3437 31.52400000 3177359419 3177359419 -2.00000000
20.37916183 31.40515137 -0.87115806 4 31 3438 37.44800000 3177359421 3177359421 -1.33300000
3.23917770 4.48462820 -2.57966185 14 0 3444 6.10400000 3177359442 3177359442 -25.00000000
20.77632904 35.64005280 -0.72008628 8 1 3444 41.26000000 3177359442 3177359442 -1.00000000
20.63713264 28.56152344 -1.02549946 6 2 3445 35.25200000 3177359444 3177359444 -1.66700000
4.00817919 6.16027880 -2.05739927 10 3 3445 7.63200000 3177359444 3177359444 -15.63900000
7.03332806 9.73045635 -2.40126014 3 4 3446 12.24400000 3177359446 3177359446 -11.31000000
21.17478752 32.53168106 0.00000000 12 5 3446 38.81600000 3177359446 3177359446 0.00000000
21.00590897 26.25720596 -0.39146635 13 6 3446 33.62800000 3177359449 3177359449 -0.66700000
7.83753395 12.04111958 -2.23519707 1 7 3446 14.54000000 3177359449 3177359449 -8.84300000
9.77443981 13.51775360 -2.12332654 2 8 3447 16.81600000 3177359451 3177359451 -7.25400000
21.18895912 36.30418015 0.24430960 17 9 3447 42.03600000 3177359451 3177359451 0.33300000
21.05901527 29.11327744 -0.20883368 18 10 3448 35.93200000 3177359453 3177359453 -0.33300000
10.02420616 15.38884068 -1.97829664 3 11 3448 18.47200000 3177359453 3177359453 -6.14800000
12.56004333 15.68310547 -1.87561131 2 12 3449 20.18000000 3177359456 3177359456 -5.33300000
40.46838760 62.10206985 1.72482228 25 13 3449 74.14400000 3177359456 3177359456 1.33300000
40.91310883 51.06790543 0.76179248 28 14 3450 65.44000000 3177359458 3177359458 0.66700000
13.10066986 20.09638596 -1.67750371 2 15 3450 24.04800000 3177359458 3177359458 -4.00000000
12.76465034 17.62719536 -1.77667463 2 16 3451 21.83600000 3177359460 3177359460 -4.66700000
40.79706955 69.78785706 2.35260963 28 17 3451 80.87200000 3177359460 3177359460 1.66700000
40.55945587 56.01010895 1.20707822 28 18 3451 69.16400000 3177359463 3177359463 1.00000000
12.81675911 21.92446899 -1.62759149 3 19 3451 25.44800000 3177359463 3177359463 -3.66700000
16.07851791 20.05492020 -1.49696350 4 20 3452 25.74800000 3177359465 3177359465 -3.33300000
40.60697937 62.24347305 4.32810116 35 21 3452 74.44400000 3177359465 3177359465 3.33300000
40.32405853 55.64413834 2.79968381 28 22 3453 68.77600000 3177359467 3177359467 2.33300000
15.69274426 24.04509163 -1.33749068 2 23 3453 28.74400000 3177359467 3177359467 -2.66700000
16.31560707 22.50603294 -1.45682371 4 24 3454 27.83600000 3177359469 3177359469 -3.00000000
42.55317688 58.67703629 5.91715002 28 26 3455 72.72400000 3177359472 3177359472 4.66700000
15.79006577 26.96740723 -1.27316093 4 27 3455 31.27600000 3177359472 3177359472 -2.33300000
19.72387886 24.56665993 -1.10017169 4 28 3456 31.52400000 3177359474 3177359474 -2.00000000
20.47444153 31.32401085 -0.87078589 4 31 3457 37.43200000 3177359476 3177359476 -1.33300000
3.27187538 4.49674511 -2.59318566 15 0 3464 6.13600000 3177359497 3177359497 -25.00000000
20.80942917 35.41214752 -0.71694487 8 1 3464 41.08000000 3177359497 3177359497 -1.00000000
20.72494125 28.47314835 -1.02491772 6 2 3465 35.23200000 3177359499 3177359499 -1.66700000
3.99375439 6.09148788 -2.03906798 24 3 3465 7.56400000 3177359499 3177359499 -15.63900000
7.06263351 9.69950485 -2.39969110 3 4 3466 12.23600000 3177359502 3177359502 -11.31000000
21.17633438 32.28698730 0.00000000 12 5 3466 38.61200000 3177359502 3177359502 0.00000000
21.00709343 26.07159996 -0.38979003 13 6 3466 33.48400000 3177359504 3177359504 -0.66700000
7.87301445 12.00377274 -2.23335242 2 7 3466 14.52800000 3177359504 3177359504 -8.84300000
9.80754852 13.46430874 -2.12029600 2 8 3467 16.79200000 3177359506 3177359506 -7.25400000
21.18777084 36.01280212 0.24284500 17 9 3467 41.78400000 3177359506 3177359506 0.33300000
21.05921936 28.90058327 -0.20783404 18 10 3468 35.76000000 3177359509 3177359509 -0.33300000
10.07131577 15.34378147 -1.97701156 3 11 3468 18.46000000 3177359509 3177359509 -6.14800000
12.61221027 15.63606739 -1.87523949 2 12 3469 20.17600000 3177359511 3177359511 -5.33300000
40.17350388 61.18157959 1.70314097 24 13 3469 73.21200000 3177359511 3177359511 1.33300000
40.97809219 50.78470612 0.75969708 28 14 3470 65.26000000 3177359513 3177359513 0.66700000
13.17950249 20.06387520 -1.67861974 2 15 3470 24.06400000 3177359513 3177359513 -4.00000000
12.83080196 17.58897209 -1.77732551 2 16 3471 21.84400000 3177359516 3177359516 -4.66700000
40.92472458 69.44866943 2.34597707 28 17 3471 80.64400000 3177359516 3177359516 1.66700000
40.36817551 55.33829498 1.19562948 28 18 3471 68.50800000 3177359518 3177359518 1.00000000
12.87902546 21.85552216 -1.62580061 3 19 3471 25.42000000 3177359518 3177359518 -3.66700000
16.14842415 19.99867439 -1.49696350 4 20 3472 25.74800000 3177359520 3177359520 -3.33300000
40.63097000 61.80771255 4.30763626 34 21 3472 74.09200000 3177359520 3177359520 3.33300000
40.22583771 55.10276413 2.77949309 28 22 3473 68.28000000 3177359522 3177359522 2.33300000
15.76560497 23.97347450 -1.33656001 2 23 3473 28.72400000 3177359522 3177359522 -2.66700000
16.38464546 22.43603897 -1.45598626 4 24 3474 27.82000000 3177359525 3177359525 -3.00000000
42.62133408 58.34142685 5.89827347 28 26 3475 72.49200000 3177359527 3177359527 4.66700000
15.86988354 26.88803291 -1.27202106 4 27 3475 31.24800000 3177359527 3177359527 -2.33300000
19.73159218 24.40129852 -1.09584415 4 28 3476 31.40000000 3177359529 3177359529 -2.00000000
20.55066490 31.20225525 -0.86939007 4 31 3477 37.37200000 3177359532 3177359532 -1.33300000
3.38184953 4.61394930 -2.66756654 11 0 3484 6.31200000 3177359552 3177359552 -25.00000000
20.93698883 35.34617233 -0.71708447 8 1 3484 41.08800000 3177359552 3177359552 -1.00000000
20.81238365 28.38451004 -1.02433586 6 2 3485 35.21200000 3177359555 3177359555 -1.66700000
7.08948851 9.66530418 -2.39733768 3 4 3486 12.22400000 3177359557 3177359557 -11.31000000
21.17643166 32.04267883 0.00000000 18 5 3486 38.40800000 3177359557 3177359557 0.00000000
21.00724030 25.88630676 -0.38811371 13 6 3486 33.34000000 3177359559 3177359559 -0.66700000
7.91268826 11.97292042 -2.23273754 1 7 3486 14.52400000 3177359559 3177359559 -8.84300000
9.85214043 13.42679310 -2.11979103 2 8 3487 16.78800000 3177359562 3177359562 -7.25400000
21.21541405 35.77348328 0.24172911 17 9 3487 41.59200000 3177359562 3177359562 0.33300000
21.04872894 28.67534637 -0.20674139 18 10 3488 35.57200000 3177359564 3177359564 -0.33300000
10.12700748 15.31184959 -1.97743988 1 11 3488 18.46400000 3177359564 3177359564 -6.14800000
12.64913464 15.57030869 -1.87263703 2 12 3489 20.14800000 3177359566 3177359566 -5.33300000
40.54790115 61.28443527 1.70993388 24 13 3489 73.50400000 3177359566 3177359566 1.33300000
40.88520432 50.30923080 0.75471473 28 14 3490 64.83200000 3177359568 3177359568 0.66700000
13.24945736 20.01774788 -1.67861974 2 15 3490 24.06400000 3177359568 3177359568 -4.00000000
12.87795639 17.52480125 -1.77537286 2 16 3491 21.82000000 3177359571 3177359571 -4.66700000
40.23782730 67.74128723 2.29303217 28 17 3491 78.82400000 3177359571 3177359571 1.66700000
40.05902481 54.51381302 1.18082976 28 18 3491 67.66000000 3177359573 3177359573 1.00000000
12.93892860 21.78297806 -1.62375402 3 19 3491 25.38800000 3177359573 3177359573 -3.66700000
16.15514755 19.86473274 -1.49114966 4 20 3492 25.64800000 3177359575 3177359575 -3.33300000
40.61492538 61.31594849 4.28321791 34 21 3492 73.67200000 3177359575 3177359575 3.33300000
40.24509048 54.72697067 2.76760650 28 22 3493 67.98800000 3177359578 3177359578 2.33300000
15.82049942 23.87499619 -1.33414042 2 23 3493 28.67200000 3177359578 3177359578 -2.66700000
16.38711739 22.27574539 -1.44928730 4 24 3494 27.69200000 3177359580 3177359580 -3.00000000
42.94760132 58.35926437 5.91519737 28 26 3495 72.70000000 3177359582 3177359582 4.66700000
15.97181702 26.84621048 -1.27267241 4 27 3495 31.26400000 3177359582 3177359582 -2.33300000
19.79392815 24.30437660 -1.09458780 4 28 3496 31.36400000 3177359585 3177359585 -2.00000000
20.66166687 31.13366127 -0.86948311 4 31 3497 37.37600000 3177359587 3177359587 -1.33300000
3.38716793 4.58753395 -2.65911412 13 0 3504 6.29200000 3177359608 3177359608 -25.00000000
21.03359032 35.22823334 -0.71617693 8 1 3504 41.03600000 3177359608 3177359608 -1.00000000
20.85432625 28.23450089 -1.02154315 6 2 3505 35.11600000 3177359610 3177359610 -1.66700000
5.13327408 7.71158981 -2.59331489 5 3 3505 9.62000000 3177359610 3177359610 -15.63900000
7.12085247 9.63734341 -2.39655328 4 4 3506 12.22000000 3177359612 3177359612 -11.31000000
21.17064857 31.79210663 0.00000000 18 5 3506 38.19600000 3177359612 3177359612 0.00000000
21.00888062 25.70442772 -0.38648397 19 6 3506 33.20000000 3177359615 3177359615 -0.66700000
7.94567060 11.93206787 -2.23027778 1 7 3506 14.50800000 3177359615 3177359615 -8.84300000
9.90366554 13.39870262 -2.12080097 2 8 3507 16.79600000 3177359617 3177359617 -7.25400000
21.23754120 35.52754593 0.24056673 8 9 3507 41.39200000 3177359617 3177359617 0.33300000
21.05357170 28.47304916 -0.20581149 18 10 3508 35.41200000 3177359619 3177359619 -0.33300000
10.16936684 15.25985909 -1.97529793 1 11 3508 18.44400000 3177359619 3177359619 -6.14800000
12.70593071 15.52914238 -1.87300885 2 12 3509 20.15200000 3177359621 3177359621 -5.33300000
40.67284775 61.00942993 1.70621181 24 13 3509 73.34400000 3177359621 3177359621 1.33300000
40.95163345 50.03311920 0.75271243 28 14 3510 64.66000000 3177359624 3177359624 0.66700000
13.30375385 19.94813728 -1.67666662 2 15 3510 24.03600000 3177359624 3177359624 -4.00000000
12.93430710 17.47333336 -1.77472186 2 16 3511 21.81200000 3177359626 3177359626 -4.66700000
39.96673203 66.75309753 2.26429081 28 17 3511 77.83600000 3177359626 3177359626 1.66700000
40.47274399 54.67581177 1.18739188 28 18 3511 68.03600000 3177359628 3177359628 1.00000000
13.03129101 21.76507759 -1.62580061 3 19 3511 25.42000000 3177359628 3177359628 -3.66700000
16.20414734 19.78350639 -1.48928916 4 20 3512 25.61600000 3177359631 3177359631 -3.33300000
40.65580368 60.91473007 4.26507854 33 21 3512 73.36000000 3177359631 3177359631 3.33300000
40.20749283 54.27784729 2.75197506 28 22 3513 67.60400000 3177359633 3177359633 2.33300000
15.91261673 23.83292007 -1.33488488 2 23 3513 28.68800000 3177359633 3177359633 -2.66700000
16.46239471 22.21519852 -1.44907796 4 24 3514 27.68800000 3177359635 3177359635 -3.00000000
42.99673080 58.00082016 5.89404249 28 26 3515 72.44000000 3177359638 3177359638 4.66700000
16.05926514 26.78001213 -1.27218390 4 27 3515 31.25200000 3177359638 3177359638 -2.33300000
19.86343575 24.21659088 -1.09375024 4 28 3516 31.34000000 3177359640 3177359640 -2.00000000
20.67812729 30.93531609 -0.86585408 4 31 3516 37.22000000 3177359642 3177359642 -1.33300000
3.32311177 4.46805382 -2.59656668 18 0 3524 6.14400000 3177359663 3177359663 -25.00000000
21.09662628 35.05522537 -0.71415246 8 1 3524 40.92000000 3177359663 3177359663 -1.00000000
20.94559479 28.15190887 -1.02119410 6 2 3525 35.10400000 3177359665 3177359665 -1.66700000
5.15801525 7.69042540 -2.59223676 5 3 3525 9.61600000 3177359665 3177359665 -15.63900000
7.15444946 9.61242867 -2.39655328 3 4 3526 12.22000000 3177359668 3177359668 -11.31000000
21.16783142 31.54861259 0.00000000 11 5 3526 37.99200000 3177359668 3177359668 0.00000000
21.00379181 25.50683594 -0.38466796 13 6 3527 33.04400000 3177359670 3177359670 -0.66700000
7.98053932 11.88973808 -2.22781825 1 7 3527 14.49200000 3177359670 3177359670 -8.84300000
9.93852711 13.34813690 -2.11827564 2 8 3527 16.77600000 3177359672 3177359672 -7.25400000
21.38826180 35.49773788 0.24086896 8 9 3527 41.44400000 3177359672 3177359672 0.33300000
21.05009079 28.26144600 -0.20481184 18 10 3528 35.24000000 3177359674 3177359674 -0.33300000
10.22478867 15.22757053 -1.97572637 1 11 3528 18.44800000 3177359674 3177359674 -6.14800000
12.75246143 15.47547531 -1.87189353 2 12 3529 20.14000000 3177359677 3177359677 -5.33300000
40.76961517 60.69446564 1.70137298 24 13 3529 73.13600000 3177359677 3177359677 1.33300000
40.86907196 49.57814789 0.74800944 28 14 3530 64.25600000 3177359679 3177359679 0.66700000
13.37107944 19.89826584 -1.67638755 2 15 3530 24.03200000 3177359679 3177359679 -4.00000000
12.99283886 17.42488289 -1.77439642 2 16 3531 21.80800000 3177359681 3177359681 -4.66700000
40.09413910 66.43859863 2.25835633 28 17 3531 77.63200000 3177359681 3177359681 1.66700000
40.42417908 54.19370270 1.18013167 28 18 3532 67.62000000 3177359684 3177359684 1.00000000
13.07796669 21.66249275 -1.62170732 3 19 3532 25.35600000 3177359684 3177359684 -3.66700000
16.28835297 19.74530411 -1.49068451 4 20 3532 25.64000000 3177359686 3177359686 -3.33300000
40.64980698 60.44770432 4.24228811 33 21 3532 72.96800000 3177359686 3177359686 3.33300000
40.18876648 53.85848999 2.73780894 28 22 3533 67.25600000 3177359688 3177359688 2.33300000
15.96671867 23.73413086 -1.33246529 2 23 3533 28.63600000 3177359688 3177359688 -2.66700000
16.53506279 22.15119743 -1.44865930 4 24 3534 27.68000000 3177359691 3177359691 -3.00000000
43.10351181 57.72260284 5.88102388 28 26 3535 72.28000000 3177359693 3177359693 4.66700000
16.13197136 26.68958855 -1.27055562 4 27 3535 31.21200000 3177359693 3177359693 -2.33300000
19.96312141 24.16559792 -1.09458780 4 28 3536 31.36400000 3177359695 3177359695 -2.00000000
20.78821945 30.86626434 -0.86594713 4 31 3536 37.22400000 3177359698 3177359698 -1.33300000
3.33651447 4.45352554 -2.59487605 15 0 3544 6.14000000 3177359718 3177359718 -25.00000000
21.17945480 34.91640091 -0.71282607 8 1 3544 40.84400000 3177359718 3177359718 -1.00000000
21.00776863 28.03063202 -1.01944864 13 2 3545 35.04400000 3177359721 3177359721 -1.66700000
5.18051529 7.66599083 -2.59008002 6 3 3545 9.60800000 3177359721 3177359721 -15.63900000
7.18560696 9.58425808 -2.39576888 3 4 3546 12.21600000 3177359723 3177359723 -11.31000000
21.16133499 31.30221176 0.00000000 17 5 3546 37.78400000 3177359723 3177359723 0.00000000
21.00588799 25.32868767 -0.38308477 13 6 3547 32.90800000 3177359725 3177359725 -0.66700000
8.02420807 11.86508274 -2.22843313 1 7 3547 14.49600000 3177359725 3177359725 -8.84300000
9.98744106 13.31653786 -2.11878085 2 8 3547 16.78000000 3177359727 3177359727 -7.25400000
21.47467041 35.36132431 0.24045049 8 9 3547 41.37200000 3177359727 3177359727 0.33300000
21.05019188 28.05661583 -0.20385869 18 10 3548 35.07600000 3177359730 3177359730 -0.33300000
10.27119541 15.18190479 -1.97444117 1 11 3548 18.43600000 3177359730 3177359730 -6.14800000
12.80131626 15.42473698 -1.87115002 2 12 3549 20.13200000 3177359732 3177359732 -5.33300000
40.66743851 60.08814240 1.68834567 24 13 3549 72.57600000 3177359732 3177359732 1.33300000
40.91158295 49.27824020 0.74563468 28 14 3550 64.05200000 3177359734 3177359734 0.66700000
13.43821907 19.84816742 -1.67610860 2 15 3550 24.02800000 3177359734 3177359734 -4.00000000
13.04640102 17.36985970 -1.77342010 2 16 3551 21.79600000 3177359737 3177359737 -4.66700000
40.24893188 66.17184448 2.25405097 28 17 3551 77.48400000 3177359737 3177359737 1.66700000
40.18814468 53.50613022 1.16805470 28 18 3551 66.92800000 3177359739 3177359739 1.00000000
13.15180492 21.62241554 -1.62196314 3 19 3551 25.36000000 3177359739 3177359739 -3.66700000
16.36483192 19.69754219 -1.49138212 4 20 3552 25.65200000 3177359741 3177359741 -3.33300000
40.71720886 60.09386826 4.22740459 33 21 3552 72.71200000 3177359741 3177359741 3.33300000
40.36451721 53.70190430 2.73699474 28 22 3553 67.23600000 3177359744 3177359744 2.33300000
16.05395317 23.68486595 -1.33283746 2 23 3553 28.64400000 3177359744 3177359744 -2.66700000
16.59307861 22.06780243 -1.44698453 4 24 3554 27.64800000 3177359746 3177359746 -3.00000000
43.07946777 57.27230453 5.85043097 28 26 3555 71.90400000 3177359748 3177359748 4.66700000
16.16473770 26.53413200 -1.26583362 4 27 3555 31.09600000 3177359748 3177359748 -2.33300000
20.00644493 24.04659843 -1.09235430 4 28 3556 31.30000000 3177359751 3177359751 -2.00000000
20.87787247 30.76703835 -0.86520272 4 31 3556 37.19200000 3177359753 3177359753 -1.33300000
3.33238626 4.41580820 -2.57966185 15 0 3564 6.10400000 3177359773 3177359773 -25.00000000
21.19898605 34.67505646 -0.70940542 8 1 3564 40.64800000 3177359773 3177359773 -1.00000000
21.06212234 27.89969063 -1.01735413 13 2 3565 34.97200000 3177359775 3177359775 -1.66700000
5.20941067 7.65104437 -2.59115839 6 3 3565 9.61200000 3177359775 3177359775 -15.63900000
7.21429062 9.55285740 -2.39419985 3 4 3566 12.20800000 3177359778 3177359778 -11.31000000
21.16013336 31.06616211 0.00000000 17 5 3566 37.58800000 3177359778 3177359778 0.00000000
21.01029778 25.16371155 -0.38164127 13 6 3566 32.78400000 3177359780 3177359780 -0.66700000
8.05683422 11.82860851 -2.22658849 1 7 3566 14.48400000 3177359780 3177359780 -8.84300000
10.03147125 13.27842808 -2.11827564 2 8 3567 16.77600000 3177359782 3177359782 -7.25400000
21.49982834 35.12580109 0.23935786 8 9 3567 41.18400000 3177359782 3177359782 0.33300000
21.05153275 27.85531998 -0.20292878 17 10 3568 34.91600000 3177359785 3177359785 -0.33300000
10.31068707 15.12624168 -1.97187090 1 11 3568 18.41200000 3177359785 3177359785 -6.14800000
12.84997272 15.37384701 -1.87040639 2 12 3569 20.12400000 3177359787 3177359787 -5.33300000
40.61109161 59.55596161 1.67736542 24 13 3569 72.10400000 3177359787 3177359787 1.33300000
40.85757446 48.86510849 0.74153697 28 14 3570 63.70000000 3177359789 3177359789 0.66700000
13.50966835 19.80443382 -1.67638755 2 15 3570 24.03200000 3177359789 3177359789 -4.00000000
13.09973717 17.31467628 -1.77244365 2 16 3571 21.78400000 3177359791 3177359791 -4.66700000
40.27696991 65.70029449 2.24276376 28 17 3571 77.09600000 3177359791 3177359791 1.66700000
40.21541214 53.15501785 1.16344726 28 18 3571 66.66400000 3177359794 3177359794 1.00000000
13.21051025 21.54915047 -1.61991656 3 19 3571 25.32800000 3177359794 3177359794 -3.66700000
16.42836571 19.63417244 -1.49091709 4 20 3572 25.64400000 3177359796 3177359796 -3.33300000
40.77362823 59.72710800 4.21159077 32 21 3572 72.44000000 3177359796 3177359796 3.33300000
40.08369827 52.94250870 2.70540595 28 22 3573 66.46000000 3177359798 3177359798 2.33300000
16.12075615 23.60558510 -1.33153462 2 23 3573 28.61600000 3177359798 3177359798 -2.66700000
16.66759682 22.00656319 -1.44677520 4 24 3574 27.64400000 3177359801 3177359801 -3.00000000
43.34894562 57.21373367 5.85986948 28 26 3575 72.02000000 3177359803 3177359803 4.66700000
16.24262238 26.45370293 -1.26469374 4 27 3575 31.06800000 3177359803 3177359803 -2.33300000
20.10309982 23.99193764 -1.09305227 4 28 3576 31.32000000 3177359805 3177359805 -2.00000000
20.91292000 30.58833885 -0.86222506 4 31 3576 37.06400000 3177359808 3177359808 -1.33300000
3.41140079 4.48784542 -2.62868547 13 0 3584 6.22000000 3177359828 3177359828 -25.00000000
21.20660400 34.41698074 -0.70563573 17 1 3584 40.43200000 3177359828 3177359828 -1.00000000
20.98755264 27.60003090 -1.00909245 12 2 3585 34.68800000 3177359831 3177359831 -1.66700000
5.22737026 7.62010813 -2.58684516 6 3 3585 9.59600000 3177359831 3177359831 -15.63900000
7.24284315 9.52137280 -2.39263105 3 4 3586 12.20000000 3177359833 3177359833 -11.31000000
21.15527916 30.82720757 0.00000000 11 5 3586 37.38800000 3177359833 3177359833 0.00000000
21.00018883 24.97389030 -0.37987182 19 6 3586 32.63200000 3177359835 3177359835 -0.66700000
8.09583855 11.79715347 -2.22597337 2 7 3586 14.48000000 3177359835 3177359835 -8.84300000
10.07295513 13.23701572 -2.11726546 4 8 3587 16.76800000 3177359838 3177359838 -7.25400000
21.60970879 35.03011322 0.23921837 8 9 3587 41.16000000 3177359838 3177359838 0.33300000
21.04930305 27.65117645 -0.20197563 17 10 3588 34.75200000 3177359840 3177359840 -0.33300000
10.35892200 15.08360195 -1.97101402 1 11 3588 18.40400000 3177359840 3177359840 -6.14800000
12.90612411 15.33194542 -1.87077820 2 12 3589 20.12800000 3177359842 3177359842 -5.33300000
40.38396072 58.78100586 1.65949941 23 13 3589 71.33600000 3177359842 3177359842 1.33300000
40.89134979 48.56003952 0.73906910 28 14 3590 63.48800000 3177359844 3177359844 0.66700000
13.49961281 19.64205933 -1.66662169 2 15 3590 23.89200000 3177359844 3177359844 -4.00000000
13.15768051 17.26567268 -1.77211821 2 16 3591 21.78000000 3177359847 3177359847 -4.66700000
40.09835052 64.89942169 2.22018957 28 17 3591 76.32000000 3177359847 3177359847 1.66700000
40.14617538 52.68031311 1.15611720 28 18 3591 66.24400000 3177359849 3177359849 1.00000000
13.27725792 21.48932266 -1.61889327 3 19 3591 25.31200000 3177359849 3177359849 -3.66700000
16.47878838 19.55533218 -1.48928916 4 20 3592 25.61600000 3177359851 3177359851 -3.33300000
40.78046417 59.29159546 4.19089317 32 21 3592 72.08400000 3177359851 3177359851 3.33300000
40.15919876 52.65925980 2.69807863 28 22 3593 66.28000000 3177359854 3177359854 2.33300000
16.15775871 23.48333549 -1.32781219 2 23 3593 28.53600000 3177359854 3177359854 -2.66700000
16.67162704 21.85297203 -1.44049489 4 24 3594 27.52400000 3177359856 3177359856 -3.00000000
44.34172058 58.10157776 5.96661949 28 26 3595 73.33200000 3177359858 3177359858 4.66700000
16.32014084 26.37305450 -1.26355398 4 27 3595 31.04000000 3177359858 3177359858 -2.33300000
20.08102036 23.79635811 -1.08732867 4 28 3596 31.15600000 3177359861 3177359861 -2.00000000
21.00368690 30.49209976 -0.86157364 4 31 3596 37.03600000 3177359863 3177359863 -1.33300000
3.45128846 4.50757217 -2.64728069 17 0 3604 6.26400000 3177359884 3177359884 -25.00000000
21.21478844 34.16267395 -0.70193577 17 1 3604 40.22000000 3177359884 3177359884 -1.00000000
20.98894691 27.40280914 -1.00455427 12 2 3605 34.53200000 3177359886 3177359886 -1.66700000
5.25612736 7.60498333 -2.58792353 6 3 3605 9.60000000 3177359886 3177359886 -15.63900000
7.27126360 9.48980522 -2.39106202 3 4 3606 12.19200000 3177359888 3177359888 -11.31000000
21.16039085 30.60511589 0.00000000 17 5 3606 37.20800000 3177359888 3177359888 0.00000000
20.99676514 24.79360390 -0.37824208 19 6 3606 32.49200000 3177359891 3177359891 -0.66700000
8.13472176 11.76557064 -2.22535849 2 7 3606 14.47600000 3177359891 3177359891 -8.84300000
10.02978516 13.08525085 -2.09857798 2 8 3607 16.62000000 3177359893 3177359893 -7.25400000
35.23137283 56.66768265 0.38781738 28 9 3607 66.72800000 3177359893 3177359893 0.33300000
21.04103661 27.44104195 -0.20097597 17 10 3608 34.58000000 3177359895 3177359895 -0.33300000
10.40924740 15.04408073 -1.97058570 1 11 3608 18.40000000 3177359895 3177359895 -6.14800000
12.90290451 15.21996689 -1.86259913 2 12 3609 20.04000000 3177359897 3177359897 -5.33300000
40.48192978 58.48514175 1.65512586 23 13 3609 71.14800000 3177359897 3177359897 1.33300000
40.63892746 47.91978073 0.73147911 28 14 3610 62.83600000 3177359900 3177359900 0.66700000
13.56809425 19.59481621 -1.66662169 2 15 3610 23.89200000 3177359900 3177359900 -4.00000000
13.21301365 17.21331406 -1.77146733 2 16 3611 21.77200000 3177359902 3177359902 -4.66700000
40.17459488 64.51808167 2.21192789 28 17 3611 76.03600000 3177359902 3177359902 1.66700000
40.19040680 52.33932114 1.15185881 28 18 3612 66.00000000 3177359904 3177359904 1.00000000
13.35170937 21.43373680 -1.61838162 3 19 3612 25.30400000 3177359904 3177359904 -3.66700000
16.55728340 19.50986862 -1.49021935 4 20 3612 25.63200000 3177359907 3177359907 -3.33300000
40.85526657 58.95851517 4.17740488 31 21 3612 71.85200000 3177359907 3177359907 3.33300000
40.11147308 52.21765518 2.68260980 28 22 3613 65.90000000 3177359909 3177359909 2.33300000
16.22825050 23.41037178 -1.32688153 2 23 3613 28.51600000 3177359909 3177359909 -2.66700000
16.80865479 21.87382889 -1.44572842 4 24 3614 27.62400000 3177359911 3177359911 -3.00000000
44.31829834 57.65248871 5.93635178 28 26 3615 72.96000000 3177359914 3177359914 4.66700000
16.42901993 26.34305573 -1.26485658 4 27 3615 31.07200000 3177359914 3177359914 -2.33300000
20.16914177 23.73220825 -1.08760786 4 28 3616 31.16400000 3177359916 3177359916 -2.00000000
21.09631729 30.39888573 -0.86101532 9 31 3616 37.01200000 3177359918 3177359918 -1.33300000
3.48914099 4.52420473 -2.66418552 17 0 3624 6.30400000 3177359939 3177359939 -25.00000000
21.15568542 33.80363846 -0.69607180 16 1 3624 39.88400000 3177359939 3177359939 -1.00000000
20.97456932 27.18692207 -0.99931800 18 2 3625 34.35200000 3177359941 3177359941 -1.66700000
5.28484297 7.58975077 -2.58900189 6 3 3625 9.60400000 3177359941 3177359941 -15.63900000
7.29955196 9.45815659 -2.38949299 3 4 3626 12.18400000 3177359943 3177359943 -11.31000000
21.14820671 30.36039162 0.00000000 11 5 3626 37.00000000 3177359943 3177359943 0.00000000
21.00182915 24.61606979 -0.37670544 18 6 3627 32.36000000 3177359946 3177359946 -0.66700000
8.16875076 11.72270584 -2.22289896 2 7 3627 14.46000000 3177359946 3177359946 -8.84300000
10.09964848 13.08156872 -2.10362864 2 8 3627 16.66000000 3177359948 3177359948 -7.25400000
35.43958282 56.56130219 0.38793361 28 9 3627 66.74800000 3177359948 3177359948 0.33300000
21.03645325 27.23763466 -0.20002282 17 10 3628 34.41600000 3177359950 3177359950 -0.33300000
10.45260048 14.99460316 -1.96887219 3 11 3628 18.38400000 3177359950 3177359950 -6.14800000
12.94819546 15.16574764 -1.86148381 2 12 3629 20.02800000 3177359953 3177359953 -5.33300000
40.71557236 58.38611603 1.65633559 23 13 3629 71.20000000 3177359953 3177359953 1.33300000
40.79556274 47.76546478 0.73129284 28 14 3630 62.82000000 3177359955 3177359955 0.66700000
13.62956142 19.53751755 -1.66578460 2 15 3630 23.88000000 3177359955 3177359955 -4.00000000
13.26814175 17.16077805 -1.77081645 2 16 3631 21.76400000 3177359957 3177359957 -4.66700000
40.22315979 64.09635925 2.20226979 28 17 3631 75.70400000 3177359957 3177359957 1.66700000
40.24388123 52.05072021 1.14843810 28 18 3631 65.80400000 3177359960 3177359960 1.00000000
13.38027668 21.32172012 -1.61326492 3 19 3631 25.22400000 3177359960 3177359960 -3.66700000
16.60453033 19.42766953 -1.48835897 4 20 3632 25.60000000 3177359962 3177359962 -3.33300000
40.61279297 58.17378998 4.13182402 30 21 3632 71.06800000 3177359962 3177359962 3.33300000
40.23480225 52.00145721 2.67870188 28 22 3633 65.80400000 3177359964 3177359964 2.33300000
16.28699112 23.32082367 -1.32502031 2 23 3633 28.47600000 3177359964 3177359964 -2.66700000
16.79199791 21.69498634 -1.43777335 4 24 3634 27.47200000 3177359967 3177359967 -3.00000000
43.60155106 56.31218338 5.81397963 28 26 3635 71.45600000 3177359969 3177359969 4.66700000
16.49110031 26.23817444 -1.26257706 4 27 3635 31.01600000 3177359969 3177359969 -2.33300000
20.24666023 23.65558624 -1.08732867 4 28 3636 31.15600000 3177359971 3177359971 -2.00000000
21.09528542 30.16078949 -0.85645574 14 31 3637 36.81600000 3177359973 3177359973 -1.33300000
3.45153785 4.44328690 -2.62361407 17 0 3644 6.20800000 3177359994 3177359994 -25.00000000
21.16260910 33.55368042 -0.69244170 16 1 3644 39.67600000 3177359994 3177359994 -1.00000000
20.94422150 26.95252609 -0.99338353 12 2 3645 34.14800000 3177359996 3177359996 -1.66700000
5.30245543 7.55864382 -2.58468866 6 3 3645 9.58800000 3177359996 3177359996 -15.63900000
7.36140966 9.46977901 -2.39890671 1 4 3646 12.23200000 3177359999 3177359999 -11.31000000
21.15295601 30.14232063 0.00000000 16 5 3646 36.82400000 3177359999 3177359999 0.00000000
21.00682068 24.44856453 -0.37526196 18 6 3647 32.23600000 3177360001 3177360001 -0.66700000
8.20734978 11.69088554 -2.22228408 2 7 3647 14.45600000 3177360001 3177360001 -8.84300000
10.13794327 13.03683758 -2.10211349 2 8 3647 16.64800000 3177360003 3177360003 -7.25400000
35.42324066 56.09904099 0.38560885 28 9 3647 66.34800000 3177360003 3177360003 0.33300000
21.04298592 27.05038071 -0.19918591 17 10 3648 34.27200000 3177360006 3177360006 -0.33300000
10.50259209 14.95477104 -1.96844375 3 11 3648 18.38000000 3177360006 3177360006 -6.14800000
12.99845791 15.11743736 -1.86111200 2 12 3649 20.02400000 3177360008 3177360008 -5.33300000
40.83867264 58.12911224 1.65307879 23 13 3649 71.06000000 3177360008 3177360008 1.33300000
40.38302231 46.94959259 0.72095555 28 14 3650 61.93200000 3177360010 3177360010 0.66700000
13.68849945 19.47676468 -1.66466844 2 15 3650 23.86400000 3177360010 3177360010 -4.00000000
13.33531189 17.12379646 -1.77179277 2 16 3651 21.77600000 3177360013 3177360013 -4.66700000
40.03419495 63.30336761 2.17981195 28 17 3651 74.93200000 3177360013 3177360013 1.66700000
40.30983353 51.76161957 1.14515710 28 18 3651 65.61600000 3177360015 3177360015 1.00000000
13.45248795 21.27151108 -1.61300910 3 19 3651 25.22000000 3177360015 3177360015 -3.66700000
16.64358902 19.33629990 -1.48580086 4 20 3652 25.55600000 3177360017 3177360017 -3.33300000
40.79034042 57.99573898 4.12926579 30 21 3652 71.02400000 3177360017 3177360017 3.33300000
40.32763290 51.74720764 2.67284012 28 22 3653 65.66000000 3177360020 3177360020 2.33300000
16.35680008 23.24748993 -1.32408965 2 23 3653 28.45600000 3177360020 3177360020 -2.66700000
16.87253571 21.64253998 -1.43819213 4 24 3654 27.48000000 3177360022 3177360022 -3.00000000
44.50150299 57.06189728 5.90738630 28 26 3655 72.60400000 3177360024 3177360024 4.66700000
16.56975746 26.16019058 -1.26160002 4 27 3655 30.99200000 3177360024 3177360024 -2.33300000
20.31867027 23.57265663 -1.08677030 4 28 3656 31.14000000 3177360026 3177360026 -2.00000000
21.04089737 29.87162590 -0.85022128 9 31 3656 36.54800000 3177360029 3177360029 -1.33300000
3.46479273 4.42835665 -2.62192369 13 0 3664 6.20400000 3177360049 3177360049 -25.00000000
21.17019272 33.30746460 -0.68888140 16 1 3664 39.47200000 3177360049 3177360049 -1.00000000
20.93960190 26.75331116 -0.98872906 12 2 3665 33.98800000 3177360052 3177360052 -1.66700000
5.32880783 7.54008865 -2.58468866 6 3 3665 9.58800000 3177360052 3177360052 -15.63900000
7.40651083 9.45946693 -2.40282893 3 4 3666 12.25200000 3177360054 3177360054 -11.31000000
21.14489365 29.90825653 0.00000000 16 5 3666 36.62800000 3177360054 3177360054 0.00000000
21.00143051 24.27894402 -0.37372532 12 6 3666 32.10400000 3177360056 3177360056 -0.66700000
8.24607372 11.66360378 -2.22228408 2 7 3666 14.45600000 3177360056 3177360056 -8.84300000
10.17849445 12.99512291 -2.10110331 2 8 3667 16.64000000 3177360059 3177360059 -7.25400000
21.03120041 26.84137344 -0.19818626 16 10 3668 34.10000000 3177360061 3177360061 -0.33300000
10.54783916 14.90827942 -1.96715856 4 11 3668 18.36800000 3177360061 3177360061 -6.14800000
13.04854107 15.06896210 -1.86074030 2 12 3669 20.02000000 3177360063 3177360063 -5.33300000
40.87268448 57.74792862 1.64628589 23 13 3669 70.76800000 3177360063 3177360063 1.33300000
40.74568939 47.03810883 0.72449446 28 14 3670 62.23600000 3177360066 3177360066 0.66700000
13.74717903 19.41583824 -1.66355240 2 15 3670 23.84800000 3177360066 3177360066 -4.00000000
13.38516140 17.06459427 -1.77049088 2 16 3671 21.76000000 3177360068 3177360068 -4.66700000
40.10879517 62.93395615 2.17189932 28 17 3671 74.66000000 3177360068 3177360068 1.66700000
40.40387726 51.51045990 1.14271379 28 18 3671 65.47600000 3177360070 3177360070 1.00000000
13.50305843 21.18739510 -1.61019504 3 19 3671 25.17600000 3177360070 3177360070 -3.66700000
16.60374451 19.15437317 -1.47626603 3 20 3672 25.39200000 3177360073 3177360073 -3.33300000
40.68548203 57.41965866 4.09833574 60 21 3672 70.49200000 3177360073 3177360073 3.33300000
40.35995483 51.41749191 2.66307020 28 22 3673 65.42000000 3177360075 3177360075 2.33300000
16.42167664 23.16743279 -1.32278681 2 23 3673 28.42800000 3177360075 3177360075 -2.66700000
16.93071175 21.56151962 -1.43672669 4 24 3674 27.45200000 3177360077 3177360077 -3.00000000
44.60683060 56.78707123 5.89501858 28 26 3675 72.45200000 3177360079 3177360079 4.66700000
16.57925797 25.97417450 -1.25541258 4 27 3675 30.84000000 3177360079 3177360079 -2.33300000
20.39558983 23.49555016 -1.08649111 4 28 3676 31.13200000 3177360082 3177360082 -2.00000000
21.03450203 29.63126564 -0.84556860 9 31 3677 36.34800000 3177360084 3177360084 -1.33300000
3.43984008 4.36498308 -2.59149528 13 0 3684 6.13200000 3177360105 3177360105 -25.00000000
21.05983162 32.87974548 -0.68155140 16 1 3684 39.05200000 3177360105 3177360105 -1.00000000
20.94374847 26.56701851 -0.98454005 12 2 3685 33.84400000 3177360107 3177360107 -1.66700000
5.34839296 7.51202822 -2.58145356 7 3 3685 9.57600000 3177360107 3177360107 -15.63900000
7.43948555 9.43355560 -2.40282893 3 4 3686 12.25200000 3177360109 3177360109 -11.31000000
21.13545799 29.67461967 0.00000000 16 5 3686 36.43200000 3177360109 3177360109 0.00000000
20.99147224 24.09691429 -0.37204900 12 6 3686 31.96000000 3177360112 3177360112 -0.66700000
8.27985764 11.62509060 -2.22043920 2 7 3686 14.44400000 3177360112 3177360112 -8.84300000
10.21887875 12.95328331 -2.10009313 2 8 3687 16.63200000 3177360114 3177360114 -7.25400000
21.03555870 26.65476036 -0.19734934 16 10 3688 33.95600000 3177360116 3177360116 -0.33300000
10.54903126 14.80012226 -1.95773399 3 11 3688 18.28000000 3177360116 3177360116 -6.14800000
13.09582710 15.01731873 -1.85999668 2 12 3689 20.01200000 3177360119 3177360119 -5.33300000
40.62361908 56.97324371 1.62823367 22 13 3689 69.99200000 3177360119 3177360119 1.33300000
40.84915924 46.82627106 0.72342348 28 14 3690 62.14400000 3177360121 3177360121 0.66700000
13.82645512 19.38397598 -1.66494751 2 15 3690 23.86800000 3177360121 3177360121 -4.00000000
13.43229008 17.00212669 -1.76886368 2 16 3691 21.74000000 3177360123 3177360123 -4.66700000
40.12729263 62.48069382 2.16107750 28 17 3691 74.28800000 3177360123 3177360123 1.66700000
40.47682953 51.23416519 1.13971198 28 18 3691 65.30400000 3177360126 3177360126 1.00000000
13.57693386 21.14013100 -1.61019504 3 19 3691 25.17600000 3177360126 3177360126 -3.66700000
16.67575645 19.10231400 -1.47673118 3 20 3692 25.40000000 3177360128 3177360128 -3.33300000
40.76038742 57.10178375 4.08577776 29 21 3692 70.27600000 3177360128 3177360128 3.33300000
40.30371475 50.97845078 2.64760160 28 22 3693 65.04000000 3177360130 3177360130 2.33300000
16.45368385 23.04168320 -1.31887817 2 23 3693 28.34400000 3177360130 3177360130 -2.66700000
17.01082802 21.50855446 -1.43714535 4 24 3694 27.46000000 3177360132 3177360132 -3.00000000
44.93588638 56.79672623 5.91226816 28 26 3695 72.66400000 3177360135 3177360135 4.66700000
16.67847252 25.92959023 -1.25606382 4 27 3695 30.85600000 3177360135 3177360135 -2.33300000
20.46695518 23.41217422 -1.08593273 4 28 3696 31.11600000 3177360137 3177360137 -2.00000000
21.03778076 29.41779137 -0.84156734 9 31 3697 36.17600000 3177360139 3177360139 -1.33300000
3.45956326 4.35862827 -2.59487605 11 0 3704 6.14000000 3177360160 3177360160 -25.00000000
21.06386375 32.63465881 -0.67799109 15 1 3704 38.84800000 3177360160 3177360160 -1.00000000
20.94685173 26.38102341 -0.98035097 12 2 3705 33.70000000 3177360162 3177360162 -1.66700000
5.37458229 7.49331284 -2.58145356 6 3 3705 9.57600000 3177360162 3177360162 -15.63900000
21.13164711 29.45116425 0.00000000 16 5 3706 36.24800000 3177360165 3177360165 0.00000000
20.99368858 23.93028641 -0.37060553 12 6 3706 31.83600000 3177360167 3177360167 -0.66700000
8.31347370 11.58648396 -2.21859455 2 7 3706 14.43200000 3177360167 3177360167 -8.84300000
10.25662613 12.90821362 -2.09857798 2 8 3707 16.62000000 3177360169 3177360169 -7.25400000
21.03140450 26.45905113 -0.19644268 16 10 3708 33.80000000 3177360172 3177360172 -0.33300000
10.58439255 14.74059582 -1.95473528 3 11 3708 18.25200000 3177360172 3177360172 -6.14800000
13.13239956 14.95355892 -1.85776603 2 12 3709 19.98800000 3177360174 3177360174 -5.33300000
40.35798645 56.18476868 1.60971630 22 13 3709 69.19600000 3177360174 3177360174 1.33300000
40.78005981 46.41896820 0.71932584 28 14 3710 61.79200000 3177360176 3177360176 0.66700000
13.88471985 19.32263184 -1.66383135 2 15 3710 23.85200000 3177360176 3177360176 -4.00000000
13.49652100 16.96137428 -1.76951456 2 16 3711 21.74800000 3177360179 3177360179 -4.66700000
40.03450012 61.86023712 2.14443779 28 17 3711 73.71600000 3177360179 3177360179 1.66700000
40.65791321 51.09569550 1.13978171 28 18 3711 65.30800000 3177360181 3177360181 1.00000000
13.64847469 21.08925819 -1.60993922 3 19 3711 25.17200000 3177360181 3177360181 -3.66700000
16.76342773 19.06798172 -1.47859156 4 20 3712 25.43200000 3177360183 3177360183 -3.33300000
40.76595688 56.69006729 4.06647587 29 21 3712 69.94400000 3177360183 3177360183 3.33300000
40.23494339 50.52792740 2.63148141 28 22 3713 64.64400000 3177360185 3177360185 2.33300000
16.52001381 22.96464729 -1.31776142 2 23 3713 28.32000000 3177360185 3177360185 -2.66700000
17.07086945 21.43029785 -1.43588924 4 24 3714 27.43600000 3177360188 3177360188 -3.00000000
45.15374756 56.66446686 5.91487169 28 26 3715 72.69600000 3177360190 3177360190 4.66700000
16.75583839 25.85108948 -1.25508690 4 27 3715 30.83200000 3177360190 3177360190 -2.33300000
20.53798866 23.32858658 -1.08537436 4 28 3716 31.10000000 3177360192 3177360192 -2.00000000
21.03982735 29.20466042 -0.83756608 9 31 3717 36.00400000 3177360195 3177360195 -1.33300000
3.50871205 4.38899946 -2.62023330 14 0 3724 6.20000000 3177360215 3177360215 -25.00000000
21.05990028 32.37989044 -0.67422134 15 1 3724 38.63200000 3177360215 3177360215 -1.00000000
20.93642616 26.17971802 -0.97558016 18 2 3725 33.53600000 3177360218 3177360218 -1.66700000
5.40070581 7.47450638 -2.58145356 5 3 3725 9.57600000 3177360218 3177360218 -15.63900000
7.44390583 9.30481815 -2.38321733 27 4 3726 12.15200000 3177360220 3177360220 -11.31000000
21.13590622 29.24106598 0.00000000 16 5 3726 36.08000000 3177360220 3177360220 0.00000000
20.98440552 23.75194740 -0.36897576 12 6 3726 31.69600000 3177360222 3177360222 -0.66700000
8.34229088 11.54137802 -2.21551991 1 7 3726 14.41200000 3177360222 3177360222 -8.84300000
10.29170513 12.85994053 -2.09655762 2 8 3727 16.60400000 3177360225 3177360225 -7.25400000
21.03114128 26.26994324 -0.19558252 16 10 3728 33.65200000 3177360227 3177360227 -0.33300000
10.63111973 14.69711494 -1.95387852 3 11 3728 18.24400000 3177360227 3177360227 -6.14800000
13.19243240 14.91657734 -1.85888135 2 12 3729 20.00000000 3177360229 3177360229 -5.33300000
40.56792450 56.06298828 1.61027455 22 13 3729 69.22000000 3177360229 3177360229 1.33300000
40.88088608 46.20743561 0.71825480 28 14 3730 61.70000000 3177360231 3177360231 0.66700000
13.93804550 19.25465393 -1.66215730 2 15 3730 23.82800000 3177360231 3177360231 -4.00000000
13.48334122 16.82394218 -1.76007628 2 16 3731 21.63200000 3177360234 3177360234 -4.66700000
40.00120544 61.33831787 2.13117242 28 17 3731 73.26000000 3177360234 3177360234 1.66700000
40.83351898 50.95034027 1.13971198 28 18 3731 65.30400000 3177360236 3177360236 1.00000000
13.70892429 21.02142525 -1.60840416 3 19 3731 25.14800000 3177360236 3177360236 -3.66700000
16.78488541 18.95852280 -1.47463810 3 20 3732 25.36400000 3177360238 3177360238 -3.33300000
40.71527481 56.20463181 4.04182482 29 21 3732 69.52000000 3177360238 3177360238 3.33300000
40.27854538 50.22192764 2.62285161 28 22 3733 64.43200000 3177360241 3177360241 2.33300000
16.59304047 22.89713669 -1.31720304 2 23 3733 28.30800000 3177360241 3177360241 -2.66700000
17.13057327 21.35188484 -1.43463326 4 24 3734 27.41200000 3177360243 3177360243 -3.00000000
45.10172653 56.19558716 5.88232613 28 26 3735 72.29600000 3177360245 3177360245 4.66700000
16.82411957 25.75898170 -1.25345862 4 27 3735 30.79200000 3177360245 3177360245 -2.33300000
20.53973579 23.16701698 -1.08118641 4 28 3736 30.98000000 3177360248 3177360248 -2.00000000
21.03829575 28.98863602 -0.83347178 9 31 3737 35.82800000 3177360250 3177360250 -1.33300000
3.52401114 4.37672520 -2.62023330 15 0 3744 6.20000000 3177360271 3177360271 -25.00000000
21.05880165 32.13224030 -0.67059124 23 1 3744 38.42400000 3177360271 3177360271 -1.00000000
20.93989944 25.99749184 -0.97150749 18 2 3745 33.39600000 3177360273 3177360273 -1.66700000
5.42449713 7.45249462 -2.58037543 6 3 3745 9.57200000 3177360273 3177360273 -15.63900000
7.47634029 9.27877808 -2.38321733 19 4 3746 12.15200000 3177360275 3177360275 -11.31000000
21.15308380 29.05069923 0.00000000 10 5 3746 35.93600000 3177360275 3177360275 0.00000000
20.99008560 23.59189606 -0.36762542 12 6 3746 31.58000000 3177360278 3177360278 -0.66700000
8.37554741 11.50260162 -2.21367526 2 7 3746 14.40000000 3177360278 3177360278 -8.84300000
10.32408047 12.80849075 -2.09403229 2 8 3747 16.58400000 3177360280 3177360280 -7.25400000
21.02730560 26.07804680 -0.19469911 16 10 3748 33.50000000 3177360282 3177360282 -0.33300000
10.67298985 14.64705849 -1.95216501 3 11 3748 18.22800000 3177360282 3177360282 -6.14800000
13.23382473 14.85854053 -1.85739422 2 12 3749 19.98400000 3177360284 3177360284 -5.33300000
40.76102066 55.91780853 1.61018157 22 13 3749 69.21600000 3177360284 3177360284 1.33300000
40.88228607 45.88527298 0.71546096 28 14 3750 61.46000000 3177360287 3177360287 0.66700000
14.00987339 19.21233177 -1.66271532 2 15 3750 23.83600000 3177360287 3177360287 -4.00000000
13.54198551 16.77677536 -1.76007628 2 16 3751 21.63200000 3177360289 3177360289 -4.66700000
40.09650040 61.01787949 2.12488890 28 17 3751 73.04400000 3177360289 3177360289 1.66700000
40.58407974 50.27844238 1.12784433 28 18 3751 64.62400000 3177360291 3177360291 1.00000000
13.77564240 20.96343613 -1.60763669 3 19 3751 25.13600000 3177360291 3177360291 -3.66700000
16.85095978 18.89981651 -1.47463810 3 20 3752 25.36400000 3177360294 3177360294 -3.33300000
40.74879456 55.83959579 4.02577829 28 21 3752 69.24400000 3177360294 3177360294 3.33300000
40.10200882 49.64575195 2.60005546 28 22 3753 63.87200000 3177360296 3177360296 2.33300000
16.65166283 22.81003189 -1.31552792 2 23 3753 28.27200000 3177360296 3177360296 -2.66700000
17.21755409 21.30749321 -1.43567991 4 24 3754 27.43200000 3177360298 3177360298 -3.00000000
45.27756119 56.01300812 5.87972212 28 26 3755 72.26400000 3177360301 3177360301 4.66700000
16.84581947 25.59660339 -1.24841082 4 27 3755 30.66800000 3177360301 3177360301 -2.33300000
20.60982895 23.08325195 -1.08062804 4 28 3756 30.96400000 3177360303 3177360303 -2.00000000
21.02577019 28.77019501 -0.82919139 9 31 3756 35.64400000 3177360305 3177360305 -1.33300000
3.48978329 4.30184221 -2.58304286 25 0 3765 6.11200000 3177360326 3177360326 -25.00000000
21.06620598 31.88799286 -0.66710079 22 1 3765 38.22400000 3177360326 3177360326 -1.00000000
20.94434357 25.80880165 -0.96731842 17 2 3766 33.25200000 3177360328 3177360328 -1.66700000
5.44949722 7.42945671 -2.57929707 6 3 3766 9.56800000 3177360328 3177360328 -15.63900000
7.50535440 9.24522305 -2.38164830 13 4 3767 12.14400000 3177360331 3177360331 -11.31000000
21.18606186 28.87300110 0.00000000 10 5 3767 35.81200000 3177360331 3177360331 0.00000000
21.00041389 23.42178726 -0.36622849 11 6 3768 31.46000000 3177360333 3177360333 -0.66700000
8.41263580 11.46079826 -2.21183062 1 7 3768 14.38800000 3177360333 3177360333 -8.84300000
10.36345291 12.76132488 -2.09251690 2 8 3768 16.57200000 3177360335 3177360335 -7.25400000
21.02942657 25.88593292 -0.19383894 16 10 3769 33.35200000 3177360337 3177360337 -0.33300000
10.71954060 14.59822559 -1.95087981 3 11 3769 18.21600000 3177360337 3177360337 -6.14800000
13.27489662 14.79511452 -1.85553539 2 12 3770 19.96400000 3177360340 3177360340 -5.33300000
40.26020432 54.80762863 1.58245182 21 13 3770 68.02400000 3177360340 3177360340 1.33300000
41.05820465 45.74405289 0.71560067 28 14 3771 61.47200000 3177360342 3177360342 0.66700000
14.08255959 19.16407013 -1.66299438 2 15 3771 23.84000000 3177360342 3177360342 -4.00000000
13.60086918 16.72393608 -1.75975084 2 16 3772 21.62800000 3177360344 3177360344 -4.66700000
40.50975800 61.15717697 2.13489604 28 17 3772 73.38800000 3177360344 3177360344 1.66700000
40.77431107 50.11913681 1.12777448 28 18 3773 64.62000000 3177360347 3177360347 1.00000000
13.85162449 20.90373230 -1.60712504 3 19 3773 25.12800000 3177360347 3177360347 -3.66700000
16.92812347 18.84683990 -1.47533584 3 20 3773 25.37600000 3177360349 3177360349 -3.33300000
40.84436035 55.54188538 4.01508093 28 21 3773 69.06000000 3177360349 3177360349 3.33300000
40.05665207 49.21945190 2.58540082 28 22 3774 63.51200000 3177360351 3177360351 2.33300000
16.72331429 22.73275375 -1.31459725 2 23 3774 28.25200000 3177360351 3177360351 -2.66700000
17.19969940 21.12653160 -1.42772484 4 24 3775 27.28000000 3177360354 3177360354 -3.00000000
45.60088348 55.99197006 5.89501858 28 26 3776 72.45200000 3177360356 3177360356 4.66700000
16.91521835 25.49805260 -1.24661970 4 27 3776 30.62400000 3177360356 3177360356 -2.33300000
20.69429398 23.00755692 -1.08062804 4 28 3777 30.96400000 3177360358 3177360358 -2.00000000
21.02673912 28.55125999 -0.82509708 9 31 3777 35.46800000 3177360361 3177360361 -1.33300000
3.49714994 4.28182268 -2.57797146 17 0 3784 6.10000000 3177360381 3177360381 -25.00000000
21.05662727 31.64481926 -0.66347069 22 1 3784 38.01600000 3177360381 3177360381 -1.00000000
20.93621254 25.62464523 -0.96301305 17 2 3785 33.10400000 3177360384 3177360384 -1.66700000
5.46952724 7.40514803 -2.57714057 6 3 3785 9.56000000 3177360384 3177360384 -15.63900000
21.22939491 28.73180962 0.00000000 10 5 3786 35.72400000 3177360386 3177360386 0.00000000
20.99756813 23.26294518 -0.36483154 17 6 3787 31.34000000 3177360388 3177360388 -0.66700000
8.45059490 11.43283844 -2.21183062 1 7 3787 14.38800000 3177360388 3177360388 -8.84300000
10.40320206 12.72381592 -2.09201193 2 8 3787 16.56800000 3177360390 3177360390 -7.25400000
21.02651787 25.70768738 -0.19302528 16 10 3788 33.21200000 3177360393 3177360393 -0.33300000
10.76079750 14.55300426 -1.94959462 3 11 3788 18.20400000 3177360393 3177360393 -6.14800000
13.33723354 14.76578903 -1.85739422 2 12 3789 19.98400000 3177360395 3177360395 -5.33300000
40.34898758 54.54843521 1.57882285 21 13 3789 67.86800000 3177360395 3177360395 1.33300000
41.18285751 45.57797241 0.71513504 28 14 3790 61.43200000 3177360397 3177360397 0.66700000
14.14128494 19.11084938 -1.66243625 2 15 3790 23.83200000 3177360397 3177360397 -4.00000000
13.64362526 16.66331863 -1.75812352 2 16 3791 21.60800000 3177360400 3177360400 -4.66700000
40.28406906 60.38058090 2.11243820 28 17 3791 72.61600000 3177360400 3177360400 1.66700000
40.73646927 49.75252151 1.12239921 28 18 3791 64.31200000 3177360402 3177360402 1.00000000
13.90614986 20.84350967 -1.60584593 3 19 3791 25.10800000 3177360402 3177360402 -3.66700000
16.98249435 18.78171539 -1.47463810 3 20 3792 25.36400000 3177360404 3177360404 -3.33300000
40.58393478 54.80602264 3.97159290 55 21 3792 68.31200000 3177360404 3177360404 3.33300000
40.16898727 49.02452087 2.58214426 28 22 3793 63.43200000 3177360407 3177360407 2.33300000
16.78433609 22.65790749 -1.31348062 2 23 3793 28.22800000 3177360407 3177360407 -2.66700000
17.26713181 21.06628990 -1.42751551 4 24 3794 27.27600000 3177360409 3177360409 -3.00000000
45.66244507 55.68938065 5.87907124 28 26 3795 72.25600000 3177360411 3177360411 4.66700000
17.01300240 25.46175766 -1.24759674 4 27 3795 30.64800000 3177360411 3177360411 -2.33300000
20.75706100 22.92399025 -1.07993007 4 28 3796 30.94400000 3177360414 3177360414 -2.00000000
21.02363968 28.34968185 -0.82128191 9 31 3796 35.30400000 3177360416 3177360416 -1.33300000
3.49595404 4.24999142 -2.56613803 17 0 3804 6.07200000 3177360437 3177360437 -25.00000000
