# .PCD v0.7 - Point Cloud Data file format
VERSION 0.7
FIELDS x y z intensity laser_id azimuth distance_m adjustedtime timestamp vertical_angle
SIZE 4 4 4 1 1 2 8 8 4 8
TYPE F F F U U U F U U F
COUNT 1 1 1 1 1 1 1 1 1 1
WIDTH 523
HEIGHT 1
VIEWPOINT 0 0 0 1 0 0 0
POINTS 523
DATA ascii
40.33684921 15.26616669 0.50210321 22 14 6507 43.13200000 3182067912 3182067912 0.66700000
19.64810562 9.72350311 -1.53296828 4 15 6507 21.97600000 3182067912 3182067912 -4.00000000
18.67972183 8.12992859 -1.66308987 5 16 6508 20.44000000 3182067915 3182067915 -4.66700000
40.45861816 22.53747940 1.34782267 19 17 6508 46.33200000 3182067915 3182067915 1.66700000
40.47772217 17.61701775 0.77055866 32 18 6508 44.15200000 3182067917 3182067917 1.00000000
19.96802330 11.12319088 -1.46488345 5 19 6508 22.90400000 3182067917 3182067917 -3.66700000
20.64071846 7.80359459 -1.28510487 16 20 6509 22.10400000 3182067919 3182067919 -3.33300000
40.66750717 20.10796738 2.64206958 15 21 6509 45.44400000 3182067919 3182067919 3.33300000
40.58842087 17.64834785 1.80316973 9 22 6510 44.29600000 3182067922 3182067922 2.33300000
20.70073318 10.23093987 -1.07561350 26 23 6510 23.11600000 3182067922 3182067922 -2.66700000
20.68407059 8.98939800 -1.18195522 27 24 6511 22.58400000 3182067924 3182067924 -3.00000000
45.74699783 22.59963989 6.26505899 13 25 6511 51.40800000 3182067924 3182067924 7.00000000
42.84110641 18.61006546 3.81306458 21 26 6512 46.86400000 3182067926 3182067926 4.66700000
20.74415588 11.53656673 -0.96704215 24 27 6512 23.75600000 3182067926 3182067926 -2.33300000
20.70220757 7.81032705 -0.77267486 18 28 6513 22.14000000 3182067929 3182067929 -2.00000000
20.80361176 10.26372051 -0.53979790 19 31 6514 23.20400000 3182067931 3182067931 -1.33300000
5.37614346 2.32757902 -2.73180437 6 0 6519 6.46400000 3182067952 3182067952 -25.00000000
35.90294266 19.90951729 -0.71659583 8 1 6519 41.06000000 3182067952 3182067952 -1.00000000
20.73247719 8.97174358 -0.65744609 19 2 6520 22.60000000 3182067954 3182067954 -1.66700000
7.95954800 3.91658306 -2.48332834 3 3 6520 9.21200000 3182067954 3182067954 -15.63900000
10.57680225 4.57479954 -2.30477047 2 4 6521 11.75200000 3182067956 3182067956 -11.31000000
40.79645538 20.06550217 0.00000000 16 5 6521 45.46400000 3182067956 3182067956 0.00000000
40.60242844 15.25336266 -0.50494361 22 6 6521 43.37600000 3182067959 3182067959 -0.66700000
12.26085949 6.03043318 -2.12574315 2 7 6521 13.82800000 3182067959 3182067959 -8.84300000
14.58331299 6.30471992 -2.02231193 2 8 6522 16.01600000 3182067961 3182067961 -7.25400000
40.56152725 22.46511459 0.26948681 19 9 6522 46.36800000 3182067961 3182067961 0.33300000
40.37865067 17.44830704 -0.25565445 16 10 6523 43.98800000 3182067963 3182067963 -0.33300000
15.48009872 7.60708761 -1.85791957 2 11 6523 17.34800000 3182067963 3182067963 -6.14800000
17.99992180 6.75138760 -1.79456413 2 12 6524 19.30800000 3182067965 3182067965 -5.33300000
40.73848724 20.01050568 1.05614662 15 13 6524 45.40000000 3182067965 3182067965 1.33300000
40.34341431 15.12392521 0.50159097 22 14 6525 43.08800000 3182067968 3182067968 0.66700000
19.68213844 9.66348743 -1.53324735 6 15 6525 21.98000000 3182067968 3182067968 -4.00000000
18.71249199 8.07436371 -1.66374075 5 16 6526 20.44800000 3182067970 3182067970 -4.66700000
40.49073029 22.38898087 1.34654260 28 17 6526 46.28800000 3182067970 3182067970 1.66700000
40.40434265 17.43430901 0.76811534 31 18 6526 44.01200000 3182067972 3182067972 1.00000000
19.98889542 11.05267811 -1.46386015 5 19 6526 22.88800000 3182067972 3182067972 -3.66700000
20.65017319 7.73310947 -1.28417468 13 20 6527 22.08800000 3182067975 3182067975 -3.33300000
40.46159363 19.84820747 2.62462807 7 21 6527 45.14400000 3182067975 3182067975 3.33300000
40.63999557 17.51916695 1.80300689 9 22 6528 44.29200000 3182067977 3182067977 2.33300000
20.69689751 10.14826488 -1.07375216 26 23 6528 23.07600000 3182067977 3182067977 -2.66700000
20.67919350 8.91014671 -1.18007112 27 24 6529 22.54800000 3182067979 3182067979 -3.00000000
42.68698883 18.38392258 3.79418802 21 26 6530 46.63200000 3182067982 3182067982 4.66700000
20.73480988 11.44622993 -0.96492535 27 27 6530 23.70400000 3182067982 3182067982 -2.33300000
20.70791817 7.73825407 -0.77197689 17 28 6531 22.12000000 3182067984 3182067984 -2.00000000
20.80165100 10.18612194 -0.53896046 17 31 6531 23.16800000 3182067986 3182067986 -1.33300000
5.38504076 2.30691910 -2.73180437 6 0 6541 6.46400000 3182068007 3182068007 -25.00000000
36.07025528 19.82159233 -0.71841085 8 1 6541 41.16400000 3182068007 3182068007 -1.00000000
20.73369217 8.87790680 -0.65639883 19 2 6542 22.56400000 3182068009 3182068009 -1.66700000
7.96760225 3.88261700 -2.48117161 2 3 6542 9.20400000 3182068009 3182068009 -15.63900000
10.58347225 4.52952385 -2.30241704 2 4 6543 11.74000000 3182068012 3182068012 -11.31000000
40.82645416 19.88593674 0.00000000 16 5 6543 45.41200000 3182068012 3182068012 0.00000000
40.49834061 15.02902222 -0.50289482 22 6 6544 43.20000000 3182068014 3182068014 -0.66700000
12.27430725 5.97597599 -2.12389851 2 7 6544 13.81600000 3182068014 3182068014 -8.84300000
40.66852570 22.32075310 0.26962629 28 9 6544 46.39200000 3182068016 3182068016 0.33300000
40.40489197 17.27583694 -0.25539872 16 10 6545 43.94400000 3182068018 3182068018 -0.33300000
15.50919342 7.54759216 -1.85791957 2 11 6545 17.34800000 3182068018 3182068018 -6.14800000
18.03318024 6.68499184 -1.79530764 2 12 6546 19.31600000 3182068021 3182068021 -5.33300000
40.68556213 19.79096031 1.05279672 15 13 6546 45.25600000 3182068021 3182068021 1.33300000
40.34492874 14.94806194 0.50089252 22 14 6547 43.02800000 3182068023 3182068023 0.66700000
19.71550941 9.58609772 -1.53296828 6 15 6547 21.97600000 3182068023 3182068023 -4.00000000
18.73969078 8.00088787 -1.66341531 5 16 6548 20.44400000 3182068025 3182068025 -4.66700000
40.42562485 22.15072632 1.34153903 9 17 6548 46.11600000 3182068025 3182068025 1.66700000
40.43721771 17.25627899 0.76741719 21 18 6549 43.97200000 3182068028 3182068028 1.00000000
20.04010582 10.97618389 -1.46437180 5 19 6549 22.89600000 3182068028 3182068028 -3.66700000
20.65349960 7.64405966 -1.28254676 13 20 6549 22.06000000 3182068030 3182068030 -3.33300000
40.49799728 19.67350769 2.62206984 15 21 6549 45.10000000 3182068030 3182068030 3.33300000
40.55991364 17.30027008 1.79649365 9 22 6550 44.13200000 3182068032 3182068032 2.33300000
20.69617271 10.04952145 -1.07170486 26 23 6550 23.03200000 3182068032 3182068032 -2.66700000
20.67283249 8.81344604 -1.17776835 26 24 6551 22.50400000 3182068035 3182068035 -3.00000000
44.88082123 19.12477875 3.98262835 11 26 6552 48.94800000 3182068037 3182068037 4.66700000
20.74354362 11.34734917 -0.96329707 26 27 6552 23.66400000 3182068037 3182068037 -2.33300000
20.70747757 7.64760494 -0.77086008 17 28 6553 22.08800000 3182068039 3182068039 -2.00000000
20.80822563 10.09047031 -0.53812295 19 31 6553 23.13200000 3182068042 3182068042 -1.33300000
5.39639807 2.28952360 -2.73349500 7 0 6561 6.46800000 3182068062 3182068062 -25.00000000
36.15327072 19.70321846 -0.71869010 8 1 6561 41.18000000 3182068062 3182068062 -1.00000000
20.74615097 8.79767323 -0.65581697 19 2 6562 22.54400000 3182068065 3182068065 -1.66700000
7.98804379 3.85813189 -2.48332834 3 3 6562 9.21200000 3182068065 3182068065 -15.63900000
10.59921932 4.49255323 -2.30241704 2 4 6563 11.74000000 3182068067 3182068067 -11.31000000
40.76233673 19.67896080 0.00000000 16 5 6563 45.26400000 3182068067 3182068067 0.00000000
40.55055618 14.88756561 -0.50289482 11 6 6564 43.20000000 3182068069 3182068069 -0.66700000
12.30221176 5.93652964 -2.12512827 2 7 6564 13.82400000 3182068069 3182068069 -8.84300000
14.56337166 6.16978884 -2.01322055 42 8 6564 15.94400000 3182068071 3182068071 -7.25400000
40.71105957 22.15953445 0.26939383 19 9 6564 46.35200000 3182068071 3182068071 0.33300000
40.39128494 17.10349846 -0.25493377 16 10 6565 43.86400000 3182068074 3182068074 -0.33300000
15.53186321 7.49168158 -1.85749125 2 11 6565 17.34400000 3182068074 3182068074 -6.14800000
18.07136345 6.62748909 -1.79679477 2 12 6566 19.33200000 3182068076 3182068076 -5.33300000
40.71837616 19.63145447 1.05186617 15 13 6566 45.21600000 3182068076 3182068076 1.33300000
40.33677673 14.78511715 0.50014752 22 14 6567 42.96400000 3182068078 3182068078 0.66700000
19.74525642 9.51548672 -1.53268921 6 15 6567 21.97200000 3182068078 3182068078 -4.00000000
18.76016045 7.93232012 -1.66276443 5 16 6568 20.43600000 3182068081 3182068081 -4.66700000
40.65024948 22.08966064 1.34642625 18 17 6568 46.28400000 3182068081 3182068081 1.66700000
40.40213013 17.08314896 0.76567197 21 18 6568 43.87200000 3182068083 3182068083 1.00000000
20.07639313 10.90966797 -1.46437180 5 19 6568 22.89600000 3182068083 3182068083 -3.66700000
20.65755653 7.56368113 -1.28115141 20 20 6569 22.03600000 3182068085 3182068085 -3.33300000
40.55203247 19.52509308 2.62113953 7 21 6569 45.08400000 3182068085 3182068085 3.33300000
40.61269379 17.15547371 1.79616809 18 22 6570 44.12400000 3182068088 3182068088 2.33300000
20.70952415 9.96682072 -1.07058811 26 23 6570 23.00800000 3182068088 3182068088 -2.66700000
20.66667175 8.72569370 -1.17567492 26 24 6571 22.46400000 3182068090 3182068090 -3.00000000
45.95252609 22.10557938 6.26115942 39 25 6571 51.37600000 3182068090 3182068090 7.00000000
43.30544662 18.27512550 3.83714867 22 26 6572 47.16000000 3182068092 3182068092 4.66700000
20.73735809 11.25009632 -0.96118033 26 27 6572 23.61200000 3182068092 3182068092 -2.33300000
20.70400810 7.56430149 -0.76974332 17 28 6573 22.05600000 3182068095 3182068095 -2.00000000
20.79646683 9.99525547 -0.53691328 17 31 6573 23.08000000 3182068097 3182068097 -1.33300000
5.39767265 2.26786423 -2.73011398 7 0 6581 6.46000000 3182068117 3182068117 -25.00000000
36.40126801 19.67388153 -0.72225040 8 1 6581 41.38400000 3182068117 3182068117 -1.00000000
20.74724197 8.71281719 -0.65488613 16 2 6582 22.51200000 3182068119 3182068119 -1.66700000
7.99798822 3.82856178 -2.48224998 6 3 6582 9.20800000 3182068119 3182068119 -15.63900000
10.61845303 4.45704556 -2.30320144 2 4 6583 11.74400000 3182068122 3182068122 -11.31000000
40.79830933 19.52101517 0.00000000 15 5 6583 45.22800000 3182068122 3182068122 0.00000000
40.59970093 14.75301266 -0.50289482 22 6 6583 43.20000000 3182068124 3182068124 -0.66700000
12.31113434 5.89058352 -2.12328362 2 7 6583 13.81200000 3182068124 3182068124 -8.84300000
14.59213734 6.12198591 -2.01423073 33 8 6584 15.95200000 3182068126 3182068126 -7.25400000
40.64384842 21.93939018 0.26844066 19 9 6584 46.18800000 3182068126 3182068126 0.33300000
40.39171982 16.93765450 -0.25456181 16 10 6585 43.80000000 3182068129 3182068129 -0.33300000
15.56509590 7.44084978 -1.85834801 2 11 6585 17.35200000 3182068129 3182068129 -6.14800000
18.08315468 6.56029320 -1.79567945 2 12 6586 19.32000000 3182068131 3182068131 -5.33300000
40.78304672 19.48747635 1.05177307 15 13 6586 45.21200000 3182068131 3182068131 1.33300000
40.32045746 14.61968422 0.49930933 32 14 6587 42.89200000 3182068133 3182068133 0.66700000
19.77475166 9.44478512 -1.53241026 6 15 6587 21.96800000 3182068133 3182068133 -4.00000000
18.79141235 7.86832619 -1.66308987 5 16 6588 20.44000000 3182068135 3182068135 -4.66700000
40.70951080 21.93814659 1.34584451 28 17 6588 46.26400000 3182068135 3182068135 1.66700000
40.41724777 16.92347908 0.76483428 21 18 6588 43.82400000 3182068138 3182068138 1.00000000
20.10381126 10.83384037 -1.46360433 8 19 6588 22.88400000 3182068138 3182068138 -3.66700000
20.65004349 7.47928762 -1.27905846 16 20 6589 22.00000000 3182068140 3182068140 -3.33300000
40.62439728 16.99355316 1.79405129 9 22 6590 44.07200000 3182068142 3182068142 2.33300000
20.70451736 9.87554836 -1.06854069 28 23 6590 22.96400000 3182068142 3182068142 -2.66700000
20.66383743 8.63963318 -1.17379081 26 24 6591 22.42800000 3182068145 3182068145 -3.00000000
46.09033203 21.97408676 6.26944637 26 25 6591 51.44400000 3182068145 3182068145 7.00000000
20.73074722 11.15302467 -0.95906353 26 27 6592 23.56000000 3182068147 3182068147 -2.33300000
20.70396996 7.48247385 -0.76876611 17 28 6593 22.02800000 3182068149 3182068149 -2.00000000
20.79873657 9.90712452 -0.53607583 14 31 6593 23.04400000 3182068152 3182068152 -1.33300000
5.41146374 2.25368333 -2.73349500 7 0 6599 6.46800000 3182068172 3182068172 -25.00000000
36.51928329 19.58967590 -0.72336733 8 1 6599 41.44800000 3182068172 3182068172 -1.00000000
20.74498177 8.63530254 -0.65395522 19 2 6600 22.48000000 3182068175 3182068175 -1.66700000
8.01693535 3.80672097 -2.48440647 3 3 6600 9.21600000 3182068175 3182068175 -15.63900000
10.62878132 4.42215824 -2.30241704 4 4 6601 11.74000000 3182068177 3182068177 -11.31000000
40.83775330 19.38245583 0.00000000 15 5 6601 45.20400000 3182068177 3182068177 0.00000000
40.51412582 14.57799530 -0.50126505 11 6 6601 43.06000000 3182068179 3182068179 -0.66700000
12.32957935 5.85187817 -2.12328362 2 7 6601 13.81200000 3182068179 3182068179 -8.84300000
14.60397053 6.07306576 -2.01322055 32 8 6602 15.94400000 3182068182 3182068182 -7.25400000
40.71609879 21.81348419 0.26846391 19 9 6602 46.19200000 3182068182 3182068182 0.33300000
40.39671707 16.79071808 -0.25425959 16 10 6603 43.74800000 3182068184 3182068184 -0.33300000
15.58839512 7.39191437 -1.85834801 2 11 6603 17.35200000 3182068184 3182068184 -6.14800000
18.09243011 6.49941158 -1.79456413 4 12 6604 19.30800000 3182068186 3182068186 -5.33300000
40.70314026 19.29245949 1.04814410 15 13 6604 45.05600000 3182068186 3182068186 1.33300000
40.30218887 14.46996498 0.49851775 21 14 6605 42.82400000 3182068188 3182068188 0.66700000
19.80793190 9.38432312 -1.53268921 6 15 6605 21.97200000 3182068188 3182068188 -4.00000000
18.81235695 7.80772448 -1.66276443 5 16 6606 20.43600000 3182068191 3182068191 -4.66700000
40.46796799 21.64420319 1.33560455 9 17 6606 45.91200000 3182068191 3182068191 1.66700000
40.42219162 16.77649117 0.76392674 21 18 6606 43.77200000 3182068193 3182068193 1.00000000
20.13774681 10.77062893 -1.46360433 5 19 6606 22.88400000 3182068193 3182068193 -3.66700000
20.63960838 7.40224409 -1.27696550 10 20 6607 21.96400000 3182068195 3182068195 -3.33300000
40.02734756 18.94648933 2.57904696 21 21 6607 44.36000000 3182068195 3182068195 3.33300000
40.55944443 16.81686020 1.78884077 9 22 6608 43.94400000 3182068198 3182068198 2.33300000
20.69571114 9.79165745 -1.06649339 26 23 6608 22.92000000 3182068198 3182068198 -2.66700000
20.67611694 8.56855583 -1.17295349 18 24 6609 22.41200000 3182068200 3182068200 -3.00000000
44.83476639 21.20287132 6.08956718 31 25 6609 49.96800000 3182068200 3182068200 7.00000000
42.66694641 17.67322731 3.77010417 10 26 6610 46.33600000 3182068202 3182068202 4.66700000
20.73042679 11.06901646 -0.95743525 26 27 6610 23.52000000 3182068202 3182068202 -2.33300000
20.69350052 7.40527153 -0.76750976 17 28 6611 21.99200000 3182068205 3182068205 -2.00000000
20.79360199 9.82465076 -0.53514528 12 31 6611 23.00400000 3182068207 3182068207 -1.33300000
5.42264938 2.23616195 -2.73518538 7 0 6619 6.47200000 3182068228 3182068228 -25.00000000
36.73220825 19.53908730 -0.72622955 8 1 6619 41.61200000 3182068228 3182068228 -1.00000000
20.73433685 8.54607677 -0.65267521 22 2 6620 22.43600000 3182068230 3182068230 -1.66700000
8.02320385 3.77543330 -2.48224998 3 3 6620 9.20800000 3182068230 3182068230 -15.63900000
10.65140629 4.38801813 -2.30398583 2 4 6621 11.74800000 3182068232 3182068232 -11.31000000
40.74951935 19.16658211 0.00000000 15 5 6621 45.03200000 3182068232 3182068232 0.00000000
40.52331543 14.42173481 -0.50075281 22 6 6621 43.01600000 3182068235 3182068235 -0.66700000
12.34993172 5.80880404 -2.12328362 2 7 6621 13.81200000 3182068235 3182068235 -8.84300000
14.62874985 6.02356243 -2.01372552 21 8 6622 15.94800000 3182068237 3182068237 -7.25400000
40.66129684 21.60179138 0.26760375 9 9 6622 46.04400000 3182068237 3182068237 0.33300000
40.38479996 16.62068176 -0.25381789 16 10 6623 43.67200000 3182068239 3182068239 -0.33300000
15.60690403 7.33407259 -1.85749125 2 11 6623 17.34400000 3182068239 3182068239 -6.14800000
18.11125565 6.43488407 -1.79419231 4 12 6624 19.30400000 3182068241 3182068241 -5.33300000
40.72679901 19.12985992 1.04702747 15 13 6624 45.00800000 3182068241 3182068241 1.33300000
40.26953506 14.29975033 0.49749333 21 14 6625 42.73600000 3182068244 3182068244 0.66700000
19.83695602 9.31342697 -1.53241026 6 15 6625 21.96800000 3182068244 3182068244 -4.00000000
18.83949661 7.74200964 -1.66276443 5 16 6626 20.43600000 3182068246 3182068246 -4.66700000
40.56800079 21.51592445 1.33641911 18 17 6626 45.94000000 3182068246 3182068246 1.66700000
40.46491241 16.62062645 0.76357770 21 18 6627 43.75200000 3182068248 3182068248 1.00000000
20.17356110 10.69487858 -1.46334851 8 19 6627 22.88000000 3182068248 3182068248 -3.66700000
20.63897705 7.32080889 -1.27533758 13 20 6627 21.93600000 3182068251 3182068251 -3.33300000
40.17639160 18.84565544 2.58439565 14 21 6627 44.45200000 3182068251 3182068251 3.33300000
40.55504608 16.64937592 1.78607261 9 22 6628 43.87600000 3182068253 3182068253 2.33300000
20.68634987 9.69900131 -1.06425989 24 23 6628 22.87200000 3182068253 3182068253 -2.66700000
20.66894531 8.48116684 -1.17086005 30 24 6629 22.37200000 3182068255 3182068255 -3.00000000
44.53822327 20.87270737 6.03935719 10 25 6629 49.55600000 3182068255 3182068255 7.00000000
42.52550507 17.44098091 3.75220394 31 26 6630 46.11600000 3182068258 3182068258 4.66700000
20.72302055 10.97227478 -0.95531845 26 27 6630 23.46800000 3182068258 3182068258 -2.33300000
20.70038033 7.32632351 -0.76681173 17 28 6631 21.97200000 3182068260 3182068260 -2.00000000
20.80603981 9.74183369 -0.53458697 12 31 6631 22.98000000 3182068262 3182068262 -1.33300000
5.42112541 2.21121669 -2.73011398 6 0 6641 6.46000000 3182068283 3182068283 -25.00000000
36.82465363 19.40722466 -0.72657859 8 1 6641 41.63200000 3182068283 3182068283 -1.00000000
20.73737717 8.45432377 -0.65174431 24 2 6642 22.40400000 3182068285 3182068285 -1.66700000
8.03415012 3.74297190 -2.48117161 2 3 6642 9.20400000 3182068285 3182068285 -15.63900000
10.65727901 4.34264708 -2.30163264 2 4 6643 11.73600000 3182068287 3182068287 -11.31000000
40.63787842 18.92385674 0.00000000 15 5 6643 44.82800000 3182068287 3182068287 0.00000000
40.56578827 14.25364399 -0.50056660 22 6 6644 43.00000000 3182068290 3182068290 -0.66700000
12.36956692 5.75751352 -2.12266874 2 7 6644 13.80800000 3182068290 3182068290 -8.84300000
14.63339615 5.95986414 -2.01120019 6 8 6644 15.92800000 3182068292 3182068292 -7.25400000
40.67314911 21.40824318 0.26713881 19 9 6644 45.96400000 3182068292 3182068292 0.33300000
40.37792969 16.43683815 -0.25337619 16 10 6645 43.59600000 3182068294 3182068294 -0.33300000
15.63855553 7.27577019 -1.85791957 2 11 6645 17.34800000 3182068294 3182068294 -6.14800000
18.13958740 6.36661339 -1.79456413 4 12 6646 19.30800000 3182068297 3182068297 -5.33300000
40.68029404 18.91769409 1.04395664 7 13 6646 44.87600000 3182068297 3182068297 1.33300000
40.30149841 14.13707829 0.49721393 21 14 6647 42.71200000 3182068299 3182068299 0.66700000
19.86895180 9.23550892 -1.53213120 6 15 6647 21.96400000 3182068299 3182068299 -4.00000000
18.86169815 7.66661167 -1.66211343 5 16 6648 20.42800000 3182068301 3182068301 -4.66700000
40.56890869 21.31722069 1.33374286 18 17 6648 45.84800000 3182068301 3182068301 1.66700000
40.40699768 16.42401314 0.76134378 21 18 6648 43.62400000 3182068304 3182068304 1.00000000
20.20909119 10.61900997 -1.46309268 8 19 6648 22.87600000 3182068304 3182068304 -3.66700000
20.64809227 7.23490477 -1.27417481 20 20 6649 21.91600000 3182068306 3182068306 -3.33300000
40.31002808 18.71984291 2.58834910 14 21 6649 44.52000000 3182068306 3182068306 3.33300000
40.58164215 16.47849655 1.78444433 9 22 6650 43.83600000 3182068308 3182068308 2.33300000
20.69807053 9.60772419 -1.06295705 24 23 6650 22.84400000 3182068308 3182068308 -2.66700000
20.67544937 8.39122581 -1.16939461 30 24 6651 22.34400000 3182068311 3182068311 -3.00000000
42.15106583 19.55693245 5.70543528 19 25 6651 46.81600000 3182068311 3182068311 7.00000000
42.25597382 17.14119148 3.72258735 42 26 6652 45.75200000 3182068313 3182068313 4.66700000
20.72960472 10.87405682 -0.95369017 23 27 6652 23.42800000 3182068313 3182068313 -2.33300000
20.70571709 7.23887014 -0.76597416 17 28 6653 21.94800000 3182068315 3182068315 -2.00000000
20.83772087 9.65487194 -0.53440088 8 31 6654 22.97200000 3182068317 3182068317 -1.33300000
5.43553400 2.19499469 -2.73349500 6 0 6661 6.46800000 3182068338 3182068338 -25.00000000
37.08003616 19.37673569 -0.73027849 8 1 6661 41.84400000 3182068338 3182068338 -1.00000000
20.74080849 8.37141037 -0.65092981 18 2 6662 22.37600000 3182068340 3182068340 -1.66700000
8.05416107 3.71813369 -2.48332834 2 3 6662 9.21200000 3182068340 3182068340 -15.63900000
10.67601013 4.30688715 -2.30241704 2 4 6663 11.74000000 3182068343 3182068343 -11.31000000
40.62015152 18.74334145 0.00000000 15 5 6663 44.73600000 3182068343 3182068343 0.00000000
40.63040543 14.11720753 -0.50075281 22 6 6664 43.01600000 3182068345 3182068345 -0.66700000
12.39317799 5.71595621 -2.12328362 1 7 6664 13.81200000 3182068345 3182068345 -8.84300000
14.67987156 5.91913509 -2.01473570 3 8 6664 15.95600000 3182068347 3182068347 -7.25400000
40.77954483 21.28279305 0.26734802 19 9 6664 46.00000000 3182068347 3182068347 0.33300000
40.37570190 16.27186966 -0.25300422 16 10 6665 43.53200000 3182068350 3182068350 -0.33300000
15.66385746 7.22113705 -1.85791957 2 11 6665 17.34800000 3182068350 3182068350 -6.14800000
18.17298889 6.30717325 -1.79567945 4 12 6666 19.32000000 3182068352 3182068352 -5.33300000
40.70249939 18.75549698 1.04284000 15 13 6666 44.82800000 3182068352 3182068352 1.33300000
40.30147552 13.97927380 0.49660861 21 14 6667 42.66000000 3182068354 3182068354 0.66700000
19.90831757 9.16943550 -1.53268921 6 15 6667 21.97200000 3182068354 3182068354 -4.00000000
18.90683746 7.60816669 -1.66374075 5 16 6668 20.44800000 3182068357 3182068357 -4.66700000
40.69980621 21.20503807 1.33560455 18 17 6668 45.91200000 3182068357 3182068357 1.66700000
40.43440247 16.27092171 0.76078528 21 18 6668 43.59200000 3182068359 3182068359 1.00000000
20.24249458 10.54655838 -1.46283686 8 19 6668 22.87200000 3182068359 3182068359 -3.66700000
20.65435410 7.15624905 -1.27301204 20 20 6669 21.89600000 3182068361 3182068361 -3.33300000
40.31708527 18.55231285 2.58462834 14 21 6669 44.45600000 3182068361 3182068361 3.33300000
40.53508377 16.29500008 1.77988517 18 22 6670 43.72400000 3182068364 3182068364 2.33300000
20.70244026 9.52205849 -1.06146801 24 23 6670 22.81200000 3182068364 3182068364 -2.66700000
20.66013527 8.30113316 -1.16688251 26 24 6671 22.29600000 3182068366 3182068366 -3.00000000
41.90524673 19.26539803 5.66302443 9 25 6671 46.46800000 3182068366 3182068366 7.00000000
42.33034897 16.99952888 3.72388911 21 26 6672 45.76800000 3182068368 3182068368 4.66700000
20.72488785 10.77950096 -0.95173621 26 27 6672 23.38000000 3182068368 3182068368 -2.33300000
20.71952629 7.16263151 -0.76555538 17 28 6673 21.93600000 3182068370 3182068370 -2.00000000
20.86962318 9.58571911 -0.53440088 6 31 6673 22.97200000 3182068373 3182068373 -1.33300000
5.43979645 2.17466211 -2.73180437 7 0 6681 6.46400000 3182068393 3182068393 -25.00000000
37.31434631 19.33365822 -0.73355955 8 1 6681 42.03200000 3182068393 3182068393 -1.00000000
20.74762726 8.29005909 -0.65023160 13 2 6682 22.35200000 3182068396 3182068396 -1.66700000
8.06709003 3.68999672 -2.48332834 2 3 6682 9.21200000 3182068396 3182068396 -15.63900000
10.70190716 4.27395868 -2.30477047 2 4 6683 11.75200000 3182068398 3182068398 -11.31000000
40.59802246 18.56151962 0.00000000 15 5 6683 44.64000000 3182068398 3182068398 0.00000000
40.36304855 13.87447739 -0.49688798 21 6 6683 42.68400000 3182068400 3182068400 -0.66700000
12.40128040 5.66989708 -2.12143874 2 7 6683 13.80000000 3182068400 3182068400 -8.84300000
14.71886921 5.87521172 -2.01726103 2 8 6684 15.97600000 3182068403 3182068403 -7.25400000
40.85713959 21.14215469 0.26737127 9 9 6684 46.00400000 3182068403 3182068403 0.33300000
40.34680557 16.09674263 -0.25246954 16 10 6685 43.44000000 3182068405 3182068405 -0.33300000
15.69258595 7.16806841 -1.85834801 2 11 6685 17.35200000 3182068405 3182068405 -6.14800000
18.18359184 6.23982143 -1.79456413 4 12 6686 19.30800000 3182068407 3182068407 -5.33300000
40.73861694 18.60001755 1.04209566 15 13 6686 44.79600000 3182068407 3182068407 1.33300000
40.29705811 13.82034397 0.49595672 21 14 6687 42.60400000 3182068410 3182068410 0.66700000
19.92931366 9.09491634 -1.53185213 6 15 6687 21.96000000 3182068410 3182068410 -4.00000000
18.91846466 7.53622198 -1.66243887 5 16 6688 20.43200000 3182068412 3182068412 -4.66700000
40.72739792 21.03898430 1.33409190 18 17 6688 45.86000000 3182068412 3182068412 1.66700000
40.45379639 16.11487961 0.76008719 20 18 6688 43.55200000 3182068414 3182068414 1.00000000
20.27918625 10.47583485 -1.46283686 8 19 6688 22.87200000 3182068414 3182068414 -3.66700000
20.65654182 7.07634306 -1.27161670 20 20 6689 21.87200000 3182068417 3182068417 -3.33300000
40.26169586 18.35680008 2.57695389 21 21 6689 44.32400000 3182068417 3182068417 3.33300000
40.59914398 16.15636253 1.78021073 9 22 6690 43.73200000 3182068419 3182068419 2.33300000
20.69919395 9.43316555 -1.05960679 27 23 6690 22.77200000 3182068419 3182068419 -2.66700000
20.66300392 8.21863079 -1.16541708 26 24 6691 22.26800000 3182068421 3182068421 -3.00000000
42.93772888 17.06963921 3.77205706 32 26 6692 46.36000000 3182068423 3182068423 4.66700000
20.72331429 10.68694115 -0.94994509 26 27 6692 23.33600000 3182068423 3182068423 -2.33300000
20.71035767 7.07862711 -0.76429898 15 28 6693 21.90000000 3182068426 3182068426 -2.00000000
20.90461731 9.50916290 -0.53440088 6 31 6694 22.97200000 3182068428 3182068428 -1.33300000
5.44061232 2.15299249 -2.72842360 6 0 6701 6.45600000 3182068449 3182068449 -25.00000000
37.50611877 19.26725197 -0.73600286 8 1 6701 42.17200000 3182068449 3182068449 -1.00000000
20.74297523 8.20435047 -0.64918435 13 2 6702 22.31600000 3182068451 3182068451 -1.66700000
8.07641315 3.66022491 -2.48224998 2 3 6702 9.20800000 3182068451 3182068451 -15.63900000
10.70946503 4.23369217 -2.30320144 2 4 6703 11.74400000 3182068453 3182068453 -11.31000000
40.48038864 18.33716774 0.00000000 23 5 6703 44.44000000 3182068453 3182068453 0.00000000
40.55514145 13.78240490 -0.49865744 21 6 6703 42.83600000 3182068456 3182068456 -0.66700000
12.42819786 5.62983561 -2.12266874 2 7 6703 13.80800000 3182068456 3182068456 -8.84300000
14.72452641 5.81796455 -2.01524091 3 8 6704 15.96000000 3182068458 3182068458 -7.25400000
40.79901123 20.93185043 0.26651111 19 9 6704 45.85600000 3182068458 3182068458 0.33300000
40.36554337 15.94111633 -0.25223705 16 10 6705 43.40000000 3182068460 3182068460 -0.33300000
15.71026516 7.10996771 -1.85749125 2 11 6705 17.34400000 3182068460 3182068460 -6.14800000
18.21657753 6.18014908 -1.79567945 4 12 6706 19.32000000 3182068463 3182068463 -5.33300000
40.50453186 18.32254982 1.03446531 22 13 6706 44.46800000 3182068463 3182068463 1.33300000
40.30717468 13.66675377 0.49549106 21 14 6707 42.56400000 3182068465 3182068465 0.66700000
19.95730400 9.02365112 -1.53157318 6 15 6707 21.95600000 3182068465 3182068465 -4.00000000
18.95578194 7.47452545 -1.66341531 5 16 6708 20.44400000 3182068467 3182068467 -4.66700000
40.77567673 20.88393211 1.33327734 27 17 6708 45.83200000 3182068467 3182068467 1.66700000
40.37958145 15.92222404 0.75764388 20 18 6708 43.41200000 3182068470 3182068470 1.00000000
20.30852318 10.40134335 -1.46232522 8 19 6708 22.86400000 3182068470 3182068470 -3.66700000
20.65085983 6.99394798 -1.26975620 20 20 6709 21.84000000 3182068472 3182068472 -3.33300000
40.20543671 18.16189957 2.56927967 14 21 6709 44.19200000 3182068472 3182068472 3.33300000
40.43961716 15.92958832 1.77076674 9 22 6710 43.50000000 3182068474 3182068474 2.33300000
20.69193649 9.34276772 -1.05755937 24 23 6710 22.72800000 3182068474 3182068474 -2.66700000
20.65811539 8.13328362 -1.16353297 26 24 6711 22.23200000 3182068476 3182068476 -3.00000000
42.00615311 18.95767975 5.65863752 19 25 6711 46.43200000 3182068476 3182068476 7.00000000
42.52961349 16.73571205 3.73104930 31 26 6712 45.85600000 3182068479 3182068479 4.66700000
20.72490692 10.59634399 -0.94831681 23 27 6712 23.29600000 3182068479 3182068479 -2.33300000
20.70085526 6.99477434 -0.76304257 17 28 6713 21.86400000 3182068481 3182068481 -2.00000000
20.94497490 9.43942070 -0.53458697 6 31 6714 22.98000000 3182068483 3182068483 -1.33300000
5.45147038 2.13531041 -2.73011398 6 0 6721 6.46000000 3182068504 3182068504 -25.00000000
37.66580200 19.18340492 -0.73781794 8 1 6721 42.27600000 3182068504 3182068504 -1.00000000
20.74170303 8.12023354 -0.64825344 13 2 6722 22.28400000 3182068506 3182068506 -1.66700000
8.08211327 3.62885499 -2.48009324 2 3 6722 9.20000000 3182068506 3182068506 -15.63900000
10.73148346 4.19914198 -2.30477047 2 4 6723 11.75200000 3182068509 3182068509 -11.31000000
40.43832016 18.14825821 0.00000000 22 5 6723 44.32400000 3182068509 3182068509 0.00000000
40.36793137 13.56178379 -0.49577045 21 6 6723 42.58800000 3182068511 3182068511 -0.66700000
12.44777393 5.58641911 -2.12266874 2 7 6723 13.80800000 3182068511 3182068511 -8.84300000
14.75583172 5.77086687 -2.01675606 4 8 6724 15.97200000 3182068513 3182068513 -7.25400000
40.83617783 20.77117348 0.26627862 9 9 6724 45.81600000 3182068513 3182068513 0.33300000
40.35015869 15.77244854 -0.25179535 24 10 6725 43.32400000 3182068516 3182068516 -0.33300000
15.73498726 7.05508566 -1.85749125 2 11 6725 17.34400000 3182068516 3182068516 -6.14800000
18.21916008 6.11019182 -1.79382050 6 12 6726 19.30000000 3182068518 3182068518 -5.33300000
40.39672852 18.10418701 1.03009188 15 13 6726 44.28000000 3182068518 3182068518 1.33300000
40.30533600 13.50944710 0.49488574 21 14 6727 42.51200000 3182068520 3182068520 0.66700000
19.99596214 8.95719433 -1.53213120 6 15 6727 21.96400000 3182068520 3182068520 -4.00000000
18.97804260 7.40686226 -1.66308987 5 16 6728 20.44000000 3182068523 3182068523 -4.66700000
40.71285629 20.67268372 1.32885563 18 17 6728 45.68000000 3182068523 3182068523 1.66700000
40.40883255 15.77099705 0.75715518 20 18 6728 43.38400000 3182068525 3182068525 1.00000000
20.33403015 10.32496834 -1.46155775 8 19 6728 22.85200000 3182068525 3182068525 -3.66700000
20.64485359 6.91167831 -1.26789582 20 20 6729 21.80800000 3182068527 3182068527 -3.33300000
40.00251389 17.90236855 2.55230308 21 21 6729 43.90000000 3182068527 3182068527 3.33300000
40.49125290 15.78687954 1.77060390 9 22 6730 43.49600000 3182068529 3182068529 2.33300000
20.68794823 9.25416660 -1.05569816 24 23 6730 22.68800000 3182068529 3182068529 -2.66700000
20.66404915 8.05242157 -1.16227686 26 24 6731 22.20800000 3182068532 3182068532 -3.00000000
41.93434525 18.74935532 5.64011335 18 25 6731 46.28000000 3182068532 3182068532 7.00000000
41.54016495 16.17913246 3.63927007 30 26 6732 44.72800000 3182068534 3182068534 4.66700000
20.72255707 10.50405884 -0.94652569 26 27 6732 23.25200000 3182068534 3182068534 -2.33300000
20.70997810 6.91740608 -0.76248419 17 28 6733 21.84800000 3182068536 3182068536 -2.00000000
20.98509979 9.36951256 -0.53477305 6 31 6734 22.98800000 3182068539 3182068539 -1.33300000
5.45889044 2.11626816 -2.73011398 7 0 6741 6.46000000 3182068559 3182068559 -25.00000000
38.07883835 19.22666359 -0.74458945 9 1 6741 42.66400000 3182068559 3182068559 -1.00000000
20.72518349 8.03044701 -0.64685714 10 2 6742 22.23600000 3182068562 3182068562 -1.66700000
8.10176945 3.60375214 -2.48224998 5 3 6742 9.20800000 3182068562 3182068562 -15.63900000
10.73144531 4.15599060 -2.30163264 2 4 6743 11.73600000 3182068564 3182068564 -11.31000000
40.40639114 17.96474075 0.00000000 15 5 6743 44.22000000 3182068564 3182068564 0.00000000
40.27457809 13.37415123 -0.49404758 21 6 6743 42.44000000 3182068566 3182068566 -0.66700000
12.47080994 5.54453993 -2.12328362 2 7 6743 13.81200000 3182068566 3182068566 -8.84300000
14.76848507 5.71645975 -2.01574588 2 8 6744 15.96400000 3182068569 3182068569 -7.25400000
40.75485611 20.55105972 0.26527900 19 9 6744 45.64400000 3182068569 3182068569 0.33300000
40.35647583 15.61274242 -0.25149313 24 10 6745 43.27200000 3182068571 3182068571 -0.33300000
15.76315308 7.00173140 -1.85791957 2 11 6745 17.34800000 3182068571 3182068571 -6.14800000
18.21013451 6.03653288 -1.79084635 16 12 6746 19.26800000 3182068573 3182068573 -5.33300000
40.40485382 17.93872452 1.02869606 15 13 6746 44.22000000 3182068573 3182068573 1.33300000
40.28770065 13.34728909 0.49409413 21 14 6747 42.44400000 3182068575 3182068575 0.66700000
20.01981354 8.88410378 -1.53157318 6 15 6747 21.95600000 3182068575 3182068575 -4.00000000
19.01122093 7.34344482 -1.66374075 5 16 6748 20.44800000 3182068578 3182068578 -4.66700000
40.76691437 20.52145386 1.32827377 18 17 6748 45.66000000 3182068578 3182068578 1.66700000
40.43379211 15.61831951 0.75659674 20 18 6748 43.35200000 3182068580 3182068580 1.00000000
20.35925102 10.24854183 -1.46079016 8 19 6748 22.84000000 3182068580 3182068580 -3.66700000
20.64231682 6.83079100 -1.26626790 20 20 6749 21.78000000 3182068582 3182068582 -3.33300000
40.07571030 17.76747894 2.55300069 14 21 6749 43.91200000 3182068582 3182068582 3.33300000
40.53865433 15.64256477 1.77027822 18 22 6750 43.48800000 3182068585 3182068585 2.33300000
20.67994308 9.16408920 -1.05365074 19 23 6750 22.64400000 3182068585 3182068585 -2.66700000
20.66594124 7.97017956 -1.16081154 26 24 6751 22.18000000 3182068587 3182068587 -3.00000000
41.94508362 18.57874489 5.63280106 28 25 6751 46.22000000 3182068587 3182068587 7.00000000
42.44081497 16.35952950 3.71314907 21 26 6752 45.63600000 3182068589 3182068589 4.66700000
20.72338486 10.41371441 -0.94489741 26 27 6752 23.21200000 3182068589 3182068589 -2.33300000
20.69603729 6.83254051 -0.76108825 17 28 6753 21.80800000 3182068592 3182068592 -2.00000000
21.02499199 9.29943848 -0.53495920 6 31 6754 22.99600000 3182068594 3182068594 -1.33300000
5.47228050 2.10170770 -2.73349500 6 0 6759 6.46800000 3182068615 3182068615 -25.00000000
38.30353546 19.18934441 -0.74780071 9 1 6759 42.84800000 3182068615 3182068615 -1.00000000
20.72791290 7.95669985 -0.64615893 10 2 6760 22.21200000 3182068617 3182068617 -1.66700000
8.10952663 3.57672739 -2.48117161 2 3 6760 9.20400000 3182068617 3182068617 -15.63900000
10.74811077 4.12366104 -2.30241704 4 4 6761 11.74000000 3182068619 3182068619 -11.31000000
40.41138840 17.81512070 0.00000000 15 5 6761 44.16400000 3182068619 3182068619 0.00000000
40.27459717 13.23382473 -0.49353537 32 6 6761 42.39600000 3182068622 3182068622 -0.66700000
12.49901676 5.51011753 -2.12512827 2 7 6761 13.82400000 3182068622 3182068622 -8.84300000
14.79378128 5.67287636 -2.01675606 4 8 6762 15.97200000 3182068624 3182068624 -7.25400000
40.76556015 20.39607620 0.26493028 19 9 6762 45.58400000 3182068624 3182068624 0.33300000
40.34182739 15.46154690 -0.25109792 16 10 6763 43.20400000 3182068626 3182068626 -0.33300000
15.78143215 6.95057249 -1.85749125 2 11 6763 17.34400000 3182068626 3182068626 -6.14800000
18.22143936 5.97681141 -1.79010272 24 12 6764 19.26000000 3182068628 3182068628 -5.33300000
40.37683105 17.77464294 1.02655590 15 13 6764 44.12800000 3182068628 3182068628 1.33300000
40.29522705 13.20944214 0.49367505 21 14 6765 42.40800000 3182068631 3182068631 0.66700000
20.05127716 8.82277298 -1.53185213 6 15 6765 21.96000000 3182068631 3182068631 -4.00000000
19.03047371 7.28225803 -1.66341531 5 16 6766 20.44400000 3182068633 3182068633 -4.66700000
40.67021942 20.31288528 1.32303751 18 17 6766 45.48000000 3182068633 3182068633 1.66700000
40.36686707 15.44690704 0.75443262 30 18 6766 43.22800000 3182068635 3182068635 1.00000000
20.39848900 10.18809891 -1.46130180 5 19 6766 22.84800000 3182068635 3182068635 -3.66700000
20.63710976 6.75720930 -1.26463997 20 20 6767 21.75200000 3182068638 3182068638 -3.33300000
39.88640594 17.53382301 2.53741932 20 21 6767 43.64400000 3182068638 3182068638 3.33300000
40.58386230 15.51370430 1.77011538 9 22 6768 43.48400000 3182068640 3182068640 2.33300000
20.68668175 9.08943176 -1.05253398 24 23 6768 22.62000000 3182068640 3182068640 -2.66700000
20.66475868 7.89523697 -1.15934610 30 24 6769 22.15200000 3182068642 3182068642 -3.00000000
42.22134781 18.54266548 5.66204977 19 25 6769 46.46000000 3182068642 3182068642 7.00000000
42.37654495 16.18202782 3.70305991 31 26 6770 45.51200000 3182068645 3182068645 4.66700000
20.71665382 10.32894230 -0.94310629 25 27 6770 23.16800000 3182068645 3182068645 -2.33300000
20.69840050 6.76128197 -0.76039022 17 28 6771 21.78800000 3182068647 3182068647 -2.00000000
21.03784370 9.23058891 -0.53458697 6 31 6771 22.98000000 3182068649 3182068649 -1.33300000
5.47316885 2.07906199 -2.73011398 5 0 6780 6.46000000 3182068670 3182068670 -25.00000000
38.39868927 19.06127357 -0.74828941 9 1 6780 42.87600000 3182068670 3182068670 -1.00000000
20.74946022 7.87783670 -0.64592624 10 2 6781 22.20400000 3182068672 3182068672 -1.66700000
8.12611198 3.54852200 -2.48224998 3 3 6781 9.20800000 3182068672 3182068672 -15.63900000
10.77048779 4.08702278 -2.30398583 2 4 6782 11.74800000 3182068675 3182068675 -11.31000000
40.40675735 17.63648415 0.00000000 15 5 6782 44.08800000 3182068675 3182068675 0.00000000
40.33272171 13.08155251 -0.49362850 32 6 6783 42.40400000 3182068677 3182068677 -0.66700000
12.51645851 5.46050358 -2.12451339 2 7 6783 13.82000000 3182068677 3182068677 -8.84300000
14.81818390 5.62002325 -2.01726103 4 8 6783 15.97600000 3182068679 3182068679 -7.25400000
40.67877579 20.16657829 0.26388413 19 9 6783 45.40400000 3182068679 3182068679 0.33300000
40.35334396 15.29656887 -0.25081894 16 10 6784 43.15600000 3182068681 3182068681 -0.33300000
15.81044674 6.89427376 -1.85791957 2 11 6784 17.34800000 3182068681 3182068681 -6.14800000
18.23564529 5.90753174 -1.78935921 28 12 6785 19.25200000 3182068684 3182068684 -5.33300000
40.39405441 17.60576439 1.02534616 22 13 6785 44.07600000 3182068684 3182068684 1.33300000
40.30532074 13.04934406 0.49320942 21 14 6786 42.36800000 3182068686 3182068686 0.66700000
20.07982063 8.74762821 -1.53157318 6 15 6786 21.95600000 3182068686 3182068686 -4.00000000
19.05703545 7.21245909 -1.66341531 5 16 6787 20.44400000 3182068688 3182068688 -4.66700000
40.70497513 20.14417839 1.32175756 18 17 6787 45.43600000 3182068688 3182068688 1.66700000
40.39595413 15.28047562 0.75387412 30 18 6788 43.19600000 3182068691 3182068691 1.00000000
20.43030167 10.10615921 -1.46079016 5 19 6788 22.84000000 3182068691 3182068691 -3.66700000
20.63894081 6.67415285 -1.26324463 20 20 6788 21.72800000 3182068693 3182068693 -3.33300000
39.99800110 17.40822983 2.54044271 20 21 6788 43.69600000 3182068693 3182068693 3.33300000
40.61054230 15.35354614 1.76881278 18 22 6789 43.45200000 3182068695 3182068695 2.33300000
20.69054604 9.00079918 -1.05104506 24 23 6789 22.58800000 3182068695 3182068695 -2.66700000
20.66366386 7.80814791 -1.15767133 30 24 6790 22.12000000 3182068698 3182068698 -3.00000000
42.72229385 18.57618332 5.72005939 19 25 6790 46.93600000 3182068698 3182068698 7.00000000
42.59594345 16.08716965 3.71705461 31 26 6791 45.68400000 3182068700 3182068700 4.66700000
20.71137238 10.23169994 -0.94115233 25 27 6791 23.12000000 3182068700 3182068700 -2.33300000
20.70402145 6.67923641 -0.75969225 17 28 6792 21.76800000 3182068702 3182068702 -2.00000000
21.07153320 9.15341854 -0.53458697 4 31 6792 22.98000000 3182068705 3182068705 -1.33300000
5.48717976 2.06249523 -2.73349500 7 0 6800 6.46800000 3182068725 3182068725 -25.00000000
38.47575760 18.93241882 -0.74849880 9 1 6800 42.88800000 3182068725 3182068725 -1.00000000
20.76560402 7.80114126 -0.64557713 7 2 6801 22.19200000 3182068728 3182068728 -1.66700000
8.13844872 3.52013493 -2.48224998 3 3 6801 9.20800000 3182068728 3182068728 -15.63900000
10.78468800 4.04940176 -2.30398583 4 4 6802 11.74800000 3182068730 3182068730 -11.31000000
40.40198898 17.46675873 0.00000000 22 5 6802 44.01600000 3182068730 3182068730 0.00000000
40.35909653 12.93458176 -0.49339566 21 6 6803 42.38400000 3182068732 3182068732 -0.66700000
12.53544331 5.41677999 -2.12451339 2 7 6803 13.82000000 3182068732 3182068732 -8.84300000
14.83399582 5.56686974 -2.01675606 4 8 6803 15.97200000 3182068734 3182068734 -7.25400000
40.77405167 20.03680801 0.26404688 9 9 6803 45.43200000 3182068734 3182068734 0.33300000
40.36529541 15.14016438 -0.25056323 16 10 6804 43.11200000 3182068737 3182068737 -0.33300000
15.83076477 6.83746624 -1.85749125 2 11 6804 17.34400000 3182068737 3182068737 -6.14800000
18.25236320 5.84262705 -1.78898740 20 12 6805 19.24800000 3182068739 3182068739 -5.33300000
40.39284897 17.43771172 1.02376425 22 13 6805 44.00800000 3182068739 3182068739 1.33300000
40.28586197 12.88785458 0.49241781 20 14 6806 42.30000000 3182068741 3182068741 0.66700000
20.11023331 8.67748356 -1.53157318 6 15 6806 21.95600000 3182068741 3182068741 -4.00000000
19.08582878 7.14729166 -1.66374075 5 16 6807 20.44800000 3182068744 3182068744 -4.66700000
40.77145386 20.00020790 1.32164109 27 17 6807 45.43200000 3182068744 3182068744 1.66700000
40.42018509 15.13661575 0.75338548 30 18 6807 43.16800000 3182068746 3182068746 1.00000000
20.45653534 10.03483868 -1.46027851 8 19 6807 22.83200000 3182068746 3182068746 -3.66700000
20.63168144 6.59234571 -1.26138425 16 20 6808 21.69600000 3182068748 3182068748 -3.33300000
39.93384552 17.21475792 2.53253579 20 21 6808 43.56000000 3182068748 3182068748 3.33300000
40.56656265 15.17528725 1.76457918 9 22 6809 43.34800000 3182068751 3182068751 2.33300000
20.68514252 8.91271019 -1.04918373 24 23 6809 22.54800000 3182068751 3182068751 -2.66700000
20.66834450 7.72757721 -1.15641534 30 24 6810 22.09600000 3182068753 3182068753 -3.00000000
42.85251236 18.45520782 5.72883415 28 25 6810 47.00800000 3182068753 3182068753 7.00000000
42.85723495 16.01513863 3.73495483 31 26 6811 45.90400000 3182068755 3182068755 4.66700000
20.70747757 10.14000702 -0.93936121 27 27 6811 23.07600000 3182068755 3182068755 -2.33300000
20.70054817 6.59842682 -0.75871503 17 28 6812 21.74000000 3182068758 3182068758 -2.00000000
49.67431259 18.55270386 9.66798210 18 30 6812 53.90000000 3182068760 3182068760 10.33300000
21.06295013 9.06242466 -0.53356338 4 31 6812 22.93600000 3182068760 3182068760 -1.33300000
5.48790646 2.03984380 -2.73011398 8 0 6821 6.46000000 3182068781 3182068781 -25.00000000
38.54488754 18.79127121 -0.74849880 9 1 6821 42.88800000 3182068781 3182068781 -1.00000000
20.79780388 7.72637129 -0.64569348 7 2 6822 22.19600000 3182068783 3182068783 -1.66700000
8.14421368 3.48725009 -2.48009324 3 3 6822 9.20000000 3182068783 3182068783 -15.63900000
10.79945755 4.00984669 -2.30398583 4 4 6823 11.74800000 3182068786 3182068786 -11.31000000
40.41425323 17.29652786 0.00000000 22 5 6823 43.96000000 3182068786 3182068786 0.00000000
40.39637375 12.79120827 -0.49330255 21 6 6823 42.37600000 3182068788 3182068788 -0.66700000
12.56154251 5.37610006 -2.12574315 2 7 6823 13.82800000 3182068788 3182068788 -8.84300000
14.85429955 5.51246309 -2.01675606 4 8 6824 15.97200000 3182068790 3182068790 -7.25400000
40.81484985 19.87147141 0.26383764 9 9 6824 45.39600000 3182068790 3182068790 0.33300000
40.35301208 14.96707821 -0.25014478 16 10 6825 43.04000000 3182068793 3182068793 -0.33300000
15.85571957 6.77939749 -1.85749125 2 11 6825 17.34400000 3182068793 3182068793 -6.14800000
18.26605988 5.77328920 -1.78824389 14 12 6826 19.24000000 3182068795 3182068795 -5.33300000
40.34984970 17.24397469 1.02106571 14 13 6826 43.89200000 3182068795 3182068795 1.33300000
40.29087448 12.72686100 0.49190560 20 14 6827 42.25600000 3182068797 3182068797 0.66700000
20.13823318 8.60214996 -1.53129411 6 15 6827 21.95200000 3182068797 3182068797 -4.00000000
19.11563683 7.07867527 -1.66406620 5 16 6828 20.45200000 3182068799 3182068799 -4.66700000
40.52443314 19.69509125 1.31128490 18 17 6828 45.07600000 3182068799 3182068799 1.66700000
40.46414185 14.98420048 0.75317603 30 18 6828 43.15600000 3182068802 3182068802 1.00000000
20.50035858 9.96328354 -1.46079016 8 19 6828 22.84000000 3182068802 3182068802 -3.66700000
20.63666534 6.51067543 -1.26022136 16 20 6829 21.67600000 3182068804 3182068804 -3.33300000
39.98932648 17.06514359 2.53207064 20 21 6829 43.55200000 3182068804 3182068804 3.33300000
40.55443954 15.00154209 1.76164830 18 22 6830 43.27600000 3182068806 3182068806 2.33300000
20.67724228 8.81959152 -1.04713643 24 23 6830 22.50400000 3182068806 3182068806 -2.66700000
20.65906143 7.63792038 -1.15432191 30 24 6831 22.05600000 3182068809 3182068809 -3.00000000
43.15360260 18.39767075 5.76003265 29 25 6831 47.26400000 3182068809 3182068809 7.00000000
42.68753052 15.77365971 3.71510196 21 26 6832 45.66000000 3182068811 3182068811 4.66700000
20.70135307 10.04310894 -0.93740726 27 27 6832 23.02800000 3182068811 3182068811 -2.33300000
20.70171547 6.51531076 -0.75787747 17 28 6833 21.71600000 3182068813 3182068813 -2.00000000
49.37283707 18.23418236 9.59623432 17 30 6833 53.50000000 3182068816 3182068816 10.33300000
34.50638580 14.69687080 -0.87273997 4 31 6833 37.51600000 3182068816 3182068816 -1.33300000
5.50109148 2.02509785 -2.73349500 7 0 6839 6.46800000 3182068836 3182068836 -25.00000000
38.60373306 18.67008591 -0.74849880 9 1 6839 42.88800000 3182068836 3182068836 -1.00000000
20.84824181 7.67065954 -0.64650804 7 2 6840 22.22400000 3182068839 3182068839 -1.66700000
8.16576672 3.46616220 -2.48332834 3 3 6840 9.21200000 3182068839 3182068839 -15.63900000
10.80463886 3.97319221 -2.30241704 4 4 6841 11.74000000 3182068841 3182068841 -11.31000000
40.39842606 17.13979340 0.00000000 22 5 6841 43.88400000 3182068841 3182068841 0.00000000
40.36001968 12.64032841 -0.49237126 21 6 6841 42.29600000 3182068843 3182068843 -0.66700000
12.57109261 5.33352327 -2.12451339 2 7 6841 13.82000000 3182068843 3182068843 -8.84300000
14.87526894 5.46713877 -2.01726103 2 8 6842 15.97600000 3182068846 3182068846 -7.25400000
40.86626816 19.73793030 0.26376790 9 9 6842 45.38400000 3182068846 3182068846 0.33300000
40.34351349 14.81954384 -0.24979605 16 10 6843 42.98000000 3182068848 3182068848 -0.33300000
15.86961555 6.72644806 -1.85663438 2 11 6843 17.33600000 3182068848 3182068848 -6.14800000
18.28030586 5.71468782 -1.78787208 4 12 6844 19.23600000 3182068850 3182068850 -5.33300000
40.33754730 17.08904839 1.01939082 14 13 6844 43.82000000 3182068850 3182068850 1.33300000
40.28484344 12.58590794 0.49134684 20 14 6845 42.20800000 3182068852 3182068852 0.66700000
20.16883278 8.54039764 -1.53157318 6 15 6845 21.95600000 3182068852 3182068852 -4.00000000
19.13777924 7.01858664 -1.66406620 5 16 6846 20.45200000 3182068855 3182068855 -4.66700000
40.52127838 19.53642845 1.30919039 9 17 6846 45.00400000 3182068855 3182068855 1.66700000
40.35706711 14.80054569 0.75031388 30 18 6846 42.99200000 3182068857 3182068857 1.00000000
20.52076912 9.89363003 -1.46002269 8 19 6846 22.82800000 3182068857 3182068857 -3.66700000
20.63795662 6.43986416 -1.25905859 16 20 6847 21.65600000 3182068859 3182068859 -3.33300000
39.92505264 16.88964272 2.52462888 20 21 6847 43.42400000 3182068859 3182068859 3.33300000
40.58260345 14.86718941 1.76083410 18 22 6848 43.25600000 3182068862 3182068862 2.33300000
20.67540550 8.74213982 -1.04564738 24 23 6848 22.47200000 3182068862 3182068862 -2.66700000
20.65294838 7.56199312 -1.15264714 30 24 6849 22.02400000 3182068864 3182068864 -3.00000000
43.43060684 18.35474014 5.78928137 29 25 6849 47.50400000 3182068864 3182068864 7.00000000
41.98809052 15.36545849 3.65001035 30 26 6850 44.86000000 3182068866 3182068866 4.66700000
20.70399094 9.96415806 -0.93610460 27 27 6850 22.99600000 3182068866 3182068866 -2.33300000
20.70681381 6.44548988 -0.75731909 17 28 6851 21.70000000 3182068869 3182068869 -2.00000000
49.42987442 18.07898331 9.59623432 17 30 6851 53.50000000 3182068871 3182068871 10.33300000
34.66659164 14.63661194 -0.87562460 9 31 6851 37.64000000 3182068871 3182068871 -1.33300000
