# .PCD v0.7 - Point Cloud Data file format
VERSION 0.7
FIELDS x y z intensity laser_id azimuth distance_m adjustedtime timestamp vertical_angle
SIZE 4 4 4 1 1 2 8 8 4 8
TYPE F F F U U U F U U F
COUNT 1 1 1 1 1 1 1 1 1 1
WIDTH 522
HEIGHT 1
VIEWPOINT 0 0 0 1 0 0 0
POINTS 522
DATA ascii
156.32946777 -11.37039661 9.12829113 42 21 9556 157.00800000 3180476334 3180476334 3.33300000
39.69528580 -4.85287189 1.62926817 25 22 9557 40.02400000 3180476336 3180476336 2.33300000
20.50653076 -2.51061964 -1.08272624 31 24 9558 20.68800000 3180476339 3180476339 -3.00000000
85.76631165 -10.51558495 7.05397415 28 26 9559 86.69600000 3180476341 3180476341 4.66700000
7.25584316 -0.17606185 -0.29569769 7 27 9559 7.26400000 3180476341 3180476341 -2.33300000
38.53749084 -6.65658045 -1.36568713 14 28 9560 39.13200000 3180476343 3180476343 -2.00000000
93.25868225 -11.45072651 17.13116074 28 30 9560 95.50800000 3180476346 3180476346 10.33300000
8.06808472 -0.59248310 -0.18824533 0 31 9560 8.09200000 3180476346 3180476346 -1.33300000
5.88218498 -0.72953743 -2.76392341 8 0 9567 6.54000000 3180476366 3180476366 -25.00000000
8.06011868 -0.20683852 -0.14073621 0 1 9567 8.06400000 3180476366 3180476366 -1.00000000
39.62662125 -4.92171001 -1.16210866 25 2 9568 39.94800000 3180476369 3180476369 -1.66700000
7.68235016 -0.57494205 -2.15660286 2 3 9568 8.00000000 3180476369 3180476369 -15.63900000
7.58615065 -0.94356048 -1.52893043 63 4 9569 7.79600000 3180476371 3180476371 -11.31000000
40.16714478 -3.01313257 0.00000000 13 5 9569 40.28000000 3180476371 3180476371 0.00000000
39.81542206 -6.94890356 -0.47053260 29 6 9570 40.42000000 3180476373 3180476373 -0.66700000
7.60282087 -0.57165897 -1.18616104 108 7 9570 7.71600000 3180476373 3180476373 -8.84300000
7.67823792 -0.95637506 -0.98489213 74 8 9570 7.80000000 3180476375 3180476375 -7.25400000
7.60126591 -0.19904615 0.04419379 104 9 9570 7.60400000 3180476375 3180476375 0.33300000
39.79891205 -4.96427059 -0.23310423 22 10 9571 40.10800000 3180476378 3180476378 -0.33300000
7.66579008 -0.57773918 -0.82807440 42 11 9571 7.73200000 3180476378 3180476378 -6.14800000
8.06990147 -1.41132617 -0.76474380 8 12 9572 8.22800000 3180476380 3180476380 -5.33300000
39.91942596 -3.01557040 0.93154919 18 13 9572 40.04400000 3180476380 3180476380 1.33300000
39.61084747 -6.93457317 0.46815780 25 14 9573 40.21600000 3180476382 3180476382 0.66700000
7.64340353 -0.57873523 -0.53600872 75 15 9573 7.68400000 3180476382 3180476382 -4.00000000
7.98680496 -1.00047195 -0.65709949 8 16 9574 8.07600000 3180476385 3180476385 -4.66700000
7.72593594 -0.20770827 0.22492801 105 17 9574 7.73200000 3180476385 3180476385 1.66700000
39.60043716 -4.96057272 0.69663024 25 18 9574 39.91600000 3180476387 3180476387 1.00000000
7.24251890 -0.19471183 -0.46433175 6 19 9574 7.26000000 3180476387 3180476387 -3.66700000
20.49182320 -3.59482574 -1.21161723 19 20 9575 20.84000000 3180476389 3180476389 -3.33300000
40.33493423 -3.06819892 2.35579324 5 21 9575 40.52000000 3180476389 3180476389 3.33300000
39.73449326 -4.99145365 1.63154781 25 22 9576 40.08000000 3180476392 3180476392 2.33300000
20.50998306 -2.58010364 -1.08335423 35 24 9577 20.70000000 3180476394 3180476394 -3.00000000
85.68746185 -10.79445648 7.05039454 28 26 9578 86.65200000 3180476396 3180476396 4.66700000
7.23923874 -0.19968133 -0.29504636 11 27 9578 7.24800000 3180476396 3180476396 -2.33300000
38.56245041 -6.79266071 -1.36736226 22 28 9579 39.18000000 3180476399 3180476399 -2.00000000
93.28656769 -11.76829338 17.14335823 28 30 9579 95.57600000 3180476401 3180476401 10.33300000
8.25746059 -0.63392723 -0.19271186 0 31 9579 8.28400000 3180476401 3180476401 -1.33300000
5.88679504 -0.75098312 -2.76730442 8 0 9587 6.54800000 3180476422 3180476422 -25.00000000
39.62109756 -5.06152296 -1.16245770 25 2 9588 39.96000000 3180476424 3180476424 -1.66700000
7.64957523 -0.59934795 -2.14797640 4 3 9588 7.96800000 3180476424 3180476424 -15.63900000
7.58670139 -0.97053301 -1.52971482 58 4 9589 7.80000000 3180476427 3180476427 -11.31000000
40.18030930 -3.15520263 0.00000000 19 5 9589 40.30400000 3180476427 3180476427 0.00000000
39.80791092 -7.08370066 -0.47071883 19 6 9589 40.43600000 3180476429 3180476429 -0.66700000
7.60088348 -0.59686768 -1.18616104 107 7 9589 7.71600000 3180476429 3180476429 -8.84300000
7.68272400 -0.98417968 -0.98590231 74 8 9590 7.80800000 3180476431 3180476431 -7.25400000
7.59652662 -0.22545965 0.04417054 105 9 9590 7.60000000 3180476431 3180476431 0.33300000
39.74166489 -5.09807491 -0.23287176 22 10 9591 40.06800000 3180476434 3180476434 -0.33300000
7.62407970 -0.60136700 -0.82379049 71 11 9591 7.69200000 3180476434 3180476434 -6.14800000
8.10413265 -1.44648480 -0.76846159 6 12 9592 8.26800000 3180476436 3180476436 -5.33300000
40.10000610 -3.17002368 0.93601573 12 13 9592 40.23600000 3180476436 3180476436 1.33300000
39.69664764 -7.09249640 0.46946159 26 14 9593 40.32800000 3180476438 3180476438 0.66700000
7.65724802 -0.60667282 -0.53712487 45 15 9593 7.70000000 3180476438 3180476438 -4.00000000
8.03071308 -1.03445709 -0.66100496 7 16 9594 8.12400000 3180476440 3180476440 -4.66700000
7.74514627 -0.23528259 0.22550982 102 17 9594 7.75200000 3180476440 3180476440 1.66700000
39.70980835 -5.11512423 0.69886416 25 18 9594 40.04400000 3180476443 3180476443 1.00000000
7.23381519 -0.21974933 -0.46382007 5 19 9594 7.25200000 3180476443 3180476443 -3.66700000
20.49880409 -3.66985202 -1.21278000 19 20 9595 20.86000000 3180476445 3180476445 -3.33300000
155.92999268 -12.40888309 9.10968685 42 21 9595 156.68800000 3180476445 3180476445 3.33300000
39.78421021 -5.13882637 1.63431585 25 22 9596 40.14800000 3180476447 3180476447 2.33300000
20.50481415 -2.65219355 -1.08356369 35 24 9597 20.70400000 3180476450 3180476450 -3.00000000
85.82321930 -11.11602879 7.06471443 28 26 9598 86.82800000 3180476452 3180476452 4.66700000
7.23849773 -0.22494978 -0.29504636 7 27 9598 7.24800000 3180476452 3180476452 -2.33300000
38.55817413 -6.93076372 -1.36806023 14 28 9599 39.20000000 3180476454 3180476454 -2.00000000
93.78736115 -12.16420650 17.24308777 28 30 9599 96.13200000 3180476457 3180476457 10.33300000
8.46646023 -0.67970800 -0.19764364 0 31 9599 8.49600000 3180476457 3180476457 -1.33300000
5.88759708 -0.77302623 -2.76899481 7 0 9608 6.55200000 3180476477 3180476477 -25.00000000
7.67469692 -0.25191402 -0.13403448 36 1 9608 7.68000000 3180476477 3180476477 -1.00000000
39.57849503 -5.20358038 -1.16175961 25 2 9609 39.93600000 3180476480 3180476480 -1.66700000
7.63964939 -0.62675112 -2.14581990 5 3 9609 7.96000000 3180476480 3180476480 -15.63900000
7.59475946 -0.99986905 -1.53206825 41 4 9610 7.81200000 3180476482 3180476482 -11.31000000
40.18840408 -3.30408835 0.00000000 13 5 9610 40.32400000 3180476482 3180476482 0.00000000
39.84857941 -7.24171400 -0.47151044 29 6 9610 40.50400000 3180476484 3180476484 -0.66700000
7.59470558 -0.62439847 -1.18554604 108 7 9610 7.71200000 3180476484 3180476484 -8.84300000
7.68299913 -1.01285028 -0.98640734 74 8 9611 7.81200000 3180476487 3180476487 -7.25400000
7.60764217 -0.25370073 0.04424029 104 9 9611 7.61200000 3180476487 3180476487 0.33300000
39.70288467 -5.24108410 -0.23275551 22 10 9612 40.04800000 3180476489 3180476489 -0.33300000
7.62975121 -0.62996113 -0.82464725 101 11 9612 7.70000000 3180476489 3180476489 -6.14800000
8.17322159 -1.48974729 -0.77552533 4 12 9613 8.34400000 3180476491 3180476491 -5.33300000
39.89682388 -3.30114818 0.93154919 18 13 9613 40.04400000 3180476491 3180476491 1.33300000
39.57988358 -7.22143221 0.46839061 25 14 9614 40.23600000 3180476493 3180476493 0.66700000
8.05848503 -1.06807470 -0.66360867 4 16 9615 8.15600000 3180476496 3180476496 -4.66700000
7.76820803 -0.26448470 0.22620799 71 17 9615 7.77600000 3180476496 3180476496 1.66700000
39.52824402 -5.23908854 0.69600195 25 18 9615 39.88000000 3180476498 3180476498 1.00000000
7.24891949 -0.24680445 -0.46484339 2 19 9615 7.26800000 3180476498 3180476498 -3.66700000
20.49307060 -3.74639559 -1.21324503 19 20 9616 20.86800000 3180476500 3180476500 -3.33300000
40.39949417 -3.36403871 2.36090946 17 21 9616 40.60800000 3180476500 3180476500 3.33300000
39.67398453 -5.27249813 1.63057077 25 22 9617 40.05600000 3180476503 3180476503 2.33300000
7.99551153 -0.66718608 -0.37373799 0 23 9617 8.03200000 3180476503 3180476503 -2.66700000
20.51079369 -2.72943735 -1.08440101 31 24 9618 20.72000000 3180476505 3180476505 -3.00000000
90.14603424 -7.53808641 11.10717201 28 25 9618 91.14000000 3180476505 3180476505 7.00000000
86.18894196 -11.48474979 7.09823656 28 26 9619 87.24000000 3180476507 3180476507 4.66700000
7.22564173 -0.25106233 -0.29455787 2 27 9619 7.23600000 3180476507 3180476507 -2.33300000
38.58756256 -7.08214283 -1.37001467 22 28 9620 39.25600000 3180476510 3180476510 -2.00000000
93.57442474 -12.48549366 17.21223640 28 30 9620 95.96000000 3180476512 3180476512 10.33300000
5.88140869 -0.79206210 -2.76730442 7 0 9627 6.54800000 3180476533 3180476533 -25.00000000
7.62186146 -0.27548489 -0.13312696 78 1 9627 7.62800000 3180476533 3180476533 -1.00000000
39.57686996 -5.33693600 -1.16222501 25 2 9628 39.95200000 3180476535 3180476535 -1.66700000
7.63752890 -0.65208167 -2.14581990 3 3 9628 7.96000000 3180476535 3180476535 -15.63900000
7.59917641 -1.02609837 -1.53363717 32 4 9629 7.82000000 3180476537 3180476537 -11.31000000
40.13737488 -3.43393016 0.00000000 13 5 9629 40.28400000 3180476537 3180476537 0.00000000
39.85187531 -7.37891436 -0.47183639 29 6 9629 40.53200000 3180476540 3180476540 -0.66700000
7.60046911 -0.65025383 -1.18677592 107 7 9629 7.72000000 3180476540 3180476540 -8.84300000
7.69532728 -1.04044902 -0.98842764 73 8 9630 7.82800000 3180476542 3180476542 -7.25400000
7.61875105 -0.27936691 0.04431003 103 9 9630 7.62400000 3180476542 3180476542 0.33300000
39.65357590 -5.36842155 -0.23256955 15 10 9631 40.01600000 3180476544 3180476544 -0.33300000
7.63554525 -0.65593958 -0.82550406 75 11 9631 7.70800000 3180476544 3180476544 -6.14800000
8.22305679 -1.52702272 -0.78073019 5 12 9632 8.40000000 3180476546 3180476546 -5.33300000
39.86175156 -3.43137479 0.93099087 12 13 9632 40.02000000 3180476546 3180476546 1.33300000
39.65402985 -7.37091780 0.46955472 26 14 9633 40.33600000 3180476549 3180476549 0.66700000
8.09045219 -1.09962404 -0.66653776 4 16 9634 8.19200000 3180476551 3180476551 -4.66700000
7.80324793 -0.29158726 0.22725525 56 17 9634 7.81200000 3180476551 3180476551 1.66700000
39.21646118 -5.33712626 0.69083607 24 18 9635 39.58400000 3180476553 3180476553 1.00000000
7.24402475 -0.27195662 -0.46458757 1 19 9635 7.26400000 3180476553 3180476553 -3.66700000
20.48838615 -3.81579471 -1.21371019 19 20 9635 20.87600000 3180476556 3180476556 -3.33300000
40.05393600 -3.46904659 2.34137464 16 21 9635 40.27200000 3180476556 3180476556 3.33300000
39.61668396 -5.39863634 1.62894249 25 22 9636 40.01600000 3180476558 3180476558 2.33300000
8.06490803 -0.69991487 -0.37708822 0 23 9636 8.10400000 3180476558 3180476558 -2.66700000
20.51746178 -2.79959893 -1.08523834 35 24 9637 20.73600000 3180476560 3180476560 -3.00000000
88.22201538 -7.67188215 10.87318325 28 25 9637 89.22000000 3180476560 3180476560 7.00000000
86.35973358 -11.79910278 7.11548567 28 26 9638 87.45200000 3180476563 3180476563 4.66700000
7.24873209 -0.27593422 -0.29553485 1 27 9638 7.26000000 3180476563 3180476563 -2.33300000
38.65031052 -7.22622728 -1.37308586 22 28 9639 39.34400000 3180476565 3180476565 -2.00000000
93.52081299 -12.79412937 17.21008301 28 30 9639 95.94800000 3180476567 3180476567 10.33300000
40.12444305 -3.50337744 -0.93722540 15 31 9639 40.28800000 3180476567 3180476567 -1.33300000
5.88579035 -0.81357998 -2.77068543 7 0 9647 6.55600000 3180476588 3180476588 -25.00000000
7.61685705 -0.30193004 -0.13305715 102 1 9647 7.62400000 3180476588 3180476588 -1.00000000
39.64117050 -5.48656416 -1.16466868 25 2 9648 40.03600000 3180476590 3180476590 -1.66700000
7.62369585 -0.67771441 -2.14258504 5 3 9648 7.94800000 3180476590 3180476590 -15.63900000
7.59166288 -1.05207980 -1.53285277 25 4 9649 7.81600000 3180476592 3180476592 -11.31000000
40.16099930 -3.57720876 0.00000000 19 5 9649 40.32000000 3180476592 3180476592 0.00000000
39.77347183 -7.51527548 -0.47123104 29 6 9650 40.48000000 3180476595 3180476595 -0.66700000
7.59803486 -0.67810655 -1.18677592 108 7 9650 7.72000000 3180476595 3180476595 -8.84300000
7.69557858 -1.06784976 -0.98893273 73 8 9650 7.83200000 3180476597 3180476597 -7.25400000
7.62572289 -0.30628067 0.04435652 102 9 9650 7.63200000 3180476597 3180476597 0.33300000
39.62271118 -5.50515413 -0.23249979 22 10 9651 40.00400000 3180476599 3180476599 -0.33300000
7.63717031 -0.68294287 -0.82593244 75 11 9651 7.71200000 3180476599 3180476599 -6.14800000
8.25680828 -1.56312537 -0.78444791 5 12 9652 8.44000000 3180476602 3180476602 -5.33300000
40.08452606 -3.59155273 0.93648100 18 13 9652 40.25600000 3180476602 3180476602 1.33300000
39.58483124 -7.50110006 0.46904251 17 14 9653 40.29200000 3180476604 3180476604 0.66700000
7.90482855 -0.70965928 -0.55498248 0 15 9653 7.95600000 3180476604 3180476604 -4.00000000
8.12210083 -1.13281476 -0.66946691 6 16 9654 8.22800000 3180476606 3180476606 -4.66700000
7.84612703 -0.32061964 0.22853523 35 17 9654 7.85600000 3180476606 3180476606 1.66700000
39.39263916 -5.49421406 0.69425672 25 18 9654 39.78000000 3180476609 3180476609 1.00000000
7.28296804 -0.29760703 -0.46714586 1 19 9654 7.30400000 3180476609 3180476609 -3.66700000
20.48278809 -3.88877892 -1.21417534 19 20 9655 20.88400000 3180476611 3180476611 -3.33300000
40.11317062 -3.61529183 2.34556055 11 21 9655 40.34400000 3180476611 3180476611 3.33300000
39.43531036 -5.51419926 1.62226653 25 22 9656 39.85200000 3180476613 3180476613 2.33300000
8.19771767 -0.74028063 -0.38341647 0 23 9656 8.24000000 3180476613 3180476613 -2.66700000
20.51547623 -2.87230873 -1.08565712 31 24 9657 20.74400000 3180476616 3180476616 -3.00000000
86.69612122 -7.84419727 10.68842888 28 25 9657 87.70400000 3180476616 3180476616 7.00000000
85.71000671 -12.01524830 7.06536531 28 26 9658 86.83600000 3180476618 3180476618 4.66700000
7.28366423 -0.30272907 -0.29700032 1 27 9658 7.29600000 3180476618 3180476618 -2.33300000
38.68375397 -7.37232399 -1.37517977 22 28 9659 39.40400000 3180476620 3180476620 -2.00000000
93.65644073 -13.16255474 17.24380493 28 30 9660 96.13600000 3180476622 3180476622 10.33300000
40.13522720 -3.65259194 -0.93778372 36 31 9660 40.31200000 3180476622 3180476622 -1.33300000
5.87573576 -0.83310241 -2.76730442 8 0 9667 6.54800000 3180476643 3180476643 -25.00000000
7.62374783 -0.32886073 -0.13319677 101 1 9667 7.63200000 3180476643 3180476643 -1.00000000
39.68907547 -5.63445759 -1.16664672 25 2 9668 40.10400000 3180476645 3180476645 -1.66700000
7.62895489 -0.70503092 -2.14474154 6 3 9668 7.95600000 3180476645 3180476645 -15.63900000
7.59571075 -1.07967722 -1.53442168 18 4 9669 7.82400000 3180476648 3180476648 -11.31000000
40.08852386 -3.71184325 0.00000000 19 5 9669 40.26000000 3180476648 3180476648 0.00000000
39.85696793 -7.67524195 -0.47253484 19 6 9670 40.59200000 3180476650 3180476650 -0.66700000
7.59562159 -0.70462453 -1.18677592 107 7 9670 7.72000000 3180476650 3180476650 -8.84300000
7.71144629 -1.09750140 -0.99145812 73 8 9670 7.85200000 3180476652 3180476652 -7.25400000
7.67256069 -0.33499125 0.04463550 60 9 9670 7.68000000 3180476652 3180476652 0.33300000
39.60325241 -5.64342976 -0.23249979 22 10 9671 40.00400000 3180476655 3180476655 -0.33300000
7.63869953 -0.70996547 -0.82636082 75 11 9671 7.71600000 3180476655 3180476655 -6.14800000
8.30213928 -1.60174561 -0.78928101 4 12 9672 8.49200000 3180476657 3180476657 -5.33300000
40.12350845 -3.73627210 0.93769068 12 13 9672 40.30800000 3180476657 3180476657 1.33300000
39.62516785 -7.65212345 0.46983412 17 14 9673 40.36000000 3180476659 3180476659 0.66700000
8.04135799 -0.75022113 -0.56474841 1 15 9673 8.09600000 3180476659 3180476659 -4.00000000
8.15756321 -1.16680419 -0.67272145 5 16 9674 8.26800000 3180476662 3180476662 -4.66700000
7.94082546 -0.35225838 0.23132792 29 17 9674 7.95200000 3180476662 3180476662 1.66700000
39.63452148 -5.66906118 0.69886416 25 18 9674 40.04400000 3180476664 3180476664 1.00000000
7.35366678 -0.32621178 -0.47175083 1 19 9674 7.37600000 3180476664 3180476664 -3.66700000
20.48085022 -3.96252918 -1.21487296 16 20 9675 20.89600000 3180476666 3180476666 -3.33300000
87.58374023 -8.20199299 5.12297821 36 21 9675 88.11600000 3180476666 3180476666 3.33300000
39.40790939 -5.65068626 1.62194085 25 22 9676 39.84400000 3180476669 3180476669 2.33300000
8.46560097 -0.79427236 -0.39607292 1 23 9676 8.51200000 3180476669 3180476669 -2.66700000
20.50532341 -2.94390368 -1.08565712 35 24 9677 20.74400000 3180476671 3180476671 -3.00000000
86.61287689 -8.14157391 10.68160439 28 25 9677 87.64800000 3180476671 3180476671 7.00000000
85.65965271 -12.31322384 7.06471443 28 26 9678 86.82800000 3180476673 3180476673 4.66700000
7.31849670 -0.32977113 -0.29846579 1 27 9678 7.33200000 3180476673 3180476673 -2.33300000
38.71272659 -7.51797962 -1.37713408 15 28 9679 39.46000000 3180476675 3180476675 -2.00000000
95.31828308 -13.71859360 17.55805969 28 30 9679 97.88800000 3180476678 3180476678 10.33300000
40.12687683 -3.78604054 -0.93787676 21 31 9679 40.31600000 3180476678 3180476678 -1.33300000
5.88355446 -0.85517186 -2.77237582 8 0 9687 6.56000000 3180476698 3180476698 -25.00000000
7.63453865 -0.35602948 -0.13340619 101 1 9687 7.64400000 3180476698 3180476698 -1.00000000
39.67707825 -5.77411556 -1.16687953 25 2 9688 40.11200000 3180476701 3180476701 -1.66700000
7.63411570 -0.73239231 -2.14689827 6 3 9688 7.96400000 3180476701 3180476701 -15.63900000
7.59189558 -1.10618460 -1.53442168 16 4 9689 7.82400000 3180476703 3180476703 -11.31000000
40.17884827 -3.86170554 0.00000000 19 5 9689 40.36400000 3180476703 3180476703 0.00000000
39.86269760 -7.81352520 -0.47290736 19 6 9689 40.62400000 3180476705 3180476705 -0.66700000
7.59717751 -0.73018676 -1.18739080 108 7 9689 7.72400000 3180476705 3180476705 -8.84300000
7.71149492 -1.12498546 -0.99196315 73 8 9690 7.85600000 3180476708 3180476708 -7.25400000
39.70204926 -5.79897976 -0.23319723 15 10 9691 40.12400000 3180476710 3180476710 -0.33300000
7.64409208 -0.73738891 -0.82721758 101 11 9691 7.72400000 3180476710 3180476710 -6.14800000
8.35511589 -1.64223754 -0.79485768 5 12 9692 8.55200000 3180476712 3180476712 -5.33300000
40.11420059 -3.87669110 0.93778372 18 13 9692 40.31200000 3180476712 3180476712 1.33300000
39.56289291 -7.78344584 0.46941504 17 14 9693 40.32400000 3180476715 3180476715 0.66700000
8.17769909 -0.79174465 -0.57451433 0 15 9693 8.23600000 3180476715 3180476715 -4.00000000
8.20077515 -1.20221138 -0.67662698 4 16 9694 8.31600000 3180476717 3180476717 -4.66700000
7.99146605 -0.38245964 0.23284063 15 17 9694 8.00400000 3180476717 3180476717 1.66700000
39.61844635 -5.80795717 0.69893396 25 18 9694 40.04800000 3180476719 3180476719 1.00000000
20.47864723 -4.03631306 -1.21557069 19 20 9695 20.90800000 3180476722 3180476722 -3.33300000
39.38794708 -5.78821087 1.62194085 25 22 9696 39.84400000 3180476724 3180476724 2.33300000
20.51073074 -3.01778841 -1.08649445 35 24 9697 20.76000000 3180476726 3180476726 -3.00000000
87.10156250 -8.49434090 10.74546337 28 25 9697 88.17200000 3180476726 3180476726 7.00000000
85.97112274 -12.66444874 7.09400558 28 26 9698 87.18800000 3180476728 3180476728 4.66700000
7.49694014 -0.36403841 -0.30579308 2 27 9698 7.51200000 3180476728 3180476728 -2.33300000
38.72546387 -7.66082430 -1.37853014 15 28 9699 39.50000000 3180476731 3180476731 -2.00000000
95.11164856 -14.04486561 17.52935982 28 30 9700 97.72800000 3180476733 3180476733 10.33300000
40.14854813 -3.93659949 -0.93871421 15 31 9700 40.35200000 3180476733 3180476733 -1.33300000
5.88053370 -0.87570405 -2.77237582 7 0 9707 6.56000000 3180476754 3180476754 -25.00000000
7.64123821 -0.38307732 -0.13354582 81 1 9707 7.65200000 3180476754 3180476754 -1.00000000
39.67250061 -5.91493797 -1.16734493 25 2 9708 40.12800000 3180476756 3180476756 -1.66700000
7.64684486 -0.76056081 -2.15121150 5 3 9708 7.98000000 3180476756 3180476756 -15.63900000
7.59186745 -1.13325763 -1.53520620 19 4 9709 7.82800000 3180476758 3180476758 -11.31000000
40.17706299 -4.00312185 0.00000000 19 5 9709 40.37600000 3180476758 3180476758 0.00000000
39.79595566 -7.94479370 -0.47244173 19 6 9709 40.58400000 3180476761 3180476761 -0.66700000
7.60244846 -0.75748515 -1.18862069 108 7 9709 7.73200000 3180476761 3180476761 -8.84300000
7.71536970 -1.15306973 -0.99297333 73 8 9710 7.86400000 3180476763 3180476763 -7.25400000
39.77650833 -5.95173645 -0.23375517 22 10 9711 40.22000000 3180476765 3180476765 -0.33300000
7.64542866 -0.76446295 -0.82764602 101 11 9711 7.72800000 3180476765 3180476765 -6.14800000
8.42353153 -1.68624568 -0.80192143 4 12 9712 8.62800000 3180476768 3180476768 -5.33300000
40.13623428 -4.02027941 0.93862116 12 13 9712 40.34800000 3180476768 3180476768 1.33300000
39.62568665 -7.93957186 0.47048602 17 14 9713 40.41600000 3180476770 3180476770 0.66700000
8.27811432 -0.83064348 -0.58176899 0 15 9713 8.34000000 3180476770 3180476770 -4.00000000
8.23201180 -1.23615837 -0.67955607 4 16 9714 8.35200000 3180476772 3180476772 -4.66700000
39.41204453 -5.91830206 0.69565290 25 18 9714 39.86000000 3180476775 3180476775 1.00000000
20.47617912 -4.11012983 -1.21626830 19 20 9715 20.92000000 3180476777 3180476777 -3.33300000
40.06119156 -4.03394985 2.34486294 22 21 9715 40.33200000 3180476777 3180476777 3.33300000
39.42283249 -5.93399382 1.62422049 25 22 9716 39.90000000 3180476779 3180476779 2.33300000
20.53342247 -2.07122707 -0.96133304 25 23 9716 20.66000000 3180476779 3180476779 -2.66700000
20.50797081 -3.09055638 -1.08691311 35 24 9717 20.76800000 3180476781 3180476781 -3.00000000
85.89031219 -8.67898655 10.59970760 28 25 9717 86.97600000 3180476781 3180476781 7.00000000
85.81207275 -12.94721794 7.08456755 28 26 9718 87.07200000 3180476784 3180476784 4.66700000
38.70632172 -7.79753351 -1.37880933 22 28 9719 39.50800000 3180476786 3180476786 -2.00000000
97.22926331 -14.70454311 17.92899323 28 30 9720 99.95600000 3180476788 3180476788 10.33300000
40.16241074 -4.07954884 -0.93936563 15 31 9720 40.38000000 3180476788 3180476788 -1.33300000
5.87385702 -0.89567912 -2.77068543 8 0 9727 6.55600000 3180476809 3180476809 -25.00000000
7.64784193 -0.41017628 -0.13368544 78 1 9727 7.66000000 3180476809 3180476809 -1.00000000
39.68718338 -6.05881548 -1.16839218 17 2 9728 40.16400000 3180476811 3180476811 -1.66700000
7.65563822 -0.78843248 -2.15444636 5 3 9728 7.99200000 3180476811 3180476811 -15.63900000
7.58786535 -1.15975130 -1.53520620 37 4 9729 7.82800000 3180476814 3180476814 -11.31000000
40.12305450 -4.13923693 0.00000000 13 5 9729 40.33600000 3180476814 3180476814 0.00000000
39.88556671 -8.10756111 -0.47383866 19 6 9729 40.70400000 3180476816 3180476816 -0.66700000
7.61548424 -0.78564042 -1.19108033 107 7 9729 7.74800000 3180476816 3180476816 -8.84300000
7.71914244 -1.18119478 -0.99398345 73 8 9730 7.87200000 3180476818 3180476818 -7.25400000
39.74758148 -6.08933496 -0.23370868 15 10 9731 40.21200000 3180476821 3180476821 -0.33300000
7.66249323 -0.79319328 -0.82978791 102 11 9731 7.74800000 3180476821 3180476821 -6.14800000
8.47613049 -1.72756970 -0.80749804 4 12 9732 8.68800000 3180476823 3180476823 -5.33300000
40.09809113 -4.15788174 0.93806285 12 13 9732 40.32400000 3180476823 3180476823 1.33300000
39.43704987 -8.04506493 0.46857688 25 14 9733 40.25200000 3180476825 3180476825 0.66700000
8.26311111 -1.27033806 -0.68248522 4 16 9734 8.38800000 3180476828 3180476828 -4.66700000
8.49562359 -0.46605521 0.24761863 5 17 9734 8.51200000 3180476828 3180476828 1.66700000
39.33185196 -6.04672384 0.69460577 16 18 9734 39.80000000 3180476830 3180476830 1.00000000
7.63682604 -0.41894308 -0.49017057 101 19 9734 7.66400000 3180476830 3180476830 -3.66700000
20.46953201 -4.18317938 -1.21673346 19 20 9735 20.92800000 3180476832 3180476832 -3.33300000
40.07863998 -4.17707634 2.34672356 17 21 9735 40.36400000 3180476832 3180476832 3.33300000
39.36237717 -6.06548214 1.62259221 25 22 9736 39.86000000 3180476834 3180476834 2.33300000
20.53004265 -2.14330435 -0.96151912 18 23 9736 20.66400000 3180476834 3180476834 -2.66700000
20.50890160 -3.16395092 -1.08754122 35 24 9737 20.78000000 3180476837 3180476837 -3.00000000
86.15169525 -9.00930309 10.63578129 28 25 9737 87.27200000 3180476837 3180476837 7.00000000
86.03033447 -13.28745174 7.10637331 28 26 9738 87.34000000 3180476839 3180476839 4.66700000
7.61393166 -0.42301887 -0.31067798 72 27 9738 7.63200000 3180476839 3180476839 -2.33300000
38.71802902 -7.94062805 -1.38020527 15 28 9739 39.54800000 3180476841 3180476841 -2.00000000
92.21134186 -14.27506924 17.01277733 28 30 9740 94.84800000 3180476844 3180476844 10.33300000
40.13997269 -4.21888113 -0.93917948 31 31 9740 40.37200000 3180476844 3180476844 -1.33300000
5.87459660 -0.91468567 -2.77237582 6 0 9745 6.56000000 3180476864 3180476864 -25.00000000
7.66248703 -0.43510756 -0.13396467 16 1 9745 7.67600000 3180476864 3180476864 -1.00000000
39.68375397 -6.18592930 -1.16885769 25 2 9746 40.18000000 3180476867 3180476867 -1.66700000
7.67610598 -0.81491935 -2.16091609 20 3 9746 8.01600000 3180476867 3180476867 -15.63900000
7.58805990 -1.18418825 -1.53599060 60 4 9747 7.83200000 3180476869 3180476869 -11.31000000
40.11780930 -4.26611280 0.00000000 19 5 9747 40.34400000 3180476869 3180476869 0.00000000
39.77764130 -8.21583557 -0.47286081 29 6 9747 40.62000000 3180476871 3180476871 -0.66700000
7.61690903 -0.80997920 -1.19169521 107 7 9747 7.75200000 3180476871 3180476871 -8.84300000
7.72715473 -1.20727682 -0.99549866 73 8 9748 7.88400000 3180476874 3180476874 -7.25400000
8.07461452 -0.46275145 0.04700676 0 9 9748 8.08800000 3180476874 3180476874 0.33300000
39.80729294 -6.22653818 -0.23417363 22 10 9749 40.29200000 3180476876 3180476876 -0.33300000
7.77859974 -0.82991940 -0.84263957 72 11 9749 7.86800000 3180476876 3180476876 -6.14800000
8.56035995 -1.77276540 -0.81604892 4 12 9750 8.78000000 3180476878 3180476878 -5.33300000
39.74287415 -4.24728775 0.93006033 18 13 9750 39.98000000 3180476878 3180476878 1.33300000
39.57607269 -8.20301437 0.47053260 17 14 9751 40.42000000 3180476880 3180476880 0.66700000
8.56999207 -0.91738081 -0.60269594 2 15 9751 8.64000000 3180476880 3180476880 -4.00000000
8.29452610 -1.30185461 -0.68541431 4 16 9752 8.42400000 3180476883 3180476883 -4.66700000
39.52878189 -2.29305959 1.15233421 22 17 9752 39.61200000 3180476883 3180476883 1.66700000
39.53392029 -6.20498562 0.69851512 17 18 9752 40.02400000 3180476885 3180476885 1.00000000
7.59163618 -0.44038984 -0.48735645 105 19 9752 7.62000000 3180476885 3180476885 -3.66700000
20.46801949 -4.24990082 -1.21743107 19 20 9753 20.94000000 3180476887 3180476887 -3.33300000
40.10502243 -4.30723047 2.34904909 17 21 9753 40.40400000 3180476887 3180476887 3.33300000
39.35892105 -6.19159698 1.62324357 25 22 9754 39.87600000 3180476890 3180476890 2.33300000
20.51923370 -2.20736337 -0.96133304 20 23 9754 20.66000000 3180476890 3180476890 -2.66700000
20.50675201 -3.22960877 -1.08795989 35 24 9755 20.78800000 3180476892 3180476892 -3.00000000
86.02033234 -9.26885319 10.62310696 28 25 9755 87.16800000 3180476892 3180476892 7.00000000
86.13388062 -13.58063126 7.11841488 28 26 9756 87.48800000 3180476894 3180476894 4.66700000
7.62054491 -0.44740510 -0.31100363 104 27 9756 7.64000000 3180476894 3180476894 -2.33300000
38.75942230 -8.07608700 -1.38257849 15 28 9757 39.61600000 3180476897 3180476897 -2.00000000
92.32151031 -14.58925819 17.04147720 28 30 9758 95.00800000 3180476899 3180476899 10.33300000
40.07483673 -4.33936691 -0.93796980 36 31 9758 40.32000000 3180476899 3180476899 -1.33300000
5.87852812 -0.93632674 -2.77575684 8 0 9765 6.56800000 3180476920 3180476920 -25.00000000
39.72114563 -6.33385801 -1.17060304 17 2 9766 40.24000000 3180476922 3180476922 -1.66700000
7.65024090 -0.83918893 -2.15444636 13 3 9766 7.99200000 3180476922 3180476922 -15.63900000
7.57226038 -1.20881343 -1.53363717 67 4 9767 7.82000000 3180476924 3180476924 -11.31000000
40.10664749 -4.40656090 0.00000000 19 5 9767 40.34800000 3180476924 3180476924 0.00000000
39.71740723 -8.34805393 -0.47248828 29 6 9767 40.58800000 3180476927 3180476927 -0.66700000
7.59832001 -0.83483559 -1.18923557 108 7 9767 7.73600000 3180476927 3180476927 -8.84300000
7.74248505 -1.23737335 -0.99802405 73 8 9768 7.90400000 3180476929 3180476929 -7.25400000
8.28455544 -0.50380248 0.04823888 0 9 9768 8.30000000 3180476929 3180476929 0.33300000
39.79716492 -6.36734915 -0.23424336 15 10 9769 40.30400000 3180476931 3180476931 -0.33300000
8.63985634 -1.82070327 -0.82422799 4 12 9770 8.86800000 3180476933 3180476933 -5.33300000
39.96231461 -4.41188097 0.93555045 18 13 9770 40.21600000 3180476933 3180476933 1.33300000
39.58633423 -8.34936523 0.47099823 26 14 9771 40.46000000 3180476936 3180476936 0.66700000
8.86816025 -0.98062068 -0.62390190 3 15 9771 8.94400000 3180476936 3180476936 -4.00000000
8.34503937 -1.33964670 -0.68997073 4 16 9772 8.48000000 3180476938 3180476938 -4.66700000
39.83979797 -2.45066547 1.16164315 22 17 9772 39.93200000 3180476938 3180476938 1.66700000
39.48832703 -6.33914375 0.69809628 17 18 9772 40.00000000 3180476940 3180476940 1.00000000
7.59403706 -0.46713200 -0.48761228 105 19 9772 7.62400000 3180476940 3180476940 -3.66700000
20.46868706 -4.32462358 -1.21836138 19 20 9773 20.95600000 3180476943 3180476943 -3.33300000
40.24850082 -4.46480799 2.35835123 17 21 9773 40.56400000 3180476943 3180476943 3.33300000
39.08452606 -6.28831625 1.61282241 24 22 9774 39.62000000 3180476945 3180476945 2.33300000
20.51934624 -2.27985787 -0.96170527 20 23 9774 20.66800000 3180476945 3180476945 -2.66700000
20.49929810 -3.30180621 -1.08816922 35 24 9775 20.79200000 3180476947 3180476947 -3.00000000
89.36508179 -9.94494152 11.04038715 28 25 9775 90.59200000 3180476947 3180476947 7.00000000
86.01903534 -13.87042332 7.11288214 28 26 9776 87.42000000 3180476950 3180476950 4.66700000
7.62691450 -0.47449937 -0.31132928 104 27 9776 7.64800000 3180476950 3180476950 -2.33300000
38.80529785 -8.22708607 -1.38523078 15 28 9777 39.69200000 3180476952 3180476952 -2.00000000
93.92368317 -15.16185284 17.34640312 28 30 9777 96.70800000 3180476954 3180476954 10.33300000
40.11586380 -4.47844744 -0.93927252 21 31 9777 40.37600000 3180476954 3180476954 -1.33300000
5.88204527 -0.96005970 -2.77913761 8 0 9787 6.57600000 3180476975 3180476975 -25.00000000
39.75967026 -6.49664545 -1.17246485 17 2 9788 40.30400000 3180476977 3180476977 -1.66700000
7.63930750 -0.86768806 -2.15228963 12 3 9788 7.98400000 3180476977 3180476977 -15.63900000
7.57530499 -1.23914623 -1.53520620 67 4 9789 7.82800000 3180476980 3180476980 -11.31000000
39.99404907 -4.54967546 0.00000000 32 5 9789 40.25200000 3180476980 3180476980 0.00000000
39.80090332 -8.53257465 -0.47388521 19 6 9790 40.70800000 3180476982 3180476982 -0.66700000
7.59883451 -0.86577785 -1.18985045 107 7 9790 7.74000000 3180476982 3180476982 -8.84300000
7.74159241 -1.26773441 -0.99852914 73 8 9790 7.90800000 3180476984 3180476984 -7.25400000
39.70137405 -6.50846434 -0.23382491 15 10 9791 40.23200000 3180476986 3180476986 -0.33300000
8.76130009 -1.88145912 -0.83649659 4 12 9792 9.00000000 3180476989 3180476989 -5.33300000
39.55969620 -4.52124643 0.92652434 18 13 9792 39.82800000 3180476989 3180476989 1.33300000
39.42884827 -8.47440910 0.46950817 17 14 9793 40.33200000 3180476991 3180476991 0.66700000
8.88018703 -1.01647985 -0.62501800 1 15 9793 8.96000000 3180476991 3180476991 -4.00000000
8.38310719 -1.37879658 -0.69355077 4 16 9794 8.52400000 3180476993 3180476993 -4.66700000
40.00963593 -2.61535716 1.16687953 15 17 9794 40.11200000 3180476993 3180476993 1.66700000
39.52964783 -6.50865412 0.69928300 25 18 9795 40.06800000 3180476996 3180476996 1.00000000
7.60803366 -0.49865687 -0.48863560 104 19 9795 7.64000000 3180476996 3180476996 -3.66700000
20.47535324 -4.40822840 -1.21975660 19 20 9795 20.98000000 3180476998 3180476998 -3.33300000
40.04856873 -4.59836435 2.34765363 17 21 9795 40.38000000 3180476998 3180476998 3.33300000
39.07192612 -6.44029331 1.61331093 24 22 9796 39.63200000 3180477000 3180477000 2.33300000
20.51838112 -2.35954261 -0.96207750 22 23 9796 20.67600000 3180477000 3180477000 -2.66700000
20.50223351 -3.38309455 -1.08900654 31 24 9797 20.80800000 3180477003 3180477003 -3.00000000
87.16880798 -10.03952599 10.77373791 28 25 9797 88.40400000 3180477003 3180477003 7.00000000
86.01234436 -14.20840645 7.11678791 28 26 9798 87.46800000 3180477005 3180477005 4.66700000
7.63700056 -0.50457150 -0.31181777 103 27 9798 7.66000000 3180477005 3180477005 -2.33300000
38.80858612 -8.38362408 -1.38648725 22 28 9799 39.72800000 3180477007 3180477007 -2.00000000
94.06277466 -15.55512428 17.38299561 28 30 9799 96.91200000 3180477010 3180477010 10.33300000
40.09042740 -4.63153028 -0.93908644 15 31 9799 40.36800000 3180477010 3180477010 -1.33300000
5.86793041 -0.97879660 -2.77406621 7 0 9807 6.56400000 3180477030 3180477030 -25.00000000
7.90871763 -0.53500217 -0.13836268 0 1 9807 7.92800000 3180477030 3180477030 -1.00000000
39.72491837 -6.63341761 -1.17211580 25 2 9808 40.29200000 3180477033 3180477033 -1.66700000
7.60945225 -0.89121240 -2.14474154 15 3 9808 7.95600000 3180477033 3180477033 -15.63900000
7.57480192 -1.26622808 -1.53599060 68 4 9809 7.83200000 3180477035 3180477035 -11.31000000
39.94614029 -4.68552542 0.00000000 19 5 9809 40.22000000 3180477035 3180477035 0.00000000
39.78260040 -8.67400932 -0.47402489 19 6 9810 40.72000000 3180477037 3180477037 -0.66700000
7.59576607 -0.89229745 -1.18985045 108 7 9810 7.74000000 3180477037 3180477037 -8.84300000
7.74494696 -1.29605961 -0.99953926 72 8 9810 7.91600000 3180477039 3180477039 -7.25400000
40.17407227 -2.73879337 0.23403414 16 9 9810 40.26800000 3180477039 3180477039 0.33300000
39.74547577 -6.65824318 -0.23422012 15 10 9811 40.30000000 3180477042 3180477042 -0.33300000
8.92977333 -1.95027089 -0.85322654 5 12 9812 9.18000000 3180477044 3180477044 -5.33300000
39.60721588 -4.66679525 0.92801321 18 13 9812 39.89200000 3180477044 3180477044 1.33300000
39.35995483 -8.60344887 0.46904251 25 14 9813 40.29200000 3180477046 3180477046 0.66700000
8.84488297 -1.04373026 -0.62278581 0 15 9813 8.92800000 3180477046 3180477046 -4.00000000
8.42542267 -1.41597962 -0.69745624 3 16 9814 8.57200000 3180477049 3180477049 -4.66700000
39.97632980 -2.75335240 1.16618133 22 17 9814 40.08800000 3180477049 3180477049 1.66700000
39.51179123 -6.64036655 0.69935286 25 18 9814 40.07200000 3180477051 3180477051 1.00000000
7.61032057 -0.52415758 -0.48889142 105 19 9814 7.64400000 3180477051 3180477051 -3.66700000
20.45984077 -4.47967386 -1.21975660 19 20 9815 20.98000000 3180477053 3180477053 -3.33300000
40.44072723 -4.78647566 2.37160683 17 21 9815 40.79200000 3180477053 3180477053 3.33300000
39.32902908 -6.62376833 1.62487185 25 22 9816 39.91600000 3180477056 3180477056 2.33300000
20.51398659 -2.43162107 -0.96226364 21 23 9816 20.68000000 3180477056 3180477056 -2.66700000
20.50211716 -3.45663238 -1.08963466 35 24 9817 20.82000000 3180477058 3180477058 -3.00000000
87.10169983 -10.33999634 10.76983738 28 25 9817 88.37200000 3180477058 3180477058 7.00000000
86.55976105 -14.60940933 7.16625738 28 26 9818 88.07600000 3180477060 3180477060 4.66700000
7.67107630 -0.53372318 -0.31328323 24 27 9818 7.69600000 3180477060 3180477060 -2.33300000
38.85717773 -8.53619480 -1.38927913 22 28 9819 39.80800000 3180477063 3180477063 -2.00000000
96.37866211 -16.28392982 17.82137299 28 30 9819 99.35600000 3180477065 3180477065 10.33300000
40.01048279 -4.76387882 -0.93759757 21 31 9819 40.30400000 3180477065 3180477065 -1.33300000
5.87162542 -1.00049138 -2.77744722 6 0 9827 6.57200000 3180477085 3180477085 -25.00000000
8.24190331 -0.58644950 -0.14422669 0 1 9827 8.26400000 3180477085 3180477085 -1.00000000
39.68575668 -6.76935387 -1.17165029 25 2 9828 40.27600000 3180477087 3180477087 -1.66700000
7.61394310 -0.91869175 -2.14689827 27 3 9828 7.96400000 3180477087 3180477087 -15.63900000
7.58193493 -1.29464197 -1.53834403 70 4 9829 7.84400000 3180477090 3180477090 -11.31000000
39.82629395 -4.81245852 0.00000000 19 5 9829 40.11600000 3180477090 3180477090 0.00000000
39.78095245 -8.81194115 -0.47435087 29 6 9829 40.74800000 3180477092 3180477092 -0.66700000
7.59668922 -0.91795516 -1.19046533 108 7 9829 7.74400000 3180477092 3180477092 -8.84300000
7.75210953 -1.32509232 -1.00105453 71 8 9830 7.92800000 3180477094 3180477094 -7.25400000
40.18022537 -2.88015437 0.23412713 25 9 9830 40.28400000 3180477094 3180477094 0.33300000
39.69439316 -6.79221773 -0.23405738 15 10 9831 40.27200000 3180477097 3180477097 -0.33300000
7.70670462 -0.93397850 -0.83621377 1 11 9831 7.80800000 3180477097 3180477097 -6.14800000
20.37300873 -4.52404881 -1.94810772 4 12 9832 20.96000000 3180477099 3180477099 -5.33300000
39.51128769 -4.79538584 0.92615211 18 13 9832 39.81200000 3180477099 3180477099 1.33300000
39.60689926 -8.80239773 0.47234860 8 14 9833 40.57600000 3180477101 3180477101 0.66700000
8.47543812 -1.45482373 -0.70201266 3 16 9834 8.62800000 3180477103 3180477103 -4.66700000
40.00635147 -2.89576554 1.16734493 22 17 9834 40.12800000 3180477103 3180477103 1.66700000
39.63027191 -6.80260563 0.70186597 25 18 9834 40.21600000 3180477106 3180477106 1.00000000
7.61640739 -0.55129570 -0.48940310 103 19 9834 7.65200000 3180477106 3180477106 -3.66700000
20.46746635 -4.55627108 -1.22115195 19 20 9835 21.00400000 3180477108 3180477108 -3.33300000
40.00756454 -4.87687540 2.34718847 17 21 9835 40.37200000 3180477108 3180477108 3.33300000
39.30566788 -6.76101208 1.62487185 25 22 9836 39.91600000 3180477110 3180477110 2.33300000
20.52123833 -2.50515008 -0.96300811 20 23 9836 20.69600000 3180477110 3180477110 -2.66700000
20.49779892 -3.52953291 -1.09005332 31 24 9837 20.82800000 3180477113 3180477113 -3.00000000
88.11727905 -10.77261066 10.89999390 28 25 9837 89.44000000 3180477113 3180477113 7.00000000
86.89718628 -14.97851467 7.19847775 28 26 9838 88.47200000 3180477115 3180477115 4.66700000
38.94418716 -8.69792080 -1.39346707 15 28 9839 39.92800000 3180477117 3180477117 -2.00000000
97.86848450 -16.88723183 18.10764503 28 30 9839 100.95200000 3180477120 3180477120 10.33300000
39.88247299 -4.88988638 -0.93499213 15 31 9839 40.19200000 3180477120 3180477120 -1.33300000
5.86845350 -1.01893270 -2.77744722 7 0 9845 6.57200000 3180477140 3180477140 -25.00000000
8.28788090 -0.61589593 -0.14506440 0 1 9845 8.31200000 3180477140 3180477140 -1.00000000
39.69186783 -6.89878941 -1.17246485 25 2 9846 40.30400000 3180477143 3180477143 -1.66700000
7.59572840 -0.94071341 -2.14258504 9 3 9846 7.94800000 3180477143 3180477143 -15.63900000
7.57783031 -1.31845486 -1.53834403 68 4 9847 7.84400000 3180477145 3180477145 -11.31000000
39.88640213 -4.94690657 0.00000000 19 5 9847 40.19200000 3180477145 3180477145 0.00000000
39.81550980 -8.95090961 -0.47509590 30 6 9847 40.81200000 3180477147 3180477147 -0.66700000
7.59769011 -0.94230276 -1.19108033 107 7 9847 7.74800000 3180477147 3180477147 -8.84300000
7.77527237 -1.35420573 -1.00459003 66 8 9848 7.95600000 3180477150 3180477150 -7.25400000
40.17097855 -3.00636983 0.23412713 16 9 9848 40.28400000 3180477150 3180477150 0.33300000
39.74378967 -6.92925406 -0.23447585 22 10 9849 40.34400000 3180477152 3180477152 -0.33300000
7.71951866 -0.96014869 -0.83792728 2 11 9849 7.82400000 3180477152 3180477152 -6.14800000
20.36257935 -4.58890581 -1.94847941 18 12 9850 20.96400000 3180477154 3180477154 -5.33300000
39.34920120 -4.90120220 0.92270917 30 13 9850 39.66400000 3180477154 3180477154 1.33300000
39.55564117 -8.92150307 0.47206920 17 14 9851 40.55200000 3180477156 3180477156 0.66700000
8.32302189 -1.03816235 -0.58651245 4 15 9851 8.40800000 3180477156 3180477156 -4.00000000
8.53758717 -1.49311864 -0.70754546 3 16 9852 8.69600000 3180477159 3180477159 -4.66700000
40.00104523 -3.02173591 1.16746128 22 17 9852 40.13200000 3180477159 3180477159 1.66700000
39.21080780 -6.85748625 0.69481522 25 18 9852 39.81200000 3180477161 3180477161 1.00000000
7.62657928 -0.57612270 -0.49017057 102 19 9852 7.66400000 3180477161 3180477161 -3.66700000
20.47642326 -4.62582827 -1.22254729 19 20 9853 21.02800000 3180477163 3180477163 -3.33300000
39.77411652 -4.97527838 2.33439803 16 21 9853 40.15200000 3180477163 3180477163 3.33300000
39.22518539 -6.87411261 1.62242937 25 22 9854 39.85600000 3180477166 3180477166 2.33300000
20.51326752 -2.56960702 -0.96300811 20 23 9854 20.69600000 3180477166 3180477166 -2.66700000
20.49447823 -3.59529138 -1.09047198 35 24 9855 20.83600000 3180477168 3180477168 -3.00000000
87.61028290 -10.99008656 10.84149647 28 25 9855 88.96000000 3180477168 3180477168 7.00000000
87.23451233 -15.31901073 7.23037243 28 26 9856 88.86400000 3180477170 3180477170 4.66700000
38.99464035 -8.83789635 -1.39625907 23 28 9857 40.00800000 3180477173 3180477173 -2.00000000
95.24148560 -16.74222946 17.63124084 28 30 9857 98.29600000 3180477175 3180477175 10.33300000
39.87485123 -5.01615477 -0.93517822 15 31 9857 40.20000000 3180477175 3180477175 -1.33300000
5.86092854 -1.04082453 -2.77575684 6 0 9867 6.56800000 3180477196 3180477196 -25.00000000
8.63633060 -0.67514420 -0.15120766 1 1 9867 8.66400000 3180477196 3180477196 -1.00000000
39.69657898 -7.05674219 -1.17339575 25 2 9868 40.33600000 3180477198 3180477198 -1.66700000
7.59970236 -0.97084808 -2.14474154 14 3 9868 7.95600000 3180477198 3180477198 -15.63900000
7.57657337 -1.34822905 -1.53912854 70 4 9869 7.84800000 3180477200 3180477200 -11.31000000
39.81156540 -5.09291697 0.00000000 19 5 9869 40.13600000 3180477200 3180477200 0.00000000
39.76135254 -9.09926224 -0.47486305 30 6 9869 40.79200000 3180477203 3180477203 -0.66700000
7.59793663 -0.97197032 -1.19169521 107 7 9869 7.75200000 3180477203 3180477203 -8.84300000
7.77782822 -1.38544226 -1.00560009 63 8 9870 7.96400000 3180477205 3180477205 -7.25400000
40.16711426 -3.16122055 0.23417363 16 9 9870 40.29200000 3180477205 3180477205 0.33300000
39.73264313 -7.08461618 -0.23456883 15 10 9871 40.36000000 3180477207 3180477207 -0.33300000
7.74338770 -0.99332452 -0.84092605 1 11 9871 7.85200000 3180477207 3180477207 -6.14800000
20.37974739 -4.67507267 -1.95182538 9 12 9872 21.00000000 3180477209 3180477209 -5.33300000
39.51651001 -5.07620239 0.92708266 18 13 9872 39.85200000 3180477209 3180477209 1.33300000
39.58736420 -9.08853436 0.47286081 18 14 9873 40.62000000 3180477212 3180477212 0.66700000
8.39416885 -1.07978547 -0.59181392 5 15 9873 8.48400000 3180477212 3180477212 -4.00000000
8.59458256 -1.53711963 -0.71275276 2 16 9874 8.76000000 3180477214 3180477214 -4.66700000
39.94530487 -3.17182493 1.16618133 22 17 9874 40.08800000 3180477214 3180477214 1.66700000
39.19871140 -7.01765203 0.69509447 33 18 9875 39.82800000 3180477216 3180477216 1.00000000
7.65603876 -0.60926634 -0.49221721 15 19 9875 7.69600000 3180477216 3180477216 -3.66700000
20.47018433 -4.70710230 -1.22324502 19 20 9875 21.04000000 3180477219 3180477219 -3.33300000
86.37680817 -11.14174843 5.07204819 37 21 9875 87.24000000 3180477219 3180477219 3.33300000
39.26537704 -7.03666019 1.62519741 25 22 9876 39.92400000 3180477221 3180477221 2.33300000
20.50325012 -2.64835310 -0.96300811 18 23 9876 20.69600000 3180477221 3180477221 -2.66700000
20.48838615 -3.67536855 -1.09089065 31 24 9877 20.84400000 3180477223 3180477223 -3.00000000
87.52412415 -11.32080173 10.83613491 28 25 9877 88.91600000 3180477223 3180477223 7.00000000
86.99846649 -15.62214565 7.21572685 28 26 9878 88.68400000 3180477226 3180477226 4.66700000
7.93198919 -0.63540608 -0.32419279 0 27 9878 7.96400000 3180477226 3180477226 -2.33300000
39.08506775 -9.01631355 -1.40072620 15 28 9879 40.13600000 3180477228 3180477228 -2.00000000
92.99983978 -16.71655655 17.22801971 28 30 9879 96.04800000 3180477230 3180477230 10.33300000
39.81563950 -5.16408253 -0.93424773 31 31 9879 40.16000000 3180477230 3180477230 -1.33300000
5.86796093 -1.06321561 -2.78082824 8 0 9887 6.58000000 3180477251 3180477251 -25.00000000
39.66777039 -7.19455290 -1.17327940 25 2 9888 40.33200000 3180477253 3180477253 -1.66700000
7.61918163 -1.00037873 -2.15121150 9 3 9888 7.98000000 3180477253 3180477253 -15.63900000
7.57953978 -1.37606931 -1.54069746 70 4 9889 7.85600000 3180477255 3180477255 -11.31000000
39.65077209 -5.21308327 0.00000000 19 5 9889 39.99200000 3180477255 3180477255 0.00000000
39.63034439 -9.22227001 -0.47369894 19 6 9890 40.69200000 3180477258 3180477258 -0.66700000
7.59432316 -0.99981159 -1.19169521 108 7 9890 7.75200000 3180477258 3180477258 -8.84300000
7.77684879 -1.41329300 -1.00610518 66 8 9890 7.96800000 3180477260 3180477260 -7.25400000
40.17177963 -3.30272174 0.23426662 25 9 9890 40.30800000 3180477260 3180477260 0.33300000
39.73915100 -7.22899294 -0.23475482 22 10 9891 40.39200000 3180477262 3180477262 -0.33300000
7.74381590 -1.02086771 -0.84135443 1 11 9891 7.85600000 3180477262 3180477262 -6.14800000
20.36330414 -4.74618292 -1.95182538 11 12 9892 21.00000000 3180477265 3180477265 -5.33300000
39.49855042 -5.21410990 0.92708266 18 13 9892 39.85200000 3180477265 3180477265 1.33300000
39.35284805 -9.17941856 0.47043946 26 14 9893 40.41200000 3180477267 3180477267 0.66700000
8.46155453 -1.11849225 -0.59683639 6 15 9893 8.55600000 3180477267 3180477267 -4.00000000
8.65976048 -1.57999134 -0.71861100 2 16 9894 8.83200000 3180477269 3180477269 -4.66700000
39.94594193 -3.31223202 1.16653037 22 17 9894 40.10000000 3180477269 3180477269 1.66700000
39.44276810 -7.19641495 0.69984150 25 18 9894 40.10000000 3180477272 3180477272 1.00000000
20.47695923 -4.78397894 -1.22464037 22 20 9895 21.06400000 3180477274 3180477274 -3.33300000
86.53928375 -11.46994972 5.08390856 37 21 9895 87.44400000 3180477274 3180477274 3.33300000
39.31920624 -7.18805408 1.62845409 25 22 9896 40.00400000 3180477276 3180477276 2.33300000
20.50972366 -2.72200942 -0.96375263 20 23 9896 20.71200000 3180477276 3180477276 -2.66700000
20.48721886 -3.74902105 -1.09151876 28 24 9897 20.85600000 3180477279 3180477279 -3.00000000
85.93739319 -11.42070198 10.64455605 28 25 9897 87.34400000 3180477279 3180477279 7.00000000
86.58263397 -15.85964775 7.18578482 28 26 9898 88.31600000 3180477281 3180477281 4.66700000
8.18063831 -0.68407178 -0.33445102 0 27 9898 8.21600000 3180477281 3180477281 -2.33300000
39.12341309 -9.16911030 -1.40323901 15 28 9899 40.20800000 3180477283 3180477283 -2.00000000
95.17121124 -17.46718597 17.64200401 28 30 9900 98.35600000 3180477285 3180477285 10.33300000
39.75680542 -5.30469036 -0.93331718 26 31 9900 40.12000000 3180477285 3180477285 -1.33300000
5.86459208 -1.08164513 -2.78082824 7 0 9905 6.58000000 3180477306 3180477306 -25.00000000
40.17350006 -3.40877080 -0.70375085 17 1 9905 40.32400000 3180477306 3180477306 -1.00000000
39.65283585 -7.32058859 -1.17351210 25 2 9906 40.34000000 3180477308 3180477308 -1.66700000
7.64272451 -1.02790415 -2.15875959 9 3 9906 8.00800000 3180477308 3180477308 -15.63900000
7.58289337 -1.40129983 -1.54226637 68 4 9907 7.86400000 3180477311 3180477311 -11.31000000
39.69762802 -5.34616566 0.00000000 19 5 9907 40.05600000 3180477311 3180477311 0.00000000
39.64399719 -9.35683346 -0.47421116 19 6 9908 40.73600000 3180477313 3180477313 -0.66700000
7.59897852 -1.02472126 -1.19292498 107 7 9908 7.76000000 3180477313 3180477313 -8.84300000
7.77237034 -1.43771768 -1.00610518 70 8 9908 7.96800000 3180477315 3180477315 -7.25400000
40.16917801 -3.42958903 0.23431312 16 9 9908 40.31600000 3180477315 3180477315 0.33300000
39.77917480 -7.36545324 -0.23512678 22 10 9909 40.45600000 3180477318 3180477318 -0.33300000
7.70115852 -1.03986883 -0.83707052 0 11 9909 7.81600000 3180477318 3180477318 -6.14800000
20.35992050 -4.81288099 -1.95294082 15 12 9910 21.01200000 3180477320 3180477320 -5.33300000
39.45819855 -5.33495760 0.92652434 18 13 9910 39.82800000 3180477320 3180477320 1.33300000
39.38609314 -9.31773663 0.47118449 17 14 9911 40.47600000 3180477322 3180477322 0.66700000
8.51335716 -1.15256405 -0.60074276 5 15 9911 8.61200000 3180477322 3180477322 -4.00000000
