# .PCD v0.7 - Point Cloud Data file format
VERSION 0.7
FIELDS x y z intensity laser_id azimuth distance_m adjustedtime timestamp vertical_angle
SIZE 4 4 4 1 1 2 8 8 4 8
TYPE F F F U U U F U U F
COUNT 1 1 1 1 1 1 1 1 1 1
WIDTH 509
HEIGHT 1
VIEWPOINT 0 0 0 1 0 0 0
POINTS 509
DATA ascii
19.44926643 -24.01784325 -2.52294970 5 16 13960 31.00800000 3178488549 3178488549 -4.66700000
40.19949722 -40.76474380 1.66618943 46 17 13960 57.27600000 3178488549 3178488549 1.66700000
39.89682007 -49.28605270 1.10683167 28 18 13961 63.42000000 3178488551 3178488551 1.00000000
20.10697556 -20.39681816 -1.83558142 12 19 13961 28.70000000 3178488551 3178488551 -3.66700000
19.95696259 -27.27771950 -1.96835470 13 20 13961 33.85600000 3178488554 3178488554 -3.33300000
40.12141418 -44.88912201 3.50624800 52 21 13961 60.30800000 3178488554 3178488554 3.33300000
39.88133621 -49.28451538 2.58295846 57 22 13962 63.45200000 3178488556 3178488556 2.33300000
33.27752686 -37.24504471 -2.32655621 8 23 13962 50.00000000 3178488556 3178488556 -2.66700000
20.02981758 -24.76126289 -1.66909826 12 24 13963 31.89200000 3178488558 3178488558 -3.00000000
38.43288803 -39.02775574 -2.23157310 40 27 13964 54.82000000 3178488561 3178488561 -2.33300000
38.17401505 -52.25379562 -2.25981212 23 28 13965 64.75200000 3178488563 3178488563 -2.00000000
39.19650269 -43.91596985 -1.36973369 23 31 13965 58.88000000 3178488565 3178488565 -1.33300000
3.74779177 -4.64800835 -2.78420901 20 0 13972 6.58800000 3178488586 3178488586 -25.00000000
38.72660065 -39.43600082 -0.96476901 19 1 13972 55.28000000 3178488586 3178488586 -1.00000000
38.65611267 -47.95840454 -1.79267502 28 2 13973 61.62400000 3178488588 3178488588 -1.66700000
6.83249712 -7.67671585 -2.87690830 4 3 13973 10.67200000 3178488588 3178488588 -15.63900000
8.99474144 -11.16324329 -2.86723471 1 4 13974 14.62000000 3178488590 3178488590 -11.31000000
38.33509445 -43.08689117 0.00000000 36 5 13974 57.67200000 3178488590 3178488590 0.00000000
38.25873947 -52.56211853 -0.75685668 29 6 13975 65.01600000 3178488593 3178488593 -0.66700000
11.48925400 -12.91793442 -2.68961549 2 7 13975 17.49600000 3178488593 3178488593 -8.84300000
13.49066162 -16.74904633 -2.73749518 4 8 13975 21.68000000 3178488595 3178488595 -7.25400000
38.59074020 -39.33883286 0.32028294 57 9 13975 55.10800000 3178488595 3178488595 0.33300000
38.54635620 -47.87351990 -0.35722345 56 10 13976 61.46400000 3178488597 3178488597 -0.33300000
15.69384480 -17.65156746 -2.54419756 2 11 13976 23.75600000 3178488597 3178488597 -6.14800000
17.05449486 -23.44767189 -2.70653129 4 12 13977 29.12000000 3178488600 3178488600 -5.33300000
39.89343643 -44.88569641 1.39737034 17 13 13977 60.06800000 3178488600 3178488600 1.33300000
38.62636948 -53.12562561 0.76467949 28 14 13978 65.68800000 3178488602 3178488602 0.66700000
20.00164223 -22.51255798 -2.10580850 24 15 13978 30.18800000 3178488602 3178488602 -4.00000000
19.44697189 -24.17851257 -2.53303885 5 16 13979 31.13200000 3178488604 3178488604 -4.66700000
40.44461823 -41.28627014 1.68201470 72 17 13979 57.82000000 3178488604 3178488604 1.66700000
39.85959625 -49.55762482 1.11011267 56 18 13979 63.60800000 3178488607 3178488607 1.00000000
20.11263275 -20.53117371 -1.84197712 12 19 13979 28.80000000 3178488607 3178488607 -3.66700000
20.09876633 -27.66357803 -1.99137771 13 20 13980 34.25200000 3178488609 3178488609 -3.33300000
39.69926071 -44.71435165 3.48229480 50 21 13980 59.89600000 3178488609 3178488609 3.33300000
40.15584946 -49.96165848 2.61145353 28 22 13981 64.15200000 3178488611 3178488611 2.33300000
33.29175568 -37.51058960 -2.33623457 8 23 13981 50.20800000 3178488611 3178488611 -2.66700000
20.03266144 -24.93342209 -1.67621601 12 24 13982 32.02800000 3178488614 3178488614 -3.00000000
38.37033081 -39.22355652 -2.23548102 20 27 13983 54.91600000 3178488616 3178488616 -2.33300000
38.01461029 -52.39951324 -2.26064968 23 28 13984 64.77600000 3178488618 3178488618 -2.00000000
38.61593628 -43.57069778 -1.35475218 22 31 13985 58.23600000 3178488620 3178488620 -1.33300000
3.78818583 -4.73181295 -2.82647085 29 0 13992 6.68800000 3178488641 3178488641 -25.00000000
38.59149933 -39.57380295 -0.96483886 19 1 13992 55.28400000 3178488641 3178488641 -1.00000000
38.60838699 -48.24288940 -1.79826045 28 2 13993 61.81600000 3178488643 3178488643 -1.66700000
6.81076050 -7.70629120 -2.87906480 6 3 13993 10.68000000 3178488643 3178488643 -15.63900000
8.96552086 -11.20682335 -2.87037277 1 4 13994 14.63600000 3178488646 3178488646 -11.31000000
38.28244781 -43.33135605 0.00000000 55 5 13994 57.82000000 3178488646 3178488646 0.00000000
38.27414322 -52.97091293 -0.76081461 58 6 13995 65.35600000 3178488648 3178488648 -0.66700000
11.46502304 -12.98166084 -2.69453478 2 7 13995 17.52800000 3178488648 3178488648 -8.84300000
13.46185303 -16.83322334 -2.74355602 4 8 13995 21.72800000 3178488650 3178488650 -7.25400000
38.58157730 -39.60509872 0.32135233 39 9 13995 55.29200000 3178488650 3178488650 0.33300000
38.38900375 -48.02027893 -0.35731646 56 10 13996 61.48000000 3178488653 3178488653 -0.33300000
15.64529514 -17.72114754 -2.54633951 2 11 13996 23.77600000 3178488653 3178488653 -6.14800000
17.00518227 -23.55226517 -2.71173620 4 12 13997 29.17600000 3178488655 3178488655 -5.33300000
39.93496704 -45.24954605 1.40434921 17 13 13997 60.36800000 3178488655 3178488655 1.33300000
38.65838623 -53.56175613 0.76900995 28 14 13998 66.06000000 3178488657 3178488657 0.66700000
19.99949074 -22.66901398 -2.11390018 20 15 13998 30.30400000 3178488657 3178488657 -4.00000000
19.38982010 -24.28051567 -2.53661871 5 16 13999 31.17600000 3178488660 3178488660 -4.66700000
40.37274551 -41.50170898 1.68504012 73 17 13999 57.92400000 3178488660 3178488660 1.66700000
41.98738480 -52.57786560 1.17447710 28 18 13999 67.29600000 3178488662 3178488662 1.00000000
20.10486221 -20.66706467 -1.84786117 12 19 13999 28.89200000 3178488662 3178488662 -3.66700000
20.09084320 -27.85663986 -2.00021482 20 20 14000 34.40400000 3178488664 3178488664 -3.33300000
39.61951828 -44.93952179 3.48903894 34 21 14000 60.01200000 3178488664 3178488664 3.33300000
40.96340942 -51.33235168 2.67560816 28 22 14001 65.72800000 3178488667 3178488667 2.33300000
33.29006577 -37.77345657 -2.34535480 8 23 14001 50.40400000 3178488667 3178488667 -2.66700000
20.02770805 -25.10624695 -1.68312430 12 24 14002 32.16000000 3178488669 3178488669 -3.00000000
38.41698074 -39.54645920 -2.24622774 20 27 14003 55.18000000 3178488671 3178488671 -2.33300000
38.36878204 -53.27798843 -2.29275727 23 28 14004 65.69600000 3178488673 3178488673 -2.00000000
38.58486176 -43.82757950 -1.35875344 34 31 14004 58.40800000 3178488676 3178488676 -1.33300000
3.76036692 -4.73081779 -2.81801867 21 0 14012 6.66800000 3178488696 3178488696 -25.00000000
38.56997681 -39.82894135 -0.96777081 40 1 14012 55.45200000 3178488696 3178488696 -1.00000000
38.55417252 -48.52136230 -1.80361307 28 2 14013 62.00000000 3178488699 3178488699 -1.66700000
6.78635979 -7.73291349 -2.88014317 5 3 14013 10.68400000 3178488699 3178488699 -15.63900000
8.91902828 -11.22883701 -2.86801934 1 4 14014 14.62400000 3178488701 3178488701 -11.31000000
38.55302811 -43.94582748 0.00000000 38 5 14014 58.46000000 3178488701 3178488701 0.00000000
38.23584747 -53.28927994 -0.76356190 58 6 14014 65.59200000 3178488703 3178488703 -0.66700000
11.43494415 -13.03446484 -2.69760919 2 7 14014 17.54800000 3178488703 3178488703 -8.84300000
13.42521858 -16.90807915 -2.74810171 4 8 14015 21.76400000 3178488706 3178488706 -7.25400000
38.58493042 -39.88615036 0.32253796 40 9 14015 55.49600000 3178488706 3178488706 0.33300000
38.37532425 -48.34823227 -0.35875779 56 10 14016 61.72800000 3178488708 3178488708 -0.33300000
15.59382820 -17.78761482 -2.54805303 2 11 14016 23.79200000 3178488708 3178488708 -6.14800000
16.95534897 -23.65680122 -2.71694112 4 12 14017 29.23200000 3178488710 3178488710 -5.33300000
40.92853928 -46.70293427 1.44501317 18 13 14017 62.11600000 3178488710 3178488710 1.33300000
38.82526398 -54.19057846 0.77608776 28 14 14018 66.66800000 3178488713 3178488713 0.66700000
19.99649239 -22.82572746 -2.12199187 24 15 14018 30.42000000 3178488713 3178488713 -4.00000000
19.33219337 -24.38241386 -2.54019880 5 16 14019 31.22000000 3178488715 3178488715 -4.66700000
40.71377182 -42.14562225 1.70540345 51 17 14019 58.62400000 3178488715 3178488715 1.66700000
41.81602097 -52.73977661 1.17482615 28 18 14019 67.31600000 3178488717 3178488717 1.00000000
20.10470772 -20.81176376 -1.85451281 12 19 14019 28.99600000 3178488717 3178488717 -3.66700000
20.03067589 -27.97855186 -2.00393581 13 20 14020 34.46800000 3178488720 3178488720 -3.33300000
39.51501465 -45.13763809 3.49369001 34 21 14020 60.09200000 3178488720 3178488720 3.33300000
40.95523453 -51.69117737 2.68684340 57 22 14021 66.00400000 3178488722 3178488722 2.33300000
33.18169022 -37.91649246 -2.34702992 8 23 14021 50.44000000 3178488722 3178488722 -2.66700000
20.01683235 -25.27307510 -1.68961406 12 24 14022 32.28400000 3178488724 3178488724 -3.00000000
38.32587814 -39.72921753 -2.24899578 20 27 14023 55.24800000 3178488726 3178488726 -2.33300000
38.99393082 -54.54656219 -2.34147692 24 28 14024 67.09200000 3178488729 3178488729 -2.00000000
38.56606293 -44.13130569 -1.36377835 23 31 14025 58.62400000 3178488731 3178488731 -1.33300000
3.71688008 -4.70976591 -2.79773283 25 0 14032 6.62000000 3178488752 3178488752 -25.00000000
38.59427261 -40.13341141 -0.97188962 41 1 14032 55.68800000 3178488752 3178488752 -1.00000000
38.53067398 -48.84085464 -1.81047845 28 2 14033 62.23600000 3178488754 3178488754 -1.66700000
6.77197886 -7.77107525 -2.88553476 6 3 14033 10.70400000 3178488754 3178488754 -15.63900000
8.87977791 -11.25990200 -2.86801934 1 4 14034 14.62400000 3178488756 3178488756 -11.31000000
38.49398041 -44.18871307 0.00000000 58 5 14034 58.60400000 3178488756 3178488756 0.00000000
38.19114304 -53.62115479 -0.76640236 58 6 14034 65.83600000 3178488759 3178488759 -0.66700000
11.39976025 -13.08622169 -2.70006895 2 7 14034 17.56400000 3178488759 3178488759 -8.84300000
13.39068222 -16.98600006 -2.75315237 4 8 14035 21.80400000 3178488761 3178488761 -7.25400000
38.66160965 -40.24559021 0.32435128 41 9 14035 55.80800000 3178488761 3178488761 0.33300000
38.33258820 -48.64211655 -0.35994345 56 10 14036 61.93200000 3178488763 3178488763 -0.33300000
15.56820011 -17.88393402 -2.55405045 2 11 14036 23.84800000 3178488763 3178488763 -6.14800000
16.93962288 -23.80995178 -2.72772241 4 12 14037 29.34800000 3178488766 3178488766 -5.33300000
40.41875458 -46.44731903 1.43273032 18 13 14037 61.58800000 3178488766 3178488766 1.33300000
38.64745712 -54.34207153 0.77632058 28 14 14038 66.68800000 3178488768 3178488768 0.66700000
19.99002266 -22.97968483 -2.12980461 24 15 14038 30.53200000 3178488768 3178488768 -4.00000000
19.32587624 -24.54998970 -2.55061340 5 16 14039 31.34800000 3178488770 3178488770 -4.66700000
40.46953201 -42.18649673 1.70133078 25 17 14039 58.48400000 3178488770 3178488770 1.66700000
41.20370102 -52.34176636 1.16274917 28 18 14039 66.62400000 3178488773 3178488773 1.00000000
20.10102463 -20.95383263 -1.86090851 13 19 14039 29.09600000 3178488773 3178488773 -3.66700000
20.03929710 -28.19803047 -2.01463342 13 20 14040 34.65200000 3178488775 3178488775 -3.33300000
39.40436935 -45.32954407 3.49787617 34 21 14040 60.16400000 3178488775 3178488775 3.33300000
40.67076492 -51.70188904 2.68000460 57 22 14041 65.83600000 3178488777 3178488777 2.33300000
33.14873123 -38.14669418 -2.35410261 8 23 14041 50.59200000 3178488777 3178488777 -2.66700000
20.01491165 -25.45269203 -1.69694102 12 24 14042 32.42400000 3178488779 3178488779 -3.00000000
38.30584717 -39.98685837 -2.25599742 21 27 14043 55.42000000 3178488782 3178488782 -2.33300000
38.12776566 -53.73038101 -2.30071449 23 28 14044 65.92400000 3178488784 3178488784 -2.00000000
38.66338730 -44.55560684 -1.37271142 23 31 14045 59.00800000 3178488786 3178488786 -1.33300000
3.68253016 -4.69988251 -2.78420901 30 0 14052 6.58800000 3178488807 3178488807 -25.00000000
38.60309982 -40.42407608 -0.97565931 41 1 14052 55.90400000 3178488807 3178488807 -1.00000000
38.64841080 -49.34333420 -1.82409286 28 2 14053 62.70400000 3178488809 3178488809 -1.66700000
6.74985218 -7.80049181 -2.88769126 5 3 14053 10.71200000 3178488809 3178488809 -15.63900000
8.85492802 -11.30935955 -2.87272596 1 4 14054 14.64800000 3178488812 3178488812 -11.31000000
38.52790833 -44.54063034 0.00000000 39 5 14054 58.89200000 3178488812 3178488812 0.00000000
38.10995102 -53.90437317 -0.76854432 29 6 14054 66.02000000 3178488814 3178488814 -0.66700000
11.36435413 -13.13789177 -2.70252848 2 7 14054 17.58000000 3178488814 3178488814 -8.84300000
13.35087395 -17.05763626 -2.75719285 4 8 14055 21.83600000 3178488816 3178488816 -7.25400000
38.59819794 -40.46133804 0.32500222 41 9 14055 55.92000000 3178488816 3178488816 0.33300000
38.24143600 -48.87643433 -0.36068738 56 10 14056 62.06000000 3178488819 3178488819 -0.33300000
15.52648449 -17.96223831 -2.55747747 2 11 14056 23.88000000 3178488819 3178488819 -6.14800000
16.86559677 -23.88195038 -2.72920966 4 12 14057 29.36400000 3178488821 3178488821 -5.33300000
40.30344009 -46.64258575 1.43440521 36 13 14057 61.66000000 3178488821 3178488821 1.33300000
38.78508377 -54.94063950 0.78293270 28 14 14058 67.25600000 3178488823 3178488823 0.66700000
19.98533058 -23.13689423 -2.13789630 24 15 14058 30.64800000 3178488823 3178488823 -4.00000000
19.26706886 -24.65185356 -2.55419350 5 16 14059 31.39200000 3178488826 3178488826 -4.66700000
42.85094452 -44.98220444 1.80803490 28 17 14059 62.15200000 3178488826 3178488826 1.66700000
40.89514160 -52.32456589 1.15918887 56 18 14059 66.42000000 3178488828 3178488828 1.00000000
20.10209846 -21.10190773 -1.86781597 13 19 14059 29.20400000 3178488828 3178488828 -3.66700000
20.04893112 -28.42117310 -2.02556348 14 20 14060 34.84000000 3178488830 3178488830 -3.33300000
39.29286575 -45.52122498 3.50206208 34 21 14060 60.23600000 3178488830 3178488830 3.33300000
40.81969070 -52.26562119 2.70182371 57 22 14061 66.37200000 3178488832 3178488832 2.33300000
33.15371704 -38.42250824 -2.36396718 8 23 14061 50.80400000 3178488832 3178488832 -2.66700000
20.01689529 -25.63889885 -1.70468676 12 24 14062 32.57200000 3178488835 3178488835 -3.00000000
38.27071381 -40.23036575 -2.26218510 21 27 14063 55.57200000 3178488837 3178488837 -2.33300000
39.07488632 -55.47436523 -2.36953616 24 28 14064 67.89600000 3178488839 3178488839 -2.00000000
38.80258942 -45.03262329 -1.38322628 23 31 14065 59.46000000 3178488842 3178488842 -1.33300000
3.67277980 -4.72129250 -2.78928041 17 0 14072 6.60000000 3178488862 3178488862 -25.00000000
38.81951523 -40.93584442 -0.98473459 21 1 14072 56.42400000 3178488862 3178488862 -1.00000000
38.51520920 -49.52844238 -1.82595468 28 2 14073 62.76800000 3178488865 3178488865 -1.66700000
6.72760296 -7.82984924 -2.88984799 6 3 14073 10.72000000 3178488865 3178488865 -15.63900000
8.82021141 -11.34639359 -2.87429500 1 4 14074 14.65600000 3178488867 3178488867 -11.31000000
38.47645187 -44.79622269 0.00000000 40 5 14074 59.05200000 3178488867 3178488867 0.00000000
38.05022430 -54.22041321 -0.77115190 29 6 14074 66.24400000 3178488869 3178488869 -0.66700000
11.33902740 -13.20146656 -2.70744777 2 7 14074 17.61200000 3178488869 3178488869 -8.84300000
13.31072807 -17.12919998 -2.76123357 4 8 14075 21.86800000 3178488872 3178488872 -7.25400000
38.49798965 -40.63938141 0.32535094 41 9 14075 55.98000000 3178488872 3178488872 0.33300000
38.34296417 -49.36026001 -0.36326784 56 10 14076 62.50400000 3178488874 3178488874 -0.33300000
15.52585506 -18.08875275 -2.56775880 2 11 14076 23.97600000 3178488874 3178488874 -6.14800000
16.82556534 -24.00263977 -2.73627329 4 12 14077 29.44000000 3178488876 3178488876 -5.33300000
40.10392380 -46.74049759 1.43310249 54 13 14077 61.60400000 3178488876 3178488876 1.33300000
38.69865417 -55.22636414 0.78507465 57 14 14078 67.44000000 3178488878 3178488878 0.66700000
19.98497772 -23.30040741 -2.14654613 20 15 14078 30.77200000 3178488878 3178488878 -4.00000000
19.26399803 -24.82604790 -2.56525922 5 16 14079 31.52800000 3178488881 3178488881 -4.66700000
41.22090530 -43.57464600 1.74566472 28 17 14079 60.00800000 3178488881 3178488881 1.66700000
40.68037033 -52.42592239 1.15828133 28 18 14079 66.36800000 3178488883 3178488883 1.00000000
20.09415436 -21.24154472 -1.87395597 13 19 14079 29.30000000 3178488883 3178488883 -3.66700000
20.05266953 -28.63818169 -2.03602862 14 20 14080 35.02000000 3178488885 3178488885 -3.33300000
39.17010880 -45.70055389 3.50531793 17 21 14080 60.29200000 3178488885 3178488885 3.33300000
41.06558609 -52.96051788 2.73031878 57 22 14081 67.07200000 3178488888 3178488888 2.33300000
33.06099319 -38.58654785 -2.36694527 8 23 14081 50.86800000 3178488888 3178488888 -2.66700000
20.00803375 -25.81280136 -1.71159506 12 24 14082 32.70400000 3178488890 3178488890 -3.00000000
38.16572952 -40.40147781 -2.26430178 21 27 14083 55.62400000 3178488892 3178488892 -2.33300000
39.00012207 -55.78078842 -2.37679529 24 28 14084 68.10400000 3178488895 3178488895 -2.00000000
38.52297211 -45.02498627 -1.37885284 23 31 14085 59.27200000 3178488897 3178488897 -1.33300000
3.70502734 -4.79720545 -2.82647085 19 0 14092 6.68800000 3178488918 3178488918 -25.00000000
38.72848129 -41.12641907 -0.98606098 43 1 14092 56.50000000 3178488918 3178488918 -1.00000000
38.51068115 -49.88095474 -1.83398366 28 2 14093 63.04400000 3178488920 3178488920 -1.66700000
6.70273066 -7.85621548 -2.89092612 5 3 14093 10.72400000 3178488920 3178488920 -15.63900000
8.79732609 -11.39884853 -2.87978625 1 4 14094 14.68400000 3178488922 3178488922 -11.31000000
38.53788376 -45.18590546 0.00000000 40 5 14094 59.38800000 3178488922 3178488922 0.00000000
38.04590225 -54.61874390 -0.77492362 29 6 14094 66.56800000 3178488925 3178488925 -0.66700000
11.30057144 -13.24998856 -2.70929265 2 7 14094 17.62400000 3178488925 3178488925 -8.84300000
13.27751732 -17.21011734 -2.76678944 4 8 14095 21.91200000 3178488927 3178488927 -7.25400000
38.53952026 -40.96871948 0.32690853 42 9 14095 56.24800000 3178488927 3178488927 0.33300000
38.36341095 -49.74402237 -0.36510441 56 10 14096 62.82000000 3178488929 3178488929 -0.33300000
15.47293758 -18.15494537 -2.56947231 2 11 14096 23.99200000 3178488929 3178488929 -6.14800000
16.79627037 -24.13968658 -2.74519610 4 12 14097 29.53600000 3178488931 3178488931 -5.33300000
39.97683334 -46.92281723 1.43440521 36 13 14097 61.66000000 3178488931 3178488931 1.33300000
38.93729019 -55.98170853 0.79387534 28 14 14098 68.19600000 3178488934 3178488934 0.66700000
19.97596359 -23.45508575 -2.15435886 20 15 14098 30.88400000 3178488934 3178488934 -4.00000000
19.20398521 -24.92788124 -2.56883907 5 16 14099 31.57200000 3178488936 3178488936 -4.66700000
41.25196457 -43.91351700 1.75346100 28 17 14099 60.27600000 3178488936 3178488936 1.66700000
40.68017960 -52.80522156 1.16351700 28 18 14099 66.66800000 3178488938 3178488938 1.00000000
20.09367943 -21.39011192 -1.88086331 13 19 14099 29.40800000 3178488938 3178488938 -3.66700000
19.97537231 -28.74079323 -2.03835416 14 20 14100 35.06000000 3178488941 3178488941 -3.33300000
40.57355499 -47.67376709 3.64578176 40 21 14100 62.70800000 3178488941 3178488941 3.33300000
40.88046646 -53.10353851 2.73031878 57 22 14101 67.07200000 3178488943 3178488943 2.33300000
33.04778671 -38.84475327 -2.37569308 8 23 14101 51.05600000 3178488943 3178488943 -2.66700000
20.00550842 -25.99644852 -1.71913147 13 24 14102 32.84800000 3178488945 3178488945 -3.00000000
38.17485809 -40.69477463 -2.27325726 21 27 14103 55.84400000 3178488948 3178488948 -2.33300000
38.98750687 -56.17931747 -2.38796306 24 28 14104 68.42400000 3178488950 3178488950 -2.00000000
38.59616470 -45.41453934 -1.38685536 35 31 14104 59.61600000 3178488952 3178488952 -1.33300000
3.69267130 -4.81586266 -2.82985187 19 0 14112 6.69600000 3178488973 3178488973 -25.00000000
38.68029785 -41.36359787 -0.98850429 44 1 14112 56.64000000 3178488973 3178488973 -1.00000000
38.44335556 -50.15470886 -1.83910358 28 2 14113 63.22000000 3178488975 3178488975 -1.66700000
6.67526674 -7.87956429 -2.89092612 6 3 14113 10.72400000 3178488975 3178488975 -15.63900000
8.80519485 -11.49175644 -2.89547563 1 4 14114 14.76400000 3178488978 3178488978 -11.31000000
38.49366379 -45.45446014 0.00000000 41 5 14114 59.56400000 3178488978 3178488978 0.00000000
38.06832123 -55.08027649 -0.77948695 29 6 14115 66.96000000 3178488980 3178488980 -0.66700000
11.27236176 -13.31545162 -2.71421194 2 7 14115 17.65600000 3178488980 3178488980 -8.84300000
13.23907661 -17.28471184 -2.77133489 2 8 14115 21.94800000 3178488982 3178488982 -7.25400000
38.55464935 -41.27252960 0.32825688 43 9 14115 56.48000000 3178488982 3178488982 0.33300000
38.32084656 -50.04913330 -0.36635980 56 10 14116 63.03600000 3178488984 3178488984 -0.33300000
15.43773174 -18.24224091 -2.57418466 2 11 14116 24.03600000 3178488984 3178488984 -6.14800000
16.73453903 -24.23093987 -2.74891376 4 12 14117 29.57600000 3178488987 3178488987 -5.33300000
39.80504990 -47.05292130 1.43412602 54 13 14117 61.64800000 3178488987 3178488987 1.33300000
38.98705673 -56.47277069 0.79890424 28 14 14118 68.62800000 3178488989 3178488989 0.66700000
19.97642136 -23.62217140 -2.16328788 16 15 14118 31.01200000 3178488989 3178488989 -4.00000000
19.14349556 -25.02959633 -2.57241917 5 16 14119 31.61600000 3178488991 3178488991 -4.66700000
40.94842148 -43.89644241 1.74706113 28 17 14119 60.05600000 3178488991 3178488991 1.66700000
40.57138443 -53.06517029 1.16596031 56 18 14120 66.80800000 3178488994 3178488994 1.00000000
20.08320618 -21.53660011 -1.88725913 13 19 14120 29.50800000 3178488994 3178488994 -3.66700000
19.99737358 -28.98784256 -2.05091214 14 20 14120 35.27600000 3178488996 3178488996 -3.33300000
40.64917755 -48.10180664 3.66764212 41 21 14120 63.08400000 3178488996 3178488996 3.33300000
40.91327667 -53.53170395 2.74497342 57 22 14121 67.43200000 3178488998 3178488998 2.33300000
33.03318405 -39.10333633 -2.38444090 8 23 14121 51.24400000 3178488998 3178488998 -2.66700000
20.00194359 -26.18039131 -1.72666788 13 24 14122 32.99200000 3178489001 3178489001 -3.00000000
38.14426804 -40.94768524 -2.27993345 22 27 14123 56.00800000 3178489003 3178489003 -2.33300000
38.94990540 -56.54551697 -2.39773512 24 28 14124 68.70400000 3178489005 3178489005 -2.00000000
38.57924652 -45.71707535 -1.39197326 24 31 14124 59.83600000 3178489008 3178489008 -1.33300000
3.64290071 -4.78545523 -2.80449486 23 0 14132 6.63600000 3178489028 3178489028 -25.00000000
38.66902542 -41.64196777 -0.99192500 45 1 14132 56.83600000 3178489028 3178489028 -1.00000000
38.36489868 -50.41586685 -1.84375811 28 2 14133 63.38000000 3178489031 3178489031 -1.66700000
6.65515995 -7.91166067 -2.89416099 6 3 14133 10.73600000 3178489031 3178489031 -15.63900000
8.76027775 -11.51617813 -2.89390683 1 4 14134 14.75600000 3178489033 3178489033 -11.31000000
38.44546127 -45.72019577 0.00000000 41 5 14134 59.73600000 3178489033 3178489033 0.00000000
38.04778290 -55.46349335 -0.78302580 29 6 14135 67.26400000 3178489035 3178489035 -0.66700000
11.23344326 -13.36379528 -2.71605659 2 7 14135 17.66800000 3178489035 3178489035 -8.84300000
13.22669697 -17.39398956 -2.78143644 4 8 14135 22.02800000 3178489037 3178489037 -7.25400000
38.53820038 -41.54468536 0.32934952 44 9 14135 56.66800000 3178489037 3178489037 0.33300000
38.27177811 -50.34818268 -0.36756867 56 10 14136 63.24400000 3178489040 3178489040 -0.33300000
15.38163567 -18.30515099 -2.57546973 2 11 14136 24.04800000 3178489040 3178489040 -6.14800000
16.67462349 -24.32534218 -2.75300336 4 12 14137 29.62000000 3178489042 3178489042 -5.33300000
40.76454926 -48.52967453 1.47478998 38 13 14137 63.39600000 3178489042 3178489042 1.33300000
39.02482224 -56.95165634 0.80374694 28 14 14138 69.04400000 3178489044 3178489044 0.66700000
19.96568871 -23.77732086 -2.17110038 24 15 14138 31.12400000 3178489044 3178489044 -4.00000000
19.14521217 -25.21374702 -2.58446121 5 16 14139 31.76400000 3178489047 3178489047 -4.66700000
40.82754898 -44.07431030 1.74845743 28 17 14139 60.10400000 3178489047 3178489047 1.66700000
40.53788757 -53.38734436 1.17007911 56 18 14139 67.04400000 3178489049 3178489049 1.00000000
20.08763313 -21.68507767 -1.89442229 13 19 14139 29.62000000 3178489049 3178489049 -3.66700000
19.99984360 -29.20903397 -2.06160975 14 20 14140 35.46000000 3178489051 3178489051 -3.33300000
40.73000336 -48.54012680 3.69019985 42 21 14140 63.47200000 3178489051 3178489051 3.33300000
40.72375107 -53.67100906 2.74481058 28 22 14141 67.42800000 3178489054 3178489054 2.33300000
32.98635864 -39.32555008 -2.39095521 8 23 14141 51.38400000 3178489054 3178489054 -2.66700000
20.00216675 -26.37099075 -1.73462296 19 24 14142 33.14400000 3178489056 3178489056 -3.00000000
38.12322998 -41.21260834 -2.28726077 22 27 14143 56.18800000 3178489058 3178489058 -2.33300000
38.06414795 -55.67462540 -2.35515761 24 28 14144 67.48400000 3178489061 3178489061 -2.00000000
38.53243637 -45.98632812 -1.39606762 24 31 14144 60.01200000 3178489063 3178489063 -1.33300000
3.64231539 -4.81775188 -2.81632805 26 0 14151 6.66400000 3178489083 3178489083 -25.00000000
38.64461517 -41.89343643 -0.99485695 45 1 14151 57.00400000 3178489083 3178489083 -1.00000000
38.33732224 -50.72782135 -1.85050702 28 2 14152 63.61200000 3178489085 3178489085 -1.66700000
6.63382673 -7.93959808 -2.89631772 5 3 14152 10.74400000 3178489085 3178489085 -15.63900000
8.73149872 -11.55768394 -2.89704466 1 4 14153 14.77200000 3178489088 3178489088 -11.31000000
38.43466568 -46.01628494 0.00000000 42 5 14153 59.95600000 3178489088 3178489088 0.00000000
38.19541931 -56.05541229 -0.78968453 29 6 14153 67.83600000 3178489090 3178489090 -0.66700000
11.20153904 -13.41115379 -2.71851611 2 7 14153 17.68400000 3178489090 3178489090 -8.84300000
13.17133522 -17.44092178 -2.78194141 4 8 14154 22.03200000 3178489092 3178489092 -7.25400000
38.49509048 -41.77520752 0.33016318 66 9 14154 56.80800000 3178489092 3178489092 0.33300000
38.19859695 -50.59931946 -0.36847532 56 10 14155 63.40000000 3178489095 3178489095 -0.33300000
15.39729977 -18.44765472 -2.58832145 2 11 14155 24.16800000 3178489095 3178489095 -6.14800000
16.66333389 -24.48256874 -2.76452827 4 12 14156 29.74400000 3178489097 3178489097 -5.33300000
40.73917770 -48.82732391 1.47972178 57 13 14156 63.60800000 3178489097 3178489097 1.33300000
38.85599518 -57.11051941 0.80416602 57 14 14157 69.08000000 3178489099 3178489099 0.66700000
19.96340561 -23.93532753 -2.17947125 20 15 14157 31.24400000 3178489099 3178489099 -4.00000000
19.07589912 -25.29619598 -2.58641386 5 16 14158 31.78800000 3178489101 3178489101 -4.66700000
40.67575455 -44.20357132 1.74822474 28 17 14158 60.09600000 3178489101 3178489101 1.66700000
40.31246567 -53.45761490 1.16868293 56 18 14158 66.96400000 3178489104 3178489104 1.00000000
20.08588982 -21.82794380 -1.90107393 13 19 14158 29.72400000 3178489104 3178489104 -3.66700000
20.01512718 -29.44031143 -2.07323742 14 20 14159 35.66000000 3178489106 3178489106 -3.33300000
40.72476959 -48.86204529 3.70438576 64 21 14159 63.71600000 3178489106 3178489106 3.33300000
41.51246262 -55.08890152 2.81026793 28 22 14160 69.03600000 3178489108 3178489108 2.33300000
33.00667191 -39.61583710 -2.40193653 8 23 14160 51.62000000 3178489108 3178489108 -2.66700000
19.99632263 -26.54565430 -1.74174058 19 24 14161 33.28000000 3178489111 3178489111 -3.00000000
37.98365021 -41.33586121 -2.28709793 66 27 14162 56.18400000 3178489113 3178489113 -2.33300000
25.25212860 -37.19926071 -1.57005858 9 28 14163 44.98800000 3178489115 3178489115 -2.00000000
38.47182083 -46.22450638 -1.39941752 24 31 14163 60.15600000 3178489118 3178489118 -1.33300000
3.65243912 -4.86459208 -2.83661366 25 0 14170 6.71200000 3178489138 3178489138 -25.00000000
38.52169037 -42.03904724 -0.99527586 22 1 14170 57.02800000 3178489138 3178489138 -1.00000000
38.28169632 -51.00497055 -1.85597610 28 2 14171 63.80000000 3178489141 3178489141 -1.66700000
6.61238194 -7.96748114 -2.89847422 6 3 14171 10.75200000 3178489141 3178489141 -15.63900000
8.70724773 -11.60539913 -2.90175152 1 4 14172 14.79600000 3178489143 3178489143 -11.31000000
38.47596359 -46.37744904 0.00000000 42 5 14172 60.26000000 3178489143 3178489143 0.00000000
38.21999741 -56.49316788 -0.79406154 29 6 14172 68.21200000 3178489145 3178489145 -0.66700000
11.16962242 -13.46343517 -2.72159076 2 7 14172 17.70400000 3178489145 3178489145 -8.84300000
13.13009167 -17.50672531 -2.78547692 4 8 14173 22.06000000 3178489148 3178489148 -7.25400000
38.48328018 -42.04130554 0.33125582 45 9 14173 56.99600000 3178489148 3178489148 0.33300000
38.21535110 -50.97214127 -0.37026539 56 10 14174 63.70800000 3178489150 3178489150 -0.33300000
15.34873199 -18.51392174 -2.59046340 2 11 14174 24.18800000 3178489150 3178489150 -6.14800000
16.61996460 -24.59379005 -2.77084851 4 12 14175 29.81200000 3178489152 3178489152 -5.33300000
40.52344894 -48.89749146 1.47776771 38 13 14175 63.52400000 3178489152 3178489152 1.33300000
38.99328232 -57.72294998 0.81096441 28 14 14176 69.66400000 3178489154 3178489154 0.66700000
19.96792793 -24.10279846 -2.18867922 12 15 14176 31.37600000 3178489154 3178489154 -4.00000000
19.08033180 -25.47738266 -2.59845591 5 16 14177 31.93600000 3178489157 3178489157 -4.66700000
42.23923492 -46.20925140 1.82199836 28 17 14177 62.63200000 3178489157 3178489157 1.66700000
40.16134262 -53.62621307 1.16945088 56 18 14177 67.00800000 3178489159 3178489159 1.00000000
20.08880615 -21.97692871 -1.90823710 13 19 14177 29.83600000 3178489159 3178489159 -3.66700000
20.01792717 -29.65546227 -2.08370256 15 20 14178 35.84000000 3178489161 3178489161 -3.33300000
40.43519211 -48.84302521 3.69275808 64 21 14178 63.51600000 3178489161 3178489161 3.33300000
41.56423187 -55.53984451 2.82622504 28 22 14179 69.42800000 3178489164 3178489164 2.33300000
20.42053223 -24.67541313 -1.49197400 3 23 14179 32.06400000 3178489164 3178489164 -2.66700000
19.99671936 -26.73016548 -1.74948633 20 24 14180 33.42800000 3178489166 3178489166 -3.00000000
38.02959061 -41.66231537 -2.29817033 22 27 14181 56.45600000 3178489168 3178489168 -2.33300000
38.73618317 -46.85729599 -1.41467810 25 31 14182 60.81200000 3178489173 3178489173 -1.33300000
3.63543606 -4.87731171 -2.83661366 16 0 14190 6.71200000 3178489194 3178489194 -25.00000000
38.66810226 -42.49568939 -1.00288510 23 1 14190 57.46400000 3178489194 3178489194 -1.00000000
38.37098312 -51.49737930 -1.86900866 28 2 14191 64.24800000 3178489196 3178489196 -1.66700000
6.58942890 -7.99645948 -2.90063095 5 3 14191 10.76000000 3178489196 3178489196 -15.63900000
8.65731239 -11.62314034 -2.89861345 1 4 14192 14.78000000 3178489198 3178489198 -11.31000000
38.54527664 -46.79242706 0.00000000 42 5 14192 60.62400000 3178489198 3178489198 0.00000000
38.34363937 -57.10440445 -0.80076683 29 6 14192 68.78800000 3178489201 3178489201 -0.66700000
11.13009739 -13.51149464 -2.72343540 2 7 14192 17.71600000 3178489201 3178489201 -8.84300000
13.13051414 -17.63520050 -2.79860902 4 8 14193 22.16400000 3178489203 3178489203 -7.25400000
38.48427200 -42.33817291 0.33253446 46 9 14193 57.21600000 3178489203 3178489203 0.33300000
38.07062531 -51.15015030 -0.37059087 56 10 14194 63.76400000 3178489205 3178489205 -0.33300000
15.29917812 -18.58580780 -2.59303379 2 11 14194 24.21200000 3178489205 3178489205 -6.14800000
16.59613228 -24.74426842 -2.78125834 4 12 14195 29.92400000 3178489207 3178489207 -5.33300000
40.31694794 -48.99541855 1.47646499 38 13 14195 63.46800000 3178489207 3178489207 1.33300000
42.14594650 -62.86188126 0.88109028 28 14 14196 75.68800000 3178489210 3178489210 0.66700000
19.95971870 -24.26480103 -2.19704986 12 15 14196 31.49600000 3178489210 3178489210 -4.00000000
19.00555420 -25.56302643 -2.60040855 5 16 14197 31.96000000 3178489212 3178489212 -4.66700000
41.21774292 -45.40903473 1.78476250 28 17 14197 61.35200000 3178489212 3178489212 1.66700000
39.97883987 -53.79231262 1.16986966 28 18 14198 67.03200000 3178489214 3178489214 1.00000000
20.07249832 -22.12135887 -1.91437709 13 19 14198 29.93200000 3178489214 3178489214 -3.66700000
20.02319336 -29.88771629 -2.09509778 15 20 14198 36.03600000 3178489217 3178489217 -3.33300000
40.18838120 -48.89132690 3.68578148 42 21 14198 63.39600000 3178489217 3178489217 3.33300000
104.69209290 -140.91662598 7.15210629 28 22 14199 175.69600000 3178489219 3178489219 2.33300000
20.38247108 -24.80519867 -1.49551034 3 23 14199 32.14000000 3178489219 3178489219 -2.66700000
19.99141121 -26.91845894 -1.75723207 20 24 14200 33.57600000 3178489221 3178489221 -3.00000000
38.12281799 -42.05836105 -2.31266212 23 27 14201 56.81200000 3178489224 3178489224 -2.33300000
25.04723740 -37.44338226 -1.57312965 27 28 14202 45.07600000 3178489226 3178489226 -2.00000000
38.65103531 -47.08804321 -1.41756272 25 31 14202 60.93600000 3178489228 3178489228 -1.33300000
3.60760713 -4.87540150 -2.82816148 18 0 14210 6.69200000 3178489249 3178489249 -25.00000000
38.49271393 -42.60073090 -1.00218701 47 1 14210 57.42400000 3178489249 3178489249 -1.00000000
38.29560852 -51.77244186 -1.87412858 28 2 14211 64.42400000 3178489251 3178489251 -1.66700000
6.56391525 -8.02239323 -2.90170932 6 3 14211 10.76400000 3178489251 3178489251 -15.63900000
8.62834644 -11.66905785 -2.90253592 1 4 14212 14.80000000 3178489253 3178489253 -11.31000000
38.55137634 -47.13413620 0.00000000 43 5 14212 60.89200000 3178489253 3178489253 0.00000000
38.25382996 -57.42430878 -0.80328131 29 6 14213 69.00400000 3178489256 3178489256 -0.66700000
11.09551144 -13.57055664 -2.72712493 2 7 14213 17.74000000 3178489256 3178489256 -8.84300000
13.08302784 -17.70007133 -2.80163932 4 8 14213 22.18800000 3178489258 3178489258 -7.25400000
38.48365402 -42.63555908 0.33381307 46 9 14213 57.43600000 3178489258 3178489258 0.33300000
38.16044998 -51.64625549 -0.37321785 56 10 14214 64.21600000 3178489260 3178489260 -0.33300000
15.25434303 -18.66373444 -2.59646082 2 11 14214 24.24400000 3178489260 3178489260 -6.14800000
16.52510643 -24.82525635 -2.78386068 4 12 14215 29.95200000 3178489263 3178489263 -5.33300000
40.09001160 -49.06772232 1.47441781 38 13 14215 63.38000000 3178489263 3178489263 1.33300000
42.01710510 -63.14514160 0.88299942 28 14 14216 75.85200000 3178489265 3178489265 0.66700000
19.95566940 -24.43322182 -2.20597863 12 15 14216 31.62400000 3178489265 3178489265 -4.00000000
18.95882225 -25.68695068 -2.60626674 5 16 14217 32.03200000 3178489267 3178489267 -4.66700000
41.70412827 -46.26838303 1.81280577 56 17 14217 62.31600000 3178489267 3178489267 1.66700000
40.29898834 -54.60033798 1.18452978 28 18 14217 67.87200000 3178489270 3178489270 1.00000000
20.07921028 -22.27675438 -1.92205203 13 19 14217 30.05200000 3178489270 3178489270 -3.66700000
20.01602745 -30.10374069 -2.10533023 15 20 14218 36.21200000 3178489272 3178489272 -3.33300000
40.25481415 -49.32211685 3.70764160 43 21 14218 63.77200000 3178489272 3178489272 3.33300000
44.88096619 -60.85282135 3.08056426 28 22 14219 75.67600000 3178489274 3178489274 2.33300000
20.39174652 -24.99384308 -1.50258303 3 23 14219 32.29200000 3178489274 3178489274 -2.66700000
19.99451447 -27.11989975 -1.76581514 13 24 14220 33.74000000 3178489277 3178489277 -3.00000000
38.10144424 -42.33079529 -2.32031488 23 27 14221 57.00000000 3178489279 3178489279 -2.33300000
24.82130814 -37.38737869 -1.56712699 27 28 14222 44.90400000 3178489281 3178489281 -2.00000000
38.62721252 -47.41230774 -1.42305279 26 31 14223 61.17200000 3178489283 3178489283 -1.33300000
3.59829640 -4.90027905 -2.83492327 16 0 14231 6.70800000 3178489304 3178489304 -25.00000000
38.64074326 -43.08093643 -1.01014531 24 1 14231 57.88000000 3178489304 3178489304 -1.00000000
38.31143188 -52.19287109 -1.88425207 28 2 14232 64.77200000 3178489306 3178489306 -1.66700000
6.53932428 -8.05237770 -2.90386581 6 3 14232 10.77200000 3178489306 3178489306 -15.63900000
8.58551979 -11.70060444 -2.90253592 1 4 14233 14.80000000 3178489309 3178489309 -11.31000000
38.53215027 -47.46455383 0.00000000 43 5 14233 61.13600000 3178489309 3178489309 0.00000000
38.25039673 -57.87779617 -0.80765837 29 6 14234 69.38000000 3178489311 3178489311 -0.66700000
11.05815125 -13.62647820 -2.73019958 2 7 14234 17.76000000 3178489311 3178489311 -8.84300000
13.02745342 -17.76070213 -2.80365968 2 8 14234 22.20400000 3178489313 3178489313 -7.25400000
38.44190598 -42.90442276 0.33481273 47 9 14234 57.60800000 3178489313 3178489313 0.33300000
38.11990738 -51.98899078 -0.37468246 56 10 14235 64.46800000 3178489316 3178489316 -0.33300000
15.26350498 -18.81526184 -2.60974097 2 11 14235 24.36800000 3178489316 3178489316 -6.14800000
16.45595169 -24.91889000 -2.78757858 4 12 14236 29.99200000 3178489318 3178489318 -5.33300000
40.06354523 -49.40379715 1.48009408 38 13 14236 63.62400000 3178489318 3178489318 1.33300000
39.16539764 -59.32982254 0.82763445 28 14 14237 71.09600000 3178489320 3178489320 0.66700000
19.95141792 -24.61158752 -2.21546555 12 15 14237 31.76000000 3178489320 3178489320 -4.00000000
18.92579651 -25.83988953 -2.61472869 5 16 14238 32.13600000 3178489323 3178489323 -4.66700000
40.30788422 -45.05025864 1.75927913 56 17 14238 60.47600000 3178489323 3178489323 1.66700000
40.17421722 -54.85092545 1.18676364 28 18 14238 68.00000000 3178489325 3178489325 1.00000000
20.07195473 -22.43349457 -1.92921519 13 19 14238 30.16400000 3178489325 3178489325 -3.66700000
19.94953346 -30.24356842 -2.10998130 15 20 14239 36.29200000 3178489327 3178489327 -3.33300000
40.17179871 -49.59033966 3.71671128 65 21 14239 63.92800000 3178489327 3178489327 3.33300000
44.60569763 -60.94595718 3.07698202 28 22 14240 75.58800000 3178489330 3178489330 2.33300000
20.38298225 -25.17088699 -1.50872517 3 23 14240 32.42400000 3178489330 3178489330 -2.66700000
19.96809769 -27.29293823 -1.77230477 20 24 14241 33.86400000 3178489332 3178489332 -3.00000000
38.10048294 -42.64302063 -2.32975912 23 27 14242 57.23200000 3178489334 3178489334 -2.33300000
24.67311478 -37.46141052 -1.56642902 27 28 14243 44.88400000 3178489336 3178489336 -2.00000000
38.63752747 -47.76448822 -1.42956650 26 31 14243 61.45200000 3178489339 3178489339 -1.33300000
3.57262754 -4.90109158 -2.82816148 15 0 14251 6.69200000 3178489359 3178489359 -25.00000000
38.71356583 -43.46642685 -1.01600933 49 1 14251 58.21600000 3178489359 3178489359 -1.00000000
38.29619217 -52.55571365 -1.89251375 28 2 14252 65.05600000 3178489362 3178489362 -1.66700000
6.51842976 -8.08415127 -2.90710068 6 3 14252 10.78400000 3178489362 3178489362 -15.63900000
8.55848122 -11.74952412 -2.90724277 1 4 14253 14.82400000 3178489364 3178489364 -11.31000000
38.48923111 -47.75136948 0.00000000 64 5 14253 61.33200000 3178489364 3178489364 0.00000000
38.19429779 -58.21165848 -0.81054533 29 6 14253 69.62800000 3178489366 3178489366 -0.66700000
11.02034473 -13.67230511 -2.73204422 2 7 14253 17.77200000 3178489366 3178489366 -8.84300000
12.97472000 -17.81889915 -2.80568004 4 8 14254 22.22000000 3178489369 3178489369 -7.25400000
38.48599625 -43.25650024 0.33650979 48 9 14254 57.90000000 3178489369 3178489369 0.33300000
38.26539612 -52.57125854 -0.37791386 56 10 14255 65.02400000 3178489371 3178489371 -0.33300000
15.20521832 -18.87771988 -2.61102605 2 11 14255 24.38000000 3178489371 3178489371 -6.14800000
16.43217850 -25.07278061 -2.79836011 4 12 14256 30.10800000 3178489373 3178489373 -5.33300000
39.98865891 -49.66481781 1.48372304 38 13 14256 63.78000000 3178489373 3178489373 1.33300000
39.23642349 -59.89107513 0.83354813 28 14 14257 71.60400000 3178489376 3178489376 0.66700000
19.94544792 -24.78055191 -2.22439432 12 15 14257 31.88800000 3178489376 3178489376 -4.00000000
18.87064934 -25.95416451 -2.61961055 5 16 14258 32.19600000 3178489378 3178489378 -4.66700000
43.46991730 -48.92693329 1.90473175 28 17 14258 65.47600000 3178489378 3178489378 1.66700000
40.51874161 -55.72834778 1.20268023 28 18 14258 68.91200000 3178489380 3178489380 1.00000000
20.06776047 -22.58697891 -1.93637848 13 19 14258 30.27600000 3178489380 3178489380 -3.66700000
19.94882393 -30.47338867 -2.12114406 15 20 14259 36.48400000 3178489383 3178489383 -3.33300000
40.07353210 -49.82361221 3.72368813 66 21 14259 64.04800000 3178489383 3178489383 3.33300000
44.29871750 -60.97195435 3.07046866 28 22 14260 75.42800000 3178489385 3178489385 2.33300000
20.35007668 -25.31039047 -1.51281989 3 23 14260 32.51200000 3178489385 3178489385 -2.66700000
19.96425247 -27.48852348 -1.78046918 14 24 14261 34.02000000 3178489387 3178489387 -3.00000000
38.19012070 -43.04482269 -2.34441376 24 27 14262 57.59200000 3178489389 3178489389 -2.33300000
24.76310349 -37.88526917 -1.58052838 9 28 14263 45.28800000 3178489392 3178489392 -2.00000000
38.42464828 -47.85900497 -1.42817068 39 31 14264 61.39200000 3178489394 3178489394 -1.33300000
3.63200569 -5.01926327 -2.88901854 22 0 14271 6.83600000 3178489415 3178489415 -25.00000000
38.68348312 -43.73910522 -1.01922059 50 1 14271 58.40000000 3178489415 3178489415 -1.00000000
38.28825760 -52.93204498 -1.90124094 28 2 14272 65.35600000 3178489417 3178489417 -1.66700000
6.49739313 -8.11587620 -2.91033554 6 3 14272 10.79600000 3178489417 3178489417 -15.63900000
8.51281834 -11.77297020 -2.90567374 1 4 14273 14.81600000 3178489419 3178489419 -11.31000000
38.44977951 -48.04470444 0.00000000 43 5 14273 61.53600000 3178489419 3178489419 0.00000000
38.17856216 -58.63288116 -0.81454986 29 6 14273 69.97200000 3178489422 3178489422 -0.66700000
10.98490047 -13.72611904 -2.73511887 2 7 14273 17.79200000 3178489422 3178489422 -8.84300000
12.91709042 -17.87051392 -2.80668998 2 8 14274 22.22800000 3178489424 3178489424 -7.25400000
38.41687012 -43.48350525 0.33723047 48 9 14274 58.02400000 3178489424 3178489424 0.33300000
38.24797821 -52.93470383 -0.37956446 84 10 14275 65.30800000 3178489426 3178489426 -0.33300000
15.15164948 -18.94620895 -2.61316800 2 11 14275 24.40000000 3178489426 3178489426 -6.14800000
16.37495995 -25.17672729 -2.80356479 4 12 14276 30.16400000 3178489429 3178489429 -5.33300000
39.93490982 -49.95402908 1.48818958 38 13 14276 63.97200000 3178489429 3178489429 1.33300000
38.96826172 -59.93713379 0.83229089 28 14 14277 71.49600000 3178489431 3178489431 0.66700000
19.93853951 -24.94977188 -2.23332334 12 15 14277 32.01600000 3178489431 3178489431 -4.00000000
18.85926628 -26.12978745 -2.63067603 5 16 14278 32.33200000 3178489433 3178489433 -4.66700000
41.19594955 -46.69476700 1.81222391 56 17 14278 62.29600000 3178489433 3178489433 1.66700000
43.90275574 -60.82790756 1.30941916 28 18 14278 75.02800000 3178489436 3178489436 1.00000000
20.05745888 -22.73471832 -1.94303000 14 19 14278 30.38000000 3178489436 3178489436 -3.66700000
19.95110321 -30.71026993 -2.13277173 15 20 14279 36.68400000 3178489438 3178489438 -3.33300000
40.01150513 -50.10360718 3.73415303 44 21 14279 64.22800000 3178489438 3178489438 3.33300000
43.51283264 -60.33203125 3.03057551 28 22 14280 74.44800000 3178489440 3178489440 2.33300000
20.35882378 -25.50305748 -1.52007878 3 23 14280 32.66800000 3178489440 3178489440 -2.66700000
19.95928383 -27.68441391 -1.78863358 14 24 14281 34.17600000 3178489442 3178489442 -3.00000000
38.28269958 -43.45376587 -2.35939407 50 27 14282 57.96000000 3178489445 3178489445 -2.33300000
39.00623703 -60.13324356 -2.50299191 25 28 14283 71.72000000 3178489447 3178489447 -2.00000000
38.49166489 -48.28677750 -1.43691766 27 31 14284 61.76800000 3178489449 3178489449 -1.33300000
3.56668544 -4.96356821 -2.85013747 15 0 14290 6.74400000 3178489470 3178489470 -25.00000000
38.68340683 -44.03239441 -1.02306008 25 1 14290 58.62000000 3178489470 3178489470 -1.00000000
38.27813339 -53.28928375 -1.90950263 28 2 14291 65.64000000 3178489472 3178489472 -1.66700000
6.47284126 -8.14039230 -2.91141391 6 3 14291 10.80000000 3178489472 3178489472 -15.63900000
8.48059464 -11.81069374 -2.90802717 1 4 14292 14.82800000 3178489475 3178489475 -11.31000000
38.39976120 -48.30972290 0.00000000 43 5 14292 61.71200000 3178489475 3178489475 0.00000000
38.19237137 -59.08162689 -0.81902003 29 6 14292 70.35600000 3178489477 3178489477 -0.66700000
10.95653820 -13.78413010 -2.73942327 2 7 14292 17.82000000 3178489477 3178489477 -8.84300000
12.87164116 -17.93259048 -2.80972052 2 8 14293 22.25200000 3178489479 3178489479 -7.25400000
38.59434509 -43.97743988 0.34006670 50 9 14293 58.51200000 3178489479 3178489479 0.33300000
38.23079681 -53.28224182 -0.38114530 84 10 14294 65.58000000 3178489482 3178489482 -0.33300000
15.10110664 -19.01192093 -2.61530995 2 11 14294 24.42000000 3178489482 3178489482 -6.14800000
16.31514359 -25.26769447 -2.80765438 4 12 14295 30.20800000 3178489484 3178489484 -5.33300000
39.78146744 -50.10184479 1.48865485 19 13 14295 63.99200000 3178489484 3178489484 1.33300000
40.15313339 -62.21004105 0.86199892 28 14 14296 74.04800000 3178489486 3178489486 0.66700000
19.94499969 -25.12826920 -2.24336815 12 15 14296 32.16000000 3178489486 3178489486 -4.00000000
18.79806137 -26.22782898 -2.63425612 5 16 14297 32.37600000 3178489489 3178489489 -4.66700000
40.54018784 -46.25978851 1.79011512 56 17 14297 61.53600000 3178489489 3178489489 1.66700000
43.71944046 -60.99916458 1.30997765 28 18 14297 75.06000000 3178489491 3178489491 1.00000000
20.05825424 -22.88816643 -1.95044911 14 19 14297 30.49600000 3178489491 3178489491 -3.66700000
19.95520782 -30.94069672 -2.14416718 15 20 14298 36.88000000 3178489493 3178489493 -3.33300000
39.93943024 -50.35490417 3.74299026 22 21 14298 64.38000000 3178489493 3178489493 3.33300000
43.52429199 -60.77167892 3.04539299 28 22 14299 74.81200000 3178489495 3178489495 2.33300000
20.36598969 -25.68627357 -1.52696538 6 23 14299 32.81600000 3178489495 3178489495 -2.66700000
19.96968269 -27.89335823 -1.79784477 14 24 14300 34.35200000 3178489498 3178489498 -3.00000000
38.27262497 -43.73386765 -2.36769819 25 27 14301 58.16400000 3178489500 3178489500 -2.33300000
38.90833664 -60.42022705 -2.50955296 25 28 14302 71.90800000 3178489502 3178489502 -2.00000000
38.46289062 -48.58032227 -1.44184947 27 31 14303 61.98000000 3178489505 3178489505 -1.33300000
3.60196710 -5.04977179 -2.89239931 17 0 14310 6.84400000 3178489525 3178489525 -25.00000000
38.69773102 -44.36004257 -1.02752793 52 1 14310 58.87600000 3178489525 3178489525 -1.00000000
38.21955490 -53.60162735 -1.91590261 57 2 14311 65.86000000 3178489528 3178489528 -1.66700000
6.44916010 -8.16898441 -2.91357040 6 3 14311 10.80800000 3178489528 3178489528 -15.63900000
8.44386864 -11.84661198 -2.90959620 1 4 14312 14.83600000 3178489530 3178489530 -11.31000000
38.39692307 -48.65384674 0.00000000 43 5 14312 61.98000000 3178489530 3178489530 0.00000000
38.13708115 -59.45024490 -0.82227957 29 6 14312 70.63600000 3178489532 3178489532 -0.66700000
10.92304707 -13.84090710 -2.74311256 2 7 14312 17.84400000 3178489532 3178489532 -8.84300000
12.83659744 -18.01619148 -2.81578135 2 8 14313 22.30000000 3178489535 3178489535 -7.25400000
38.61141205 -44.30790329 0.34157780 51 9 14313 58.77200000 3178489535 3178489535 0.33300000
38.26734161 -53.72813797 -0.38337708 56 10 14314 65.96400000 3178489537 3178489537 -0.33300000
15.05435181 -19.08950043 -2.61873698 2 11 14314 24.45200000 3178489537 3178489537 -6.14800000
16.27196693 -25.39491272 -2.81546164 4 12 14315 30.29200000 3178489539 3178489539 -5.33300000
41.00263596 -52.01159668 1.54113650 20 13 14315 66.24800000 3178489539 3178489539 1.33300000
39.88396072 -62.26898956 0.86088139 28 14 14316 73.95200000 3178489541 3178489541 0.66700000
19.92878723 -25.28862381 -2.25145984 12 15 14316 32.27600000 3178489541 3178489541 -4.00000000
18.73643875 -26.33551598 -2.63848710 5 16 14317 32.42800000 3178489544 3178489544 -4.66700000
40.45983124 -46.49451828 1.79372227 28 17 14317 61.66000000 3178489544 3178489544 1.66700000
43.50624847 -61.15140152 1.30997765 28 18 14317 75.06000000 3178489546 3178489546 1.00000000
20.05685043 -23.04838371 -1.95812404 14 19 14317 30.61600000 3178489546 3178489546 -3.66700000
19.94610214 -31.16487885 -2.15486479 24 20 14318 37.06400000 3178489548 3178489548 -3.33300000
41.55208969 -52.76537704 3.91136074 26 21 14318 67.27600000 3178489548 3178489548 3.33300000
