# .PCD v0.7 - Point Cloud Data file format
VERSION 0.7
FIELDS x y z intensity laser_id azimuth distance_m adjustedtime timestamp vertical_angle
SIZE 4 4 4 1 1 2 8 8 4 8
TYPE F F F U U U F U U F
COUNT 1 1 1 1 1 1 1 1 1 1
WIDTH 506
HEIGHT 1
VIEWPOINT 0 0 0 1 0 0 0
POINTS 506
DATA ascii
36.04878616 -170.91590881 2.03355765 28 14 16389 174.68800000 3181995364 3181995364 0.66700000
14.88811207 -47.19033813 -3.46020007 9 15 16389 49.60400000 3181995364 3181995364 -4.00000000
11.16778469 -42.56906509 -3.59272957 9 16 16390 44.15600000 3181995366 3181995366 -4.66700000
37.23263550 -100.65289307 3.12327600 28 17 16390 107.36400000 3181995366 3181995366 1.66700000
36.07584000 -137.51292419 2.48152280 28 18 16390 142.18800000 3181995369 3181995369 1.00000000
17.76136017 -48.01519394 -3.28102183 22 19 16390 51.30000000 3181995369 3181995369 -3.66700000
9.22373295 -43.80764389 -2.60718632 10 20 16391 44.84400000 3181995371 3181995371 -3.33300000
36.71899033 -116.52867126 7.11528587 42 21 16391 122.38400000 3181995371 3181995371 3.33300000
35.86166000 -136.89117432 5.76529074 28 22 16392 141.62800000 3181995373 3181995373 2.33300000
19.23664665 -61.08518982 -2.98320341 12 23 16392 64.11200000 3181995373 3181995373 -2.66700000
18.96883965 -72.45946503 -3.92540598 28 24 16393 75.00400000 3181995376 3181995376 -3.00000000
37.75382614 -119.95881653 15.44133282 28 25 16393 126.70400000 3181995376 3181995376 7.00000000
36.61427307 -116.55107880 -2.84275579 28 31 16396 122.20000000 3181995382 3181995382 -1.33300000
1.67073393 -6.42784214 -3.09694672 1 0 16403 7.32800000 3181995403 3181995403 -25.00000000
37.07073593 -100.91833496 -1.87662232 28 1 16403 107.52800000 3181995403 3181995403 -1.00000000
36.89199448 -142.03698730 -4.27083969 28 2 16404 146.81200000 3181995405 3181995405 -1.66700000
3.09050536 -9.88599586 -2.89955258 13 3 16404 10.75600000 3181995405 3181995405 -15.63900000
3.50205612 -13.49286079 -2.78800344 17 4 16405 14.21600000 3181995408 3181995408 -11.31000000
6.16680098 -19.75074387 -3.21905279 3 7 16406 20.94000000 3181995410 3181995410 -8.84300000
6.74616957 -26.01057625 -3.42035365 49 8 16406 27.08800000 3181995412 3181995412 -7.25400000
35.54605865 -137.15011597 -0.82345515 28 10 16407 141.68400000 3181995415 3181995415 -0.33300000
9.01160336 -28.87965965 -3.25874901 4 11 16407 30.42800000 3181995415 3181995415 -6.14800000
8.12558842 -39.16812515 -3.73412085 6 12 16408 40.17600000 3181995417 3181995417 -5.33300000
42.63098145 -136.70423889 3.33211923 28 13 16408 143.23600000 3181995417 3181995417 1.33300000
14.76485062 -47.37535477 -3.46996593 9 15 16409 49.74400000 3181995419 3181995419 -4.00000000
11.05805302 -42.75831604 -3.60542250 9 16 16410 44.31200000 3181995422 3181995422 -4.66700000
40.84247208 -111.60729218 3.45874810 28 17 16410 118.89600000 3181995422 3181995422 1.66700000
35.32323837 -136.58482361 2.46253467 28 18 16410 141.10000000 3181995424 3181995424 1.00000000
17.70476532 -48.38054657 -3.30174398 22 19 16410 51.62400000 3181995424 3181995424 -3.66700000
9.03516006 -43.66751480 -2.59695387 10 20 16411 44.66800000 3181995426 3181995426 -3.33300000
39.52473450 -126.97736359 7.74481535 42 21 16411 133.21200000 3181995426 3181995426 3.33300000
42.47291183 -164.46737671 6.92040062 28 22 16412 170.00400000 3181995429 3181995429 2.33300000
19.22625923 -61.80438614 -3.01503062 13 23 16412 64.79600000 3181995429 3181995429 -2.66700000
18.95933533 -73.46898651 -3.97648597 28 24 16413 75.98000000 3181995431 3181995431 -3.00000000
19.81056976 -54.25225449 -2.35304356 24 27 16414 57.80400000 3181995433 3181995433 -2.33300000
8.96357822 -43.47450256 -1.55009604 45 28 16415 44.41600000 3181995435 3181995435 -2.00000000
36.90824890 -118.86398315 -2.89616799 28 31 16415 124.49600000 3181995438 3181995438 -1.33300000
1.64738667 -6.43012285 -3.09525609 1 0 16423 7.32400000 3181995458 3181995458 -25.00000000
37.20859909 -102.39656830 -1.90168405 28 1 16423 108.96400000 3181995458 3181995458 -1.00000000
36.99094772 -144.48892212 -4.34065676 28 2 16424 149.21200000 3181995461 3181995461 -1.66700000
3.04347682 -9.85623837 -2.88769126 15 3 16424 10.71200000 3181995461 3181995461 -15.63900000
3.45299172 -13.49740314 -2.78643441 14 4 16425 14.20800000 3181995463 3181995463 -11.31000000
41.90517807 -135.79313660 0.00000000 28 5 16425 142.11200000 3181995463 3181995463 0.00000000
36.58226776 -179.00785828 -2.12705874 29 6 16425 182.72000000 3181995465 3181995465 -0.66700000
6.11409140 -19.81262779 -3.22581673 3 7 16425 20.98400000 3181995465 3181995465 -8.84300000
6.67302418 -26.10316467 -3.42944503 7 8 16426 27.16000000 3181995468 3181995468 -7.25400000
41.44880295 -114.25177765 0.70638001 28 9 16426 121.54000000 3181995468 3181995468 0.33300000
35.02452850 -137.10671997 -0.82245553 28 10 16427 141.51200000 3181995470 3181995470 -0.33300000
8.92245388 -28.94894600 -3.26303291 4 11 16427 30.46800000 3181995470 3181995470 -6.14800000
8.02460861 -39.37186050 -3.75085092 6 12 16428 40.35600000 3181995472 3181995472 -5.33300000
42.97638321 -139.52360535 3.39716291 28 13 16428 146.03200000 3181995472 3181995472 1.33300000
38.40385818 -188.59251404 2.24062920 28 14 16429 192.47600000 3181995475 3181995475 0.66700000
14.61699867 -47.48380661 -3.47415137 9 15 16429 49.80400000 3181995475 3181995475 -4.00000000
10.91168499 -42.80824661 -3.60639882 9 16 16430 44.32400000 3181995477 3181995477 -4.66700000
40.33015442 -111.41082001 3.44827557 28 17 16430 118.53600000 3181995477 3181995477 1.66700000
34.94800186 -137.10647583 2.46972489 28 18 16430 141.51200000 3181995479 3181995479 1.00000000
17.61458397 -48.65975189 -3.31658220 22 19 16430 51.85600000 3181995479 3181995479 -3.66700000
8.83574581 -43.46791077 -2.58323288 10 20 16431 44.43200000 3181995482 3181995482 -3.33300000
39.98955154 -130.06884766 7.92481375 42 21 16431 136.30800000 3181995482 3181995482 3.33300000
41.70138931 -163.83999634 6.88783455 28 22 16432 169.20400000 3181995484 3181995484 2.33300000
19.20990753 -62.52042770 -3.04667187 13 23 16432 65.47600000 3181995484 3181995484 -2.66700000
18.95384216 -74.52188873 -4.02986860 28 24 16433 77.00000000 3181995486 3181995486 -3.00000000
19.80708694 -54.83605576 -2.37535119 25 27 16434 58.35200000 3181995488 3181995488 -2.33300000
8.81970501 -43.54470825 -1.55149198 9 28 16435 44.45600000 3181995491 3181995491 -2.00000000
36.88951874 -120.35958099 -2.92929459 28 31 16436 125.92000000 3181995493 3181995493 -1.33300000
1.64623034 -6.52019262 -3.13582754 1 0 16443 7.42000000 3181995514 3181995514 -25.00000000
37.24459839 -103.62104797 -1.92199862 28 1 16443 110.12800000 3181995514 3181995514 -1.00000000
36.94998550 -146.45478821 -4.39581251 28 2 16444 151.10800000 3181995516 3181995516 -1.66700000
3.02590775 -9.92206764 -2.90386581 12 3 16444 10.77200000 3181995516 3181995516 -15.63900000
3.40489721 -13.50557137 -2.78565001 12 4 16445 14.20400000 3181995518 3181995518 -11.31000000
36.85961533 -120.93973541 0.00000000 28 5 16445 126.43200000 3181995518 3181995518 0.00000000
37.17413330 -185.19711304 -2.19904709 29 6 16445 188.90400000 3181995521 3181995521 -0.66700000
6.05526590 -19.86787605 -3.23135090 3 7 16445 21.02000000 3181995521 3181995521 -8.84300000
6.61676311 -26.26482010 -3.44762754 3 8 16446 27.30400000 3181995523 3181995523 -7.25400000
40.99570084 -114.24517059 0.70545006 28 9 16446 121.38000000 3181995523 3181995523 0.33300000
35.08278275 -139.36154175 -0.83524173 28 10 16447 143.71200000 3181995525 3181995525 -0.33300000
8.84914303 -29.07122612 -3.27331424 4 11 16447 30.56400000 3181995525 3181995525 -6.14800000
7.92621469 -39.59489441 -3.76943970 6 12 16448 40.55600000 3181995528 3181995528 -5.33300000
42.78004837 -140.62921143 3.42042613 28 13 16448 147.03200000 3181995528 3181995528 1.33300000
14.54981518 -47.85904694 -3.49786854 9 15 16449 50.14400000 3181995530 3181995530 -4.00000000
10.81852150 -43.07033920 -3.62527537 9 16 16450 44.55600000 3181995532 3181995532 -4.66700000
40.01244736 -111.75042725 3.45444274 28 17 16450 118.74800000 3181995532 3181995532 1.66700000
34.74395370 -138.32147217 2.48941135 28 18 16450 142.64000000 3181995535 3181995535 1.00000000
17.50248528 -48.88254166 -3.32758284 22 19 16450 52.02800000 3181995535 3181995535 -3.66700000
8.71914005 -43.67470551 -2.59369802 10 20 16451 44.61200000 3181995537 3181995537 -3.33300000
41.05825043 -163.70156860 6.87594795 28 22 16452 168.91200000 3181995539 3181995539 2.33300000
19.19923210 -63.27151108 -3.07998824 14 23 16452 66.19200000 3181995539 3181995539 -2.66700000
18.92083359 -75.49427032 -4.07885504 28 24 16453 77.93600000 3181995541 3181995541 -3.00000000
41.18598557 -135.81466675 17.42585373 28 25 16453 142.98800000 3181995541 3181995541 7.00000000
19.74598122 -55.26993942 -2.39114571 26 27 16454 58.74000000 3181995544 3181995544 -2.33300000
8.66063309 -43.53994370 -1.55023563 9 28 16455 44.42000000 3181995546 3181995546 -2.00000000
36.52708435 -120.67899323 -2.93394732 28 31 16456 126.12000000 3181995548 3181995548 -1.33300000
1.63571310 -6.57515144 -3.15949416 1 0 16463 7.47600000 3181995569 3181995569 -25.00000000
37.16800690 -104.55308533 -1.93686807 28 1 16463 110.98000000 3181995569 3181995569 -1.00000000
37.08865738 -149.19813538 -4.47424030 28 2 16464 153.80400000 3181995571 3181995571 -1.66700000
3.00125170 -9.96576405 -2.91357040 11 3 16464 10.80800000 3181995571 3181995571 -15.63900000
3.35111403 -13.49072742 -2.78015876 14 4 16465 14.17600000 3181995574 3181995574 -11.31000000
40.85816193 -135.75680542 0.00000000 28 5 16465 141.77200000 3181995574 3181995574 0.00000000
5.99840689 -19.93052483 -3.23811507 3 7 16465 21.06400000 3181995576 3181995576 -8.84300000
6.53938007 -26.34552193 -3.45520377 3 8 16466 27.36400000 3181995578 3181995578 -7.25400000
8.77279758 -29.18572807 -3.28273869 4 11 16467 30.65200000 3181995581 3181995581 -6.14800000
7.81560659 -39.76300430 -3.78282356 6 12 16468 40.70000000 3181995583 3181995583 -5.33300000
42.34642410 -140.96917725 3.42507863 28 13 16468 147.23200000 3181995583 3181995583 1.33300000
37.26742935 -189.77833557 2.25157166 28 14 16469 193.41600000 3181995585 3181995585 0.66700000
14.44921112 -48.13120651 -3.51405215 9 15 16469 50.37600000 3181995585 3181995585 -4.00000000
10.69971657 -43.23554993 -3.63601565 9 16 16470 44.68800000 3181995588 3181995588 -4.66700000
39.77160263 -112.31154633 3.46747541 28 17 16470 119.19600000 3181995588 3181995588 1.66700000
34.21287155 -138.24780273 2.48592067 28 18 16470 142.44000000 3181995590 3181995590 1.00000000
17.35173416 -48.99978256 -3.33142042 22 19 16470 52.08800000 3181995590 3181995590 -3.66700000
8.56893826 -43.71662903 -2.59439564 20 20 16471 44.62400000 3181995592 3181995592 -3.33300000
38.72386932 -129.15527344 7.85248852 42 21 16471 135.06400000 3181995592 3181995592 3.33300000
19.17666435 -64.00030518 -3.11218762 15 23 16472 66.88400000 3181995594 3181995594 -2.66700000
18.85923958 -76.37812805 -4.12302685 28 24 16473 78.78000000 3181995597 3181995597 -3.00000000
39.65932465 -132.44332886 16.97542381 28 25 16473 139.29200000 3181995597 3181995597 7.00000000
19.69939804 -55.75305176 -2.40905690 27 27 16474 59.18000000 3181995599 3181995599 -2.33300000
8.52928448 -43.67584229 -1.55400479 9 28 16475 44.52800000 3181995601 3181995601 -2.00000000
36.82131195 -123.20041656 -2.99210501 28 31 16476 128.62000000 3181995604 3181995604 -1.33300000
1.60930002 -6.56673670 -3.15273213 0 0 16483 7.46000000 3181995624 3181995624 -25.00000000
37.33340836 -106.19139862 -1.96479189 28 1 16483 112.58000000 3181995624 3181995624 -1.00000000
37.01936722 -151.17137146 -4.52951241 28 2 16484 155.70400000 3181995627 3181995627 -1.66700000
2.93570590 -9.87279987 -2.88337803 13 3 16484 10.69600000 3181995627 3181995627 -15.63900000
3.30866361 -13.52139282 -2.78408098 5 4 16485 14.19600000 3181995629 3181995629 -11.31000000
40.05132675 -134.77899170 0.00000000 28 5 16485 140.60400000 3181995629 3181995629 0.00000000
8.54955292 -44.18948746 -0.52398843 24 6 16485 45.01200000 3181995631 3181995631 -0.66700000
5.93893290 -19.98543930 -3.24364924 3 7 16485 21.10000000 3181995631 3181995631 -8.84300000
6.47282362 -26.47225952 -3.46884060 3 8 16486 27.47200000 3181995634 3181995634 -7.25400000
37.26282120 -152.51113892 -0.91247046 28 10 16487 157.00000000 3181995636 3181995636 -0.33300000
8.67878819 -29.24286270 -3.28573751 4 11 16487 30.68000000 3181995636 3181995636 -6.14800000
7.71448374 -39.98557281 -3.80141234 6 12 16488 40.90000000 3181995638 3181995638 -5.33300000
40.41680908 -136.27015686 3.30746031 28 13 16488 142.17600000 3181995638 3181995638 1.33300000
14.29358768 -48.22343445 -3.51712132 9 15 16489 50.42000000 3181995640 3181995640 -4.00000000
10.56478310 -43.33848190 -3.64154840 9 16 16490 44.75600000 3181995643 3181995643 -4.66700000
40.09437943 -164.47375488 2.95497155 28 18 16490 169.31600000 3181995645 3181995645 1.00000000
17.25315094 -49.26726532 -3.34549093 22 19 16490 52.30800000 3181995645 3181995645 -3.66700000
38.31360245 -129.42750549 7.86086082 42 21 16491 135.20800000 3181995647 3181995647 3.33300000
40.63560486 -166.94718933 7.00018692 28 22 16492 171.96400000 3181995650 3181995650 2.33300000
19.16057396 -64.76802826 -3.14624834 15 23 16492 67.61600000 3181995650 3181995650 -2.66700000
18.71240616 -76.93642426 -4.14961338 28 24 16493 79.28800000 3181995652 3181995652 -3.00000000
40.34938431 -136.47961426 17.47460175 28 25 16493 143.38800000 3181995652 3181995652 7.00000000
19.63122177 -56.18368149 -2.42468834 27 27 16494 59.56400000 3181995654 3181995654 -2.33300000
8.34968567 -43.56401062 -1.54897928 9 28 16495 44.38400000 3181995657 3181995657 -2.00000000
36.67284012 -124.28321838 -3.01527524 28 31 16496 129.61600000 3181995659 3181995659 -1.33300000
1.60337996 -6.64279509 -3.18654180 0 0 16503 7.54000000 3181995680 3181995680 -25.00000000
37.26981354 -107.20503235 -1.98112738 28 1 16503 113.51600000 3181995680 3181995680 -1.00000000
2.88820577 -9.83863544 -2.87043858 14 3 16504 10.64800000 3181995682 3181995682 -15.63900000
3.30004215 -13.69301128 -2.81702876 10 4 16505 14.36400000 3181995684 3181995684 -11.31000000
39.57723618 -134.90646362 0.00000000 28 5 16505 140.59200000 3181995684 3181995684 0.00000000
8.40121937 -44.25049591 -0.52436095 24 6 16505 45.04400000 3181995687 3181995687 -0.66700000
5.87914801 -20.04018211 -3.24918342 3 7 16505 21.13600000 3181995687 3181995687 -8.84300000
6.40824890 -26.61042213 -3.48399282 3 8 16506 27.59200000 3181995689 3181995689 -7.25400000
37.07554245 -154.07530212 -0.92104882 28 10 16507 158.47600000 3181995691 3181995691 -0.33300000
8.60796833 -29.37984276 -3.29773235 4 11 16507 30.79200000 3181995691 3181995691 -6.14800000
7.51633644 -39.70311737 -3.77204204 6 12 16508 40.58400000 3181995693 3181995693 -5.33300000
14.16327000 -48.40324402 -3.52660823 9 15 16509 50.55600000 3181995696 3181995696 -4.00000000
10.45625114 -43.55341721 -3.65651941 9 16 16510 44.94000000 3181995698 3181995698 -4.66700000
39.52748489 -164.64381409 2.95553017 28 18 16510 169.34800000 3181995700 3181995700 1.00000000
17.20385361 -49.68176270 -3.36953902 23 19 16510 52.68400000 3181995700 3181995700 -3.66700000
8.21094131 -43.49678802 -2.57788420 30 20 16511 44.34000000 3181995703 3181995703 -3.33300000
39.56861496 -135.40182495 8.21527576 42 21 16511 141.30400000 3181995703 3181995703 3.33300000
19.13375473 -65.51722717 -3.17937851 16 23 16512 68.32800000 3181995705 3181995705 -2.66700000
18.58330536 -77.58396912 -4.18101501 28 24 16513 79.88800000 3181995707 3181995707 -3.00000000
39.81711960 -136.42906189 17.45022774 28 25 16513 143.18800000 3181995707 3181995707 7.00000000
19.56550026 -56.62962341 -2.44097137 28 27 16514 59.96400000 3181995710 3181995710 -2.33300000
8.20569515 -43.63610458 -1.55051482 9 28 16515 44.42800000 3181995712 3181995712 -2.00000000
1.58469844 -6.66218281 -3.19330359 0 0 16522 7.55600000 3181995735 3181995735 -25.00000000
37.17295456 -108.08064270 -1.99501944 28 1 16522 114.31200000 3181995735 3181995735 -1.00000000
37.29500961 -156.91246033 -4.69381571 28 2 16523 161.35200000 3181995737 3181995737 -1.66700000
2.89203620 -9.97394371 -2.90710068 12 3 16523 10.78400000 3181995737 3181995737 -15.63900000
3.24645925 -13.66953373 -2.80996847 15 4 16524 14.32800000 3181995740 3181995740 -11.31000000
39.32447815 -135.70930481 0.00000000 28 5 16524 141.29200000 3181995740 3181995740 0.00000000
8.25183105 -44.30707932 -0.52468687 36 6 16525 45.07200000 3181995742 3181995742 -0.66700000
5.82015276 -20.09854698 -3.25533247 3 7 16525 21.17600000 3181995742 3181995742 -8.84300000
6.33004856 -26.67399597 -3.48954868 3 8 16525 27.63600000 3181995744 3181995744 -7.25400000
39.33495331 -165.88121033 -0.99083829 28 10 16526 170.48400000 3181995746 3181995746 -0.33300000
8.52818298 -29.46934891 -3.30458665 4 11 16526 30.85600000 3181995746 3181995746 -6.14800000
7.36716700 -39.63385010 -3.76311946 6 12 16527 40.48800000 3181995749 3181995749 -5.33300000
39.25612259 -135.73924255 3.28801227 28 13 16527 141.34000000 3181995749 3181995749 1.33300000
14.07691002 -48.70677948 -3.54530311 9 15 16528 50.82400000 3181995751 3181995751 -4.00000000
17.14152527 -50.06629944 -3.39154029 23 19 16530 53.02800000 3181995756 3181995756 -3.66700000
8.06083393 -43.49236679 -2.57602382 30 20 16530 44.30800000 3181995758 3181995758 -3.33300000
38.26116562 -132.55891418 8.03504562 42 21 16530 138.20400000 3181995758 3181995758 3.33300000
39.35129547 -166.59756470 6.97413397 28 22 16531 171.32400000 3181995760 3181995760 2.33300000
19.13011169 -66.32126617 -3.21530056 17 23 16531 69.10000000 3181995760 3181995760 -2.66700000
18.43052864 -78.08836365 -4.20488024 28 24 16532 80.34400000 3181995763 3181995763 -3.00000000
19.51978874 -57.11019897 -2.45888257 28 27 16533 60.40400000 3181995765 3181995765 -2.33300000
36.31461334 -126.14538574 -3.05454326 28 31 16534 131.30400000 3181995770 3181995770 -1.33300000
1.55647397 -6.64649534 -3.18316078 0 0 16542 7.53200000 3181995790 3181995790 -25.00000000
36.87528229 -108.44450378 -1.99934769 28 1 16542 114.56000000 3181995790 3181995790 -1.00000000
2.84342575 -9.93583584 -2.89308286 15 3 16543 10.73200000 3181995793 3181995793 -15.63900000
3.18979383 -13.64258957 -2.80212379 3 4 16544 14.28800000 3181995795 3181995795 -11.31000000
38.92091751 -136.09187317 0.00000000 28 5 16544 141.54800000 3181995795 3181995795 0.00000000
8.08921623 -44.29233170 -0.52417469 24 6 16545 45.02800000 3181995797 3181995797 -0.66700000
5.76082182 -20.15674400 -3.26148152 3 7 16545 21.21600000 3181995797 3181995797 -8.84300000
6.24683046 -26.73843193 -3.49510455 3 8 16545 27.68000000 3181995799 3181995799 -7.25400000
8.45584488 -29.60601234 -3.31658149 4 11 16546 30.96800000 3181995802 3181995802 -6.14800000
7.24448538 -39.74552155 -3.77129841 6 12 16547 40.57600000 3181995804 3181995804 -5.33300000
38.79523849 -135.92158508 3.28912878 28 13 16547 141.38800000 3181995804 3181995804 1.33300000
14.00312233 -49.09329605 -3.56985736 9 15 16548 51.17600000 3181995806 3181995806 -4.00000000
9.12777233 -39.19327545 -3.28517199 25 16 16549 40.37600000 3181995809 3181995809 -4.66700000
38.49568939 -165.29467773 2.96244121 28 18 16549 169.74400000 3181995811 3181995811 1.00000000
16.99077225 -50.16823959 -3.39461040 23 19 16549 53.07600000 3181995811 3181995811 -3.66700000
7.90325594 -43.48880768 -2.57416320 30 20 16550 44.27600000 3181995813 3181995813 -3.33300000
38.53665543 -135.28398132 8.19202042 42 21 16550 140.90400000 3181995813 3181995813 3.33300000
38.76409149 -166.71055603 6.97315693 28 22 16551 171.30000000 3181995816 3181995816 2.33300000
19.11509895 -67.14855194 -3.25215340 18 23 16551 69.89200000 3181995816 3181995816 -2.66700000
18.27987862 -78.67749023 -4.23314142 28 24 16552 80.88400000 3181995818 3181995818 -3.00000000
19.50711250 -57.73080063 -2.48265553 28 27 16553 60.98800000 3181995820 3181995820 -2.33300000
1.53977799 -6.68014860 -3.19668460 0 0 16562 7.56400000 3181995845 3181995845 -25.00000000
36.91831589 -109.82736206 -2.02245474 28 1 16562 115.88400000 3181995845 3181995845 -1.00000000
37.27013016 -161.82118225 -4.83275223 28 2 16563 166.12800000 3181995847 3181995847 -1.66700000
2.85374069 -10.10509872 -2.93944979 13 3 16563 10.90400000 3181995847 3181995847 -15.63900000
3.17909884 -13.81418228 -2.83507156 19 4 16564 14.45600000 3181995850 3181995850 -11.31000000
38.05994415 -134.86029053 0.00000000 28 5 16564 140.12800000 3181995850 3181995850 0.00000000
7.93664837 -44.28741837 -0.52380216 36 6 16564 44.99600000 3181995852 3181995852 -0.66700000
5.70575666 -20.21757889 -3.26824570 3 7 16564 21.26000000 3181995852 3181995852 -8.84300000
6.17657757 -26.86061859 -3.50823641 3 8 16565 27.78400000 3181995854 3181995854 -7.25400000
44.66626740 -133.10725403 0.81601596 28 9 16565 140.40400000 3181995854 3181995854 0.33300000
38.71783829 -168.51026917 -1.00490308 28 10 16566 172.90400000 3181995857 3181995857 -0.33300000
8.36215878 -29.66979980 -3.32043695 4 11 16566 31.00400000 3181995857 3181995857 -6.14800000
7.06227350 -39.52748871 -3.74824834 6 12 16567 40.32800000 3181995859 3181995859 -5.33300000
38.18936539 -135.59043884 3.27786946 28 13 16567 140.90400000 3181995859 3181995859 1.33300000
13.83275032 -49.14571762 -3.57013631 9 15 16568 51.18000000 3181995861 3181995861 -4.00000000
8.98556232 -39.20158386 -3.28321934 25 16 16569 40.35200000 3181995863 3181995863 -4.66700000
44.21376419 -132.06440735 4.05312586 28 17 16569 139.32800000 3181995863 3181995863 1.66700000
38.53680420 -168.12567139 3.01074958 28 18 16569 172.51200000 3181995866 3181995866 1.00000000
16.86877441 -50.38622284 -3.40535522 23 19 16569 53.24400000 3181995866 3181995866 -3.66700000
7.74860239 -43.50040436 -2.57323313 30 20 16570 44.26000000 3181995868 3181995868 -3.33300000
37.61899567 -133.83383179 8.09620762 42 21 16570 139.25600000 3181995868 3181995868 3.33300000
38.46099091 -168.06428528 7.02412271 28 22 16571 172.55200000 3181995870 3181995870 2.33300000
19.09994316 -67.99576569 -3.28993654 18 23 16571 70.70400000 3181995870 3181995870 -2.66700000
18.08348656 -79.08349609 -4.25156355 28 24 16572 81.23600000 3181995873 3181995873 -3.00000000
19.49033737 -58.35199738 -2.50642872 28 27 16573 61.57200000 3181995875 3181995875 -2.33300000
7.68470192 -43.31680679 -1.53627586 8 28 16574 44.02000000 3181995877 3181995877 -2.00000000
36.81149292 -131.31289673 -3.17337155 28 31 16574 136.41200000 3181995880 3181995880 -1.33300000
1.51244092 -6.66780567 -3.18823218 0 0 16582 7.54400000 3181995900 3181995900 -25.00000000
36.98997116 -111.32568359 -2.04765606 28 1 16582 117.32800000 3181995900 3181995900 -1.00000000
2.81017876 -10.08531380 -2.93082333 18 3 16583 10.87200000 3181995903 3181995903 -15.63900000
3.13259149 -13.83284664 -2.83664060 10 4 16584 14.46400000 3181995905 3181995905 -11.31000000
37.74240112 -135.54335022 0.00000000 28 5 16584 140.70000000 3181995905 3181995905 0.00000000
7.77509022 -44.27545547 -0.52333653 36 6 16584 44.95600000 3181995907 3181995907 -0.66700000
5.64257097 -20.26402664 -3.27254987 3 7 16584 21.28800000 3181995907 3181995907 -8.84300000
6.09416342 -26.93232727 -3.51480222 3 8 16585 27.83600000 3181995910 3181995910 -7.25400000
43.92558289 -132.43092346 0.81092471 28 9 16585 139.52800000 3181995910 3181995910 0.33300000
38.20348740 -168.97212219 -1.00685596 28 10 16586 173.24000000 3181995912 3181995912 -0.33300000
8.29902935 -29.84440994 -3.33671570 4 11 16586 31.15600000 3181995912 3181995912 -6.14800000
6.95859385 -39.74805450 -3.76683712 6 12 16587 40.52800000 3181995914 3181995914 -5.33300000
37.67193604 -135.56494141 3.27405429 28 13 16587 140.74000000 3181995914 3181995914 1.33300000
13.76147842 -49.55511093 -3.59636474 9 15 16588 51.55600000 3181995916 3181995916 -4.00000000
8.84165096 -39.20159531 -3.28061557 25 16 16589 40.32000000 3181995919 3181995919 -4.66700000
43.42842865 -131.23860168 4.02310467 28 17 16589 138.29600000 3181995919 3181995919 1.66700000
38.03153229 -168.62199402 3.01724172 28 18 16589 172.88400000 3181995921 3181995921 1.00000000
16.76677895 -50.66839218 -3.42044926 23 19 16589 53.48000000 3181995921 3181995921 -3.66700000
7.59396410 -43.51145172 -2.57230282 30 20 16590 44.24400000 3181995923 3181995923 -3.33300000
37.15159988 -133.96434021 8.09620762 42 21 16590 139.25600000 3181995923 3181995923 3.33300000
38.25690079 -169.89750671 7.09511614 28 22 16591 174.29600000 3181995926 3181995926 2.33300000
19.07376862 -68.82442474 -3.32678914 19 23 16591 71.49600000 3181995926 3181995926 -2.66700000
17.96602821 -79.85150909 -4.28945494 28 24 16592 81.96000000 3181995928 3181995928 -3.00000000
19.42936897 -58.85232925 -2.52499127 28 27 16593 62.02800000 3181995930 3181995930 -2.33300000
7.58000040 -43.61118317 -1.54576850 9 28 16594 44.29200000 3181995933 3181995933 -2.00000000
36.45949936 -131.82601929 -3.18267679 28 31 16594 136.81200000 3181995935 3181995935 -1.33300000
1.48599827 -6.65889168 -3.18147016 0 0 16602 7.52800000 3181995956 3181995956 -25.00000000
36.85071182 -112.21408081 -2.06161785 28 1 16602 118.12800000 3181995956 3181995956 -1.00000000
39.02234650 -175.00631714 -5.21825981 28 2 16603 179.38000000 3181995958 3181995958 -1.66700000
2.78312492 -10.12477493 -2.93944979 14 3 16603 10.90400000 3181995958 3181995958 -15.63900000
3.43058681 -15.39805031 -3.15513492 18 4 16604 16.08800000 3181995960 3181995960 -11.31000000
37.21393967 -135.47370911 0.00000000 28 5 16604 140.49200000 3181995960 3181995960 0.00000000
7.61303425 -44.25896454 -0.52282435 36 6 16604 44.91200000 3181995963 3181995963 -0.66700000
5.58331823 -20.32552338 -3.27931404 3 7 16604 21.33200000 3181995963 3181995963 -8.84300000
6.02856779 -27.08125114 -3.53146958 7 8 16605 27.96800000 3181995965 3181995965 -7.25400000
43.64247131 -133.13076782 0.81427234 28 9 16605 140.10400000 3181995965 3181995965 0.33300000
39.46674728 -177.43667603 -1.05646646 28 10 16606 181.77600000 3181995967 3181995967 -0.33300000
8.20532322 -29.91155052 -3.34099960 4 11 16606 31.19600000 3181995967 3181995967 -6.14800000
7.02442551 -40.96541977 -3.87985730 6 12 16607 41.74400000 3181995969 3181995969 -5.33300000
37.64676285 -137.33082581 3.31350875 28 13 16607 142.43600000 3181995969 3181995969 1.33300000
13.60001183 -49.64517975 -3.59943414 9 15 16608 51.60000000 3181995972 3181995972 -4.00000000
8.70562172 -39.23611450 -3.28094101 8 16 16609 40.32400000 3181995974 3181995974 -4.66700000
43.00236893 -131.48820496 4.02612972 28 17 16609 138.40000000 3181995974 3181995974 1.66700000
37.35611725 -168.50254822 3.01263452 28 18 16610 172.62000000 3181995976 3181995976 1.00000000
16.69753265 -51.08616638 -3.44449735 23 19 16610 53.85600000 3181995976 3181995976 -3.66700000
7.43665218 -43.50620651 -2.57044244 30 20 16610 44.21200000 3181995979 3181995979 -3.33300000
37.35390854 -136.54289246 8.24411297 42 21 16610 141.80000000 3181995979 3181995979 3.33300000
19.03993034 -69.64601898 -3.36326957 20 23 16611 72.28000000 3181995981 3181995981 -2.66700000
17.77868652 -80.32715607 -4.31164551 28 24 16612 82.38400000 3181995983 3181995983 -3.00000000
19.45439911 -59.62651062 -2.55527735 28 27 16613 62.77200000 3181995986 3181995986 -2.33300000
7.43778467 -43.69649124 -1.54786253 9 28 16614 44.35200000 3181995988 3181995988 -2.00000000
36.36644745 -133.29888916 -3.21515203 28 31 16614 138.20800000 3181995990 3181995990 -1.33300000
36.96125031 -113.89028931 -2.09003043 28 1 16622 119.75600000 3181996011 3181996011 -1.00000000
38.44377136 -175.28987122 -5.22268152 28 2 16623 179.53200000 3181996013 3181996013 -1.66700000
2.73869395 -10.10096931 -2.92974496 14 3 16623 10.86800000 3181996013 3181996013 -15.63900000
3.37261868 -15.39077377 -3.15121269 18 4 16624 16.06800000 3181996015 3181996015 -11.31000000
36.79312515 -135.79582214 0.00000000 28 5 16624 140.69200000 3181996015 3181996015 0.00000000
7.43550348 -44.19585419 -0.52175337 23 6 16625 44.82000000 3181996018 3181996018 -0.66700000
5.52221251 -20.39544678 -3.28730774 3 7 16625 21.38400000 3181996018 3181996018 -8.84300000
5.93909216 -27.12538528 -3.53450012 7 8 16625 27.99200000 3181996020 3181996020 -7.25400000
42.85698318 -132.29293823 0.80822796 28 9 16625 139.06400000 3181996020 3181996020 0.33300000
38.81978226 -177.44831848 -1.05572248 28 10 16626 181.64800000 3181996022 3181996022 -0.33300000
8.11852074 -30.00527191 -3.34828210 4 11 16626 31.26400000 3181996022 3181996022 -6.14800000
6.90776253 -41.14680099 -3.89472818 6 12 16627 41.90400000 3181996025 3181996025 -5.33300000
36.83837509 -136.24540710 3.28419709 28 13 16627 141.17600000 3181996025 3181996025 1.33300000
13.48804379 -49.91962433 -3.61589646 19 15 16628 51.83600000 3181996027 3181996027 -4.00000000
8.69525528 -39.84663010 -3.32943416 8 16 16629 40.92000000 3181996029 3181996029 -4.66700000
43.19234085 -133.64630127 4.08756924 28 17 16629 140.51200000 3181996029 3181996029 1.66700000
37.28998184 -170.88400269 3.05298448 28 18 16629 174.93200000 3181996032 3181996032 1.00000000
16.54276466 -51.18684006 -3.44756722 23 19 16629 53.90400000 3181996032 3181996032 -3.66700000
7.28078747 -43.50827026 -2.56904697 30 20 16630 44.18800000 3181996034 3181996034 -3.33300000
36.86561203 -136.63003540 8.24155521 42 21 16630 141.75600000 3181996034 3181996034 3.33300000
19.03803444 -70.60708618 -3.40645051 21 23 16631 73.20800000 3181996036 3181996036 -2.66700000
17.64686203 -81.07176971 -4.34828043 28 24 16632 83.08400000 3181996039 3181996039 -3.00000000
19.43010712 -60.26463699 -2.57970166 28 27 16633 63.37200000 3181996041 3181996041 -2.33300000
7.24841595 -43.50136948 -1.54004502 8 28 16634 44.12800000 3181996043 3181996043 -2.00000000
36.24314117 -134.79063416 -3.24790668 28 31 16635 139.61600000 3181996045 3181996045 -1.33300000
36.93595886 -115.18016052 -2.11132240 28 1 16642 120.97600000 3181996066 3181996066 -1.00000000
2.72033334 -10.17372704 -2.94807625 9 3 16643 10.93600000 3181996068 3181996068 -15.63900000
3.33044124 -15.45613384 -3.16219521 8 4 16644 16.12400000 3181996071 3181996071 -11.31000000
36.22388840 -135.56790161 0.00000000 28 5 16644 140.32400000 3181996071 3181996071 0.00000000
7.26494026 -44.12287521 -0.52058923 23 6 16645 44.72000000 3181996073 3181996073 -0.66700000
5.46220160 -20.45660400 -3.29407191 3 7 16645 21.42800000 3181996073 3181996073 -8.84300000
5.85522747 -27.19638062 -3.54106617 7 8 16645 28.04400000 3181996075 3181996075 -7.25400000
42.87295151 -133.93505859 0.81734103 28 9 16645 140.63200000 3181996075 3181996075 0.33300000
38.21695709 -177.66094971 -1.05618751 28 10 16646 181.72800000 3181996078 3181996078 -0.33300000
8.04449177 -30.14870453 -3.36113381 4 11 16646 31.38400000 3181996078 3181996078 -6.14800000
6.79702091 -41.37108994 -3.91368890 6 12 16647 42.10800000 3181996080 3181996080 -5.33300000
36.54698563 -137.06480408 3.30085349 28 13 16647 141.89200000 3181996080 3181996080 1.33300000
13.39076233 -50.25558090 -3.63682342 9 15 16648 52.13600000 3181996082 3181996082 -4.00000000
8.85386086 -41.26443100 -3.44529724 8 16 16649 42.34400000 3181996085 3181996085 -4.66700000
42.77543259 -133.95242310 4.09233999 28 17 16649 140.67600000 3181996085 3181996085 1.66700000
16.49391937 -51.65115356 -3.47494102 24 19 16649 54.33200000 3181996087 3181996087 -3.66700000
7.12177229 -43.49007034 -2.56648898 30 20 16650 44.14400000 3181996089 3181996089 -3.33300000
37.01377487 -139.10800171 8.38318157 42 21 16650 144.19200000 3181996089 3181996089 3.33300000
19.00706863 -71.48402405 -3.44553661 22 23 16651 74.04800000 3181996092 3181996092 -2.66700000
17.44735718 -81.52348328 -4.36921501 28 24 16652 83.48400000 3181996094 3181996094 -3.00000000
19.39916992 -60.89569473 -2.60380054 28 27 16653 63.96400000 3181996096 3181996096 -2.33300000
36.21951294 -136.50639343 -3.28633738 28 31 16654 141.26800000 3181996101 3181996101 -1.33300000
37.17873383 -117.34432220 -2.14860058 28 1 16662 123.11200000 3181996121 3181996121 -1.00000000
2.74765229 -10.42153835 -3.01708746 10 3 16663 11.19200000 3181996124 3181996124 -15.63900000
3.32605076 -15.70173264 -3.21004772 6 4 16664 16.36800000 3181996126 3181996126 -11.31000000
35.44472122 -134.53311157 0.00000000 28 5 16664 139.12400000 3181996126 3181996126 0.00000000
7.10011864 -44.03221130 -0.51923889 23 6 16664 44.60400000 3181996128 3181996128 -0.66700000
5.40440464 -20.51282501 -3.30022097 3 7 16664 21.46800000 3181996128 3181996128 -8.84300000
5.78737164 -27.34475899 -3.55773354 7 8 16665 28.17600000 3181996131 3181996131 -7.25400000
39.46597672 -186.63362122 -1.10870385 28 10 16666 190.76400000 3181996133 3181996133 -0.33300000
7.95134687 -30.22275543 -3.36627436 4 11 16666 31.43200000 3181996133 3181996133 -6.14800000
6.67531776 -41.53612518 -3.92707276 6 12 16667 42.25200000 3181996135 3181996135 -5.33300000
36.20660019 -137.71752930 3.31350875 28 13 16667 142.43600000 3181996135 3181996135 1.33300000
13.22742271 -50.34832764 -3.64017177 9 15 16668 52.18400000 3181996138 3181996138 -4.00000000
8.41933250 -39.91806412 -3.33041072 8 16 16669 40.93200000 3181996140 3181996140 -4.66700000
42.26789474 -133.97509766 4.08850002 28 17 16669 140.54400000 3181996140 3181996140 1.66700000
16.31952858 -51.72744751 -3.47622013 24 19 16669 54.35200000 3181996142 3181996142 -3.66700000
6.97181463 -43.52649307 -2.56718659 30 20 16670 44.15600000 3181996145 3181996145 -3.33300000
36.01625061 -137.28578186 8.26574135 42 21 16670 142.17200000 3181996145 3181996145 3.33300000
18.97021294 -72.36159515 -3.48462272 22 23 16671 74.88800000 3181996147 3181996147 -2.66700000
9.21247292 -43.79206848 -2.34527898 11 24 16672 44.81200000 3181996149 3181996149 -3.00000000
19.38085747 -61.58063889 -2.63017869 28 27 16673 64.61200000 3181996151 3181996151 -2.33300000
6.94265652 -43.53907013 -1.53962624 35 28 16674 44.11600000 3181996154 3181996154 -2.00000000
35.71895218 -136.63822937 -3.28633738 28 31 16675 141.26800000 3181996156 3181996156 -1.33300000
37.00543976 -118.22911072 -2.16242290 28 1 16682 123.90400000 3181996177 3181996177 -1.00000000
9.10849380 -43.71423340 -1.29953229 10 2 16683 44.67200000 3181996179 3181996179 -1.66700000
2.69381571 -10.36396122 -2.99767804 10 3 16683 11.12000000 3181996179 3181996179 -15.63900000
3.26162815 -15.66716671 -3.20063424 6 4 16684 16.32000000 3181996181 3181996181 -11.31000000
35.60941696 -137.09896851 0.00000000 28 5 16684 141.64800000 3181996181 3181996181 0.00000000
5.34270477 -20.56982040 -3.30637002 3 7 16684 21.50800000 3181996184 3181996184 -8.84300000
5.70319796 -27.41918182 -3.56480455 7 8 16685 28.23200000 3181996186 3181996186 -7.25400000
42.23746109 -135.19322205 0.82319945 28 9 16685 141.64000000 3181996186 3181996186 0.33300000
7.85977983 -30.30422020 -3.37227178 4 11 16686 31.48800000 3181996188 3181996188 -6.14800000
6.54203510 -41.63392639 -3.93413663 6 12 16687 42.32800000 3181996191 3181996191 -5.33300000
35.66144562 -137.59532166 3.30755329 28 13 16687 142.18000000 3181996191 3181996191 1.33300000
13.10561752 -50.60278702 -3.65523911 10 15 16688 52.40000000 3181996193 3181996193 -4.00000000
8.25081158 -39.80667496 -3.31869411 8 16 16689 40.78800000 3181996195 3181996195 -4.66700000
42.37339401 -135.96171570 4.14458656 28 17 16689 142.47200000 3181996195 3181996195 1.66700000
16.23507118 -52.09278870 -3.49694252 24 19 16689 54.67600000 3181996198 3181996198 -3.66700000
6.83095694 -43.62157822 -2.57137251 20 20 16690 44.22800000 3181996200 3181996200 -3.33300000
35.58080673 -137.58076477 8.27597332 42 21 16690 142.34800000 3181996200 3181996200 3.33300000
18.94745255 -73.31714630 -3.52743149 23 23 16691 75.80800000 3181996202 3181996202 -2.66700000
19.35325241 -62.25092316 -2.65590572 28 27 16693 65.24400000 3181996207 3181996207 -2.33300000
36.91501617 -119.40068054 -2.18148088 28 1 16702 124.99600000 3181996232 3181996232 -1.00000000
2.65284228 -10.35464382 -2.99228644 9 3 16703 11.10000000 3181996234 3181996234 -15.63900000
3.13775086 -15.34029388 -3.13160086 22 4 16704 15.96800000 3181996237 3181996237 -11.31000000
34.94611359 -136.50167847 0.00000000 28 5 16704 140.90400000 3181996237 3181996237 0.00000000
5.28067255 -20.62663460 -3.31251907 3 7 16704 21.54800000 3181996239 3181996239 -8.84300000
5.63367033 -27.56721497 -3.58147192 7 8 16705 28.36400000 3181996241 3181996241 -7.25400000
41.47749710 -134.40725708 0.81752706 28 9 16705 140.66400000 3181996241 3181996241 0.33300000
7.78448534 -30.45091820 -3.38555193 4 11 16706 31.61200000 3181996244 3181996244 -6.14800000
6.41661358 -41.78641510 -3.94640517 20 12 16707 42.46000000 3181996246 3181996246 -5.33300000
13.02068615 -51.00778961 -3.68118858 10 15 16708 52.77200000 3181996248 3181996248 -4.00000000
8.11260605 -39.83913803 -3.31901956 8 16 16709 40.79200000 3181996251 3181996251 -4.66700000
42.95606232 -139.54418945 4.24919605 28 17 16709 146.06800000 3181996251 3181996251 1.66700000
38.82277298 -190.64968872 3.39609861 28 18 16709 194.59200000 3181996253 3181996253 1.00000000
16.10598373 -52.32082367 -3.50845480 24 19 16709 54.85600000 3181996253 3181996253 -3.66700000
6.88763809 -45.01091766 -2.65183711 10 20 16710 45.61200000 3181996255 3181996255 -3.33300000
35.28577042 -138.43159485 8.31969357 42 21 16710 143.10000000 3181996255 3181996255 3.33300000
18.94290543 -74.37020874 -3.57489324 24 23 16711 76.82800000 3181996257 3181996257 -2.66700000
19.35522461 -63.03255463 -2.68635488 28 27 16713 65.99200000 3181996262 3181996262 -2.33300000
6.82211399 -44.79183197 -1.58220363 9 28 16714 45.33600000 3181996264 3181996264 -2.00000000
36.76535034 -144.76391602 -3.47551322 28 31 16715 149.40000000 3181996267 3181996267 -1.33300000
36.64867401 -120.02223969 -2.19048643 28 1 16722 125.51200000 3181996287 3181996287 -1.00000000
2.61856771 -10.37131023 -2.99444318 10 3 16723 11.10800000 3181996290 3181996290 -15.63900000
3.11277008 -15.49343586 -3.16062617 10 4 16724 16.11600000 3181996292 3181996292 -11.31000000
34.71405029 -137.59243774 0.00000000 28 5 16724 141.90400000 3181996292 3181996292 0.00000000
5.22024298 -20.69092941 -3.31989813 3 7 16724 21.59600000 3181996294 3181996294 -8.84300000
5.54287481 -27.61394501 -3.58500743 7 8 16725 28.39200000 3181996297 3181996297 -7.25400000
8.82227707 -43.99132538 -0.26076895 8 10 16726 44.86800000 3181996299 3181996299 -0.33300000
7.71506357 -30.62445259 -3.40183067 4 11 16726 31.76400000 3181996299 3181996299 -6.14800000
6.28548098 -41.90702438 -3.95569944 6 12 16727 42.56000000 3181996301 3181996301 -5.33300000
34.61310196 -137.49580383 3.29927158 28 13 16727 141.82400000 3181996301 3181996301 1.33300000
12.84937000 -51.08001709 -3.68314171 10 15 16728 52.80000000 3181996303 3181996303 -4.00000000
7.89921427 -39.49583054 -3.28810120 8 16 16729 40.41200000 3181996306 3181996306 -4.66700000
42.91644669 -141.16607666 4.29399538 28 17 16729 147.60800000 3181996306 3181996306 1.66700000
15.99524021 -52.61351776 -3.52431631 24 19 16729 55.10400000 3181996308 3181996308 -3.66700000
6.78714180 -45.41382599 -2.67416239 10 20 16730 45.99600000 3181996310 3181996310 -3.33300000
18.92248154 -75.38924408 -3.62067986 25 23 16731 77.81200000 3181996313 3181996313 -2.66700000
8.67368889 -43.48656845 -2.32392573 34 24 16732 44.40400000 3181996315 3181996315 -3.00000000
19.32181549 -63.71550751 -2.71257043 28 27 16733 66.63600000 3181996317 3181996317 -2.33300000
36.58308411 -146.18316650 -3.50649953 28 31 16735 150.73200000 3181996322 3181996322 -1.33300000
36.64400101 -121.52408600 -2.21554804 28 1 16742 126.94800000 3181996343 3181996343 -1.00000000
2.60466671 -10.47009945 -3.02032232 12 3 16743 11.20400000 3181996345 3181996345 -15.63900000
3.09738612 -15.70046329 -3.20063424 12 4 16744 16.32000000 3181996347 3181996347 -11.31000000
34.18530273 -137.51869202 0.00000000 28 5 16744 141.70400000 3181996347 3181996347 0.00000000
5.15847492 -20.75121880 -3.32666206 3 7 16744 21.64000000 3181996350 3181996350 -8.84300000
5.45335627 -27.66816139 -3.58955312 7 8 16745 28.42800000 3181996352 3181996352 -7.25400000
36.47696304 -121.19967651 0.73562557 28 9 16745 126.57200000 3181996352 3181996352 0.33300000
7.61386538 -30.67435455 -3.40440106 4 11 16746 31.78800000 3181996354 3181996354 -6.14800000
6.18474245 -42.24002457 -3.98506999 6 12 16747 42.87600000 3181996356 3181996356 -5.33300000
34.47277069 -138.98588562 3.33211923 28 13 16747 143.23600000 3181996356 3181996356 1.33300000
12.76026249 -51.48475266 -3.70909119 10 15 16748 53.17200000 3181996359 3181996359 -4.00000000
7.75208139 -39.47621918 -3.28419566 8 16 16749 40.36400000 3181996361 3181996361 -4.66700000
40.86568451 -136.12609863 4.13632488 28 17 16749 142.18800000 3181996361 3181996361 1.66700000
15.81148720 -52.66903305 -3.52431631 24 19 16749 55.10400000 3181996363 3181996363 -3.66700000
41.31456375 -166.94439697 10.01572514 42 21 16750 172.27200000 3181996366 3181996366 3.33300000
18.90955734 -76.46720886 -3.66925836 26 23 16751 78.85600000 3181996368 3181996368 -2.66700000
8.51953697 -43.50482178 -2.32329774 34 24 16752 44.39200000 3181996370 3181996370 -3.00000000
6.62492466 -26.81020737 3.39089251 3 25 16752 27.82400000 3181996370 3181996370 7.00000000
19.32744026 -64.54447937 -2.74497342 28 27 16753 67.43200000 3181996373 3181996373 -2.33300000
18.24816704 -125.70092773 -4.43558645 18 28 16754 127.09600000 3181996375 3181996375 -2.00000000
36.77650833 -123.52181244 -2.24961519 28 1 16762 128.90000000 3181996398 3181996398 -1.00000000
2.58460689 -10.54646969 -3.03973174 9 3 16763 11.27600000 3181996400 3181996400 -15.63900000
3.06045985 -15.80359840 -3.21946144 10 4 16764 16.41600000 3181996403 3181996403 -11.31000000
5.09177780 -20.80837822 -3.33281112 3 7 16765 21.68000000 3181996405 3181996405 -8.84300000
5.38237000 -27.81948471 -3.60672545 7 8 16765 28.56400000 3181996407 3181996407 -7.25400000
8.49217415 -43.93402863 -0.26007152 25 10 16766 44.74800000 3181996409 3181996409 -0.33300000
7.51902533 -30.75096703 -3.40997005 4 11 16766 31.84000000 3181996409 3181996409 -6.14800000
6.04458141 -42.31261063 -3.98990297 6 12 16767 42.92800000 3181996412 3181996412 -5.33300000
33.77385330 -138.23132324 3.31118226 28 13 16767 142.33600000 3181996412 3181996412 1.33300000
12.62305737 -51.70341873 -3.72164750 10 15 16768 53.35200000 3181996414 3181996414 -4.00000000
40.30050278 -135.96507263 4.12713242 28 17 16769 141.87200000 3181996416 3181996416 1.66700000
36.88463211 -191.53918457 3.40475512 28 18 16770 195.08800000 3181996419 3181996419 1.00000000
15.75892258 -53.20122910 -3.55603909 25 19 16770 55.60000000 3181996419 3181996419 -3.66700000
40.74386215 -167.13803101 10.01874828 42 21 16770 172.32400000 3181996421 3181996421 3.33300000
18.86853218 -77.46058655 -3.71374202 27 23 16771 79.81200000 3181996423 3181996423 -2.66700000
8.36762524 -43.53429413 -2.32329774 69 24 16772 44.39200000 3181996426 3181996426 -3.00000000
6.53036022 -26.82931137 3.39040518 3 25 16772 27.82000000 3181996426 3181996426 7.00000000
19.30937958 -65.31293488 -2.77477098 28 27 16773 68.16400000 3181996428 3181996428 -2.33300000
36.51742554 -150.25630188 -3.59815645 28 31 16774 154.67200000 3181996433 3181996433 -1.33300000
8.27320862 -43.49339294 -1.28847790 10 2 16783 44.29200000 3181996456 3181996456 -1.66700000
2.52789378 -10.47305012 -3.01600909 8 3 16783 11.18800000 3181996456 3181996456 -15.63900000
2.98550487 -15.71014404 -3.19828081 14 4 16784 16.30800000 3181996458 3181996458 -11.31000000
37.22248840 -154.33065796 0.00000000 28 5 16784 158.75600000 3181996458 3181996458 0.00000000
5.02744627 -20.86060715 -3.33834529 4 7 16785 21.71600000 3181996460 3181996460 -8.84300000
5.29115009 -27.86928940 -3.61076617 7 8 16785 28.59600000 3181996462 3181996462 -7.25400000
40.05736923 -136.54307556 0.82703531 28 9 16785 142.30000000 3181996462 3181996462 0.33300000
8.33652782 -43.95161438 -0.26000178 16 10 16786 44.73600000 3181996465 3181996465 -0.33300000
7.44236565 -30.90461922 -3.42410684 4 11 16786 31.97200000 3181996465 3181996465 -6.14800000
5.91827488 -42.48728943 -4.00440216 7 12 16787 43.08400000 3181996467 3181996467 -5.33300000
33.24435425 -138.15397644 3.30652976 28 13 16787 142.13600000 3181996467 3181996467 1.33300000
12.49474239 -51.96443176 -3.73727274 10 15 16788 53.57600000 3181996469 3181996469 -4.00000000
7.40887785 -39.17290115 -3.25457883 25 16 16789 40.00000000 3181996472 3181996472 -4.66700000
39.65834427 -135.53314209 4.10979414 28 17 16789 141.27600000 3181996472 3181996472 1.66700000
15.58577728 -53.26469040 -3.55680680 25 19 16789 55.61200000 3181996474 3181996474 -3.66700000
40.11824417 -167.10450745 10.00828362 42 21 16790 172.14400000 3181996476 3181996476 3.33300000
18.84037399 -78.53618622 -3.76213431 28 23 16791 80.85200000 3181996479 3181996479 -2.66700000
8.20820808 -43.52398300 -2.32120442 46 24 16792 44.35200000 3181996481 3181996481 -3.00000000
6.44314718 -26.87896919 3.39381742 3 25 16792 27.84800000 3181996481 3181996481 7.00000000
19.30186462 -66.13575745 -2.80684829 28 27 16793 68.95200000 3181996483 3181996483 -2.33300000
36.42181778 -152.17573547 -3.64105368 28 31 16794 156.51600000 3181996488 3181996488 -1.33300000
36.76137161 -126.69853210 -2.30274034 28 1 16802 131.94400000 3181996509 3181996509 -1.00000000
8.15507603 -43.70280838 -1.29383063 10 2 16803 44.47600000 3181996511 3181996511 -1.66700000
2.46459913 -10.36938477 -2.98366022 6 3 16803 11.06800000 3181996511 3181996511 -15.63900000
2.93783641 -15.75902843 -3.20612550 8 4 16804 16.34800000 3181996514 3181996514 -11.31000000
36.79353333 -154.92277527 0.00000000 28 5 16804 159.23200000 3181996514 3181996514 0.00000000
4.96737528 -20.91561890 -3.34449434 4 7 16804 21.75600000 3181996516 3181996516 -8.84300000
5.20400715 -27.94220161 -3.61783719 7 8 16805 28.65200000 3181996518 3181996518 -7.25400000
8.17647171 -43.94505310 -0.25979254 16 10 16806 44.70000000 3181996521 3181996521 -0.33300000
7.34637165 -30.98071480 -3.42967582 4 11 16806 32.02400000 3181996521 3181996521 -6.14800000
5.79939365 -42.72474670 -4.02484989 7 12 16807 43.30400000 3181996523 3181996523 -5.33300000
39.01666641 -164.66694641 3.93779826 28 13 16807 169.27200000 3181996523 3181996523 1.33300000
12.30959892 -51.99219513 -3.73615670 10 15 16808 53.56000000 3181996525 3181996525 -4.00000000
7.27063942 -39.19068527 -3.25392795 25 16 16809 39.99200000 3181996527 3181996527 -4.66700000
39.35031509 -136.24310303 4.12713242 28 17 16809 141.87200000 3181996527 3181996527 1.66700000
15.47950554 -53.59489441 -3.57522655 25 19 16809 55.90000000 3181996530 3181996530 -3.66700000
10.38830185 -76.83353424 -4.51530886 28 20 16810 77.66400000 3181996532 3181996532 -3.33300000
39.70372391 -167.95857239 10.05107403 42 21 16810 172.88000000 3181996532 3181996532 3.33300000
18.82973289 -79.71752167 -3.81555223 28 23 16811 82.00000000 3181996534 3181996534 -2.66700000
8.05114460 -43.52487564 -2.31973886 57 24 16812 44.32400000 3181996537 3181996537 -3.00000000
6.35019445 -26.90515900 3.39430499 3 25 16812 27.85200000 3181996537 3181996537 7.00000000
5.17345905 -27.99528503 2.32409477 4 26 16813 28.56400000 3181996539 3181996539 4.66700000
19.24900818 -66.82105255 -2.83306384 28 27 16813 69.59600000 3181996539 3181996539 -2.33300000
37.05345535 -157.23738098 -3.75904441 28 31 16814 161.58800000 3181996544 3181996544 -1.33300000
36.41827393 -127.00561523 -2.30623078 28 1 16820 132.14400000 3181996564 3181996564 -1.00000000
2.46189451 -10.50458717 -3.02032232 5 3 16821 11.20400000 3181996567 3181996567 -15.63900000
2.88548660 -15.75274754 -3.20298767 6 4 16822 16.33200000 3181996569 3181996569 -11.31000000
38.93151093 -166.24635315 0.00000000 28 5 16822 170.74400000 3181996569 3181996569 0.00000000
4.91245651 -20.97730064 -3.35187340 4 7 16822 21.80400000 3181996571 3181996571 -8.84300000
5.13976860 -28.08721733 -3.63450456 7 8 16823 28.78400000 3181996574 3181996574 -7.25400000
38.55332565 -134.71760559 0.81441182 28 9 16823 140.12800000 3181996574 3181996574 0.33300000
8.02830410 -43.91543961 -0.25946707 16 10 16824 44.64400000 3181996576 3181996576 -0.33300000
7.27979231 -31.13530922 -3.44424105 4 11 16824 32.16000000 3181996576 3181996576 -6.14800000
5.68607330 -42.90068054 -4.03972101 7 12 16825 43.46400000 3181996578 3181996578 -5.33300000
