# .PCD v0.7 - Point Cloud Data file format
VERSION 0.7
FIELDS x y z intensity laser_id azimuth distance_m adjustedtime timestamp vertical_angle
SIZE 4 4 4 1 1 2 8 8 4 8
TYPE F F F U U U F U U F
COUNT 1 1 1 1 1 1 1 1 1 1
WIDTH 523
HEIGHT 1
VIEWPOINT 0 0 0 1 0 0 0
POINTS 523
DATA ascii
18.93403435 3.86249828 -1.80385852 6 12 7427 19.40800000 3180070452 3180070452 -5.33300000
40.25590515 12.40740967 0.98021567 13 13 7427 42.13600000 3180070452 3180070452 1.33300000
39.86172104 8.12445068 0.47360584 27 14 7428 40.68400000 3180070454 3180070454 0.66700000
20.60406685 6.34651232 -1.50757694 12 15 7428 21.61200000 3180070454 3180070454 -4.00000000
19.83670807 5.06000090 -1.67122626 7 16 7429 20.54000000 3180070457 3180070457 -4.66700000
40.24731445 14.57726955 1.24577308 25 17 7429 42.82400000 3180070457 3180070457 1.66700000
40.31474686 10.28359413 0.72622955 18 18 7429 41.61200000 3180070459 3180070459 1.00000000
20.59388924 7.45894957 -1.40374005 10 19 7429 21.94800000 3180070459 3180070459 -3.66700000
20.60622025 4.19238281 -1.22464037 22 20 7430 21.06400000 3180070461 3180070461 -3.33300000
40.22807312 12.37577057 2.45114112 12 21 7430 42.16000000 3180070461 3180070461 3.33300000
40.07803345 10.20831394 1.68495572 26 22 7431 41.39200000 3180070464 3180070464 2.33300000
20.65442848 6.35018587 -1.00656128 24 23 7431 21.63200000 3180070464 3180070464 -2.66700000
20.62132263 5.24864435 -1.11517453 29 24 7432 21.30800000 3180070466 3180070466 -3.00000000
43.37399292 13.32701111 5.57137871 27 25 7432 45.71600000 3180070466 3180070466 7.00000000
42.93759155 10.92071533 3.61681366 20 26 7433 44.45200000 3180070468 3180070468 4.66700000
20.68438339 7.47539520 -0.89604867 24 27 7433 22.01200000 3180070468 3180070468 -2.33300000
20.67066383 4.19046783 -0.73651898 16 28 7434 21.10400000 3180070471 3180070471 -2.00000000
38.45512772 11.80096054 -0.93601573 10 31 7434 40.23600000 3180070473 3180070473 -1.33300000
5.68338919 1.43600786 -2.73349500 7 0 7442 6.46800000 3180070494 3180070494 -25.00000000
39.75679398 14.29765224 -0.73746890 17 1 7442 42.25600000 3180070494 3180070494 -1.00000000
37.49886703 9.46778297 -1.12557089 7 2 7443 38.69200000 3180070496 3180070496 -1.66700000
8.48101902 2.58805275 -2.48224998 3 3 7443 9.20800000 3180070496 3180070496 -15.63900000
11.19646549 2.82482576 -2.30947733 4 4 7444 11.77600000 3180070498 3180070498 -11.31000000
40.30344772 12.29123974 0.00000000 14 5 7444 42.13600000 3180070498 3180070498 0.00000000
39.90386200 8.01704311 -0.47383866 29 6 7444 40.70400000 3180070501 3180070501 -0.66700000
13.12230873 4.00187683 -2.13435197 2 7 7444 13.88400000 3180070501 3180070501 -8.84300000
15.42499733 3.88880467 -2.02483726 2 8 7445 16.03600000 3180070503 3180070503 -7.25400000
40.25906372 14.45448112 0.24861042 17 9 7445 42.77600000 3180070503 3180070503 0.33300000
40.33890915 10.16237736 -0.24177560 23 10 7446 41.60000000 3180070505 3180070505 -0.33300000
16.56450653 5.04531622 -1.86520219 2 11 7446 17.41600000 3180070505 3180070505 -6.14800000
19.05283928 3.81750822 -1.81389642 6 12 7447 19.51600000 3180070507 3180070507 -5.33300000
40.35252762 12.28311825 0.98151839 13 13 7447 42.19200000 3180070507 3180070507 1.33300000
40.03495026 8.01430607 0.47532871 18 14 7448 40.83200000 3180070510 3180070510 0.66700000
20.59937096 6.26642275 -1.50562370 11 15 7448 21.58400000 3180070510 3180070510 -4.00000000
19.85811615 4.99169874 -1.67155170 7 16 7449 20.54400000 3180070512 3180070512 -4.66700000
40.22643661 14.41107082 1.24356210 16 17 7449 42.74800000 3180070512 3180070512 1.66700000
40.32889557 10.12991810 0.72581071 18 18 7450 41.58800000 3180070514 3180070514 1.00000000
20.59854126 7.37534523 -1.40220511 20 19 7450 21.92400000 3180070514 3180070514 -3.66700000
20.60114861 4.11651564 -1.22347760 19 20 7450 21.04400000 3180070517 3180070517 -3.33300000
40.29395294 12.24223804 2.45253634 12 21 7450 42.18400000 3180070517 3180070517 3.33300000
39.99713135 10.03916454 1.68007088 26 22 7451 41.27200000 3180070519 3180070519 2.33300000
20.66117477 6.27340651 -1.00581682 24 23 7451 21.61600000 3180070519 3180070519 -2.66700000
20.62014580 5.17177153 -1.11412787 29 24 7452 21.28800000 3180070521 3180070521 -3.00000000
42.50085831 12.89654446 5.45340919 27 25 7452 44.74800000 3180070521 3180070521 7.00000000
20.67647934 7.39103985 -0.89458323 27 27 7453 21.97600000 3180070524 3180070524 -2.33300000
20.67732430 4.11672735 -0.73623979 16 28 7454 21.09600000 3180070526 3180070526 -2.00000000
110.35636139 27.63771248 20.74221611 28 30 7454 115.64000000 3180070528 3180070528 10.33300000
38.51905060 11.67361450 -0.93657404 10 31 7454 40.26000000 3180070528 3180070528 -1.33300000
5.68836689 1.41616035 -2.73349500 8 0 7462 6.46800000 3180070549 3180070549 -25.00000000
37.84597015 9.41501522 -1.13499629 8 2 7463 39.01600000 3180070551 3180070551 -1.66700000
8.48631287 2.55732131 -2.48117161 2 3 7463 9.20400000 3180070551 3180070551 -15.63900000
11.21767807 2.78856444 -2.31183052 4 4 7464 11.78800000 3180070553 3180070553 -11.31000000
40.50696945 12.19892502 0.00000000 21 5 7464 42.30400000 3180070553 3180070553 0.00000000
39.73676682 7.83206129 -0.47151044 19 6 7465 40.50400000 3180070556 3180070556 -0.66700000
13.12174892 3.94919825 -2.13189220 2 7 7465 13.86800000 3180070556 3180070556 -8.84300000
15.43847752 3.83493781 -2.02483726 2 8 7465 16.03600000 3180070558 3180070558 -7.25400000
40.25273514 14.29378510 0.24826171 17 9 7465 42.71600000 3180070558 3180070558 0.33300000
40.44401550 10.03885174 -0.24219407 23 10 7466 41.67200000 3180070560 3180070560 -0.33300000
16.58582497 4.98860979 -1.86563063 2 11 7466 17.42000000 3180070560 3180070560 -6.14800000
19.06604767 3.75097823 -1.81389642 6 12 7467 19.51600000 3180070563 3180070563 -5.33300000
40.45643234 12.16060448 0.98300725 13 13 7467 42.25600000 3180070563 3180070563 1.33300000
39.94101715 7.85059547 0.47388521 27 14 7468 40.70800000 3180070565 3180070565 0.66700000
20.60201263 6.18873930 -1.50422859 16 15 7468 21.56400000 3180070565 3180070565 -4.00000000
19.88315964 4.92426729 -1.67220271 5 16 7469 20.55200000 3180070567 3180070567 -4.66700000
40.24257660 14.25854874 1.24251485 16 17 7469 42.71200000 3180070567 3180070567 1.66700000
40.33897018 9.99035835 0.72539181 18 18 7469 41.56400000 3180070570 3180070570 1.00000000
20.58902168 7.29499912 -1.39990258 25 19 7469 21.88800000 3180070570 3180070570 -3.66700000
20.61147499 4.04381037 -1.22324502 19 20 7470 21.04000000 3180070572 3180070572 -3.33300000
40.26759338 12.08085632 2.44835043 19 21 7470 42.11200000 3180070572 3180070572 3.33300000
39.96597290 9.88317680 1.67730284 17 22 7471 41.20400000 3180070574 3180070574 2.33300000
20.64850235 6.19091940 -1.00414169 22 23 7471 21.58000000 3180070574 3180070574 -2.66700000
20.62644005 5.09688759 -1.11349976 25 24 7472 21.27600000 3180070577 3180070577 -3.00000000
42.67492294 12.78685474 5.46998358 27 25 7472 44.88400000 3180070577 3180070577 7.00000000
41.22848892 10.18011379 3.46677756 28 26 7473 42.60800000 3180070579 3180070579 4.66700000
20.67954445 7.31082773 -0.89360625 31 27 7473 21.95200000 3180070579 3180070579 -2.33300000
20.66410446 4.03915644 -0.73526257 14 28 7474 21.06800000 3180070581 3180070581 -2.00000000
110.21621704 27.17370605 20.69701385 28 30 7475 115.38800000 3180070583 3180070583 10.33300000
38.63053894 11.55298138 -0.93824899 10 31 7475 40.33200000 3180070583 3180070583 -1.33300000
5.69327593 1.39629555 -2.73349500 6 0 7482 6.46800000 3180070604 3180070604 -25.00000000
39.54627609 13.91092777 -0.73174447 17 1 7482 41.92800000 3180070604 3180070604 -1.00000000
38.05335617 9.32567692 -1.14023256 8 2 7483 39.19600000 3180070606 3180070606 -1.66700000
8.50257206 2.52988005 -2.48332834 2 3 7483 9.21200000 3180070606 3180070606 -15.63900000
11.21972370 2.74752450 -2.31026173 2 4 7484 11.78000000 3180070609 3180070609 -11.31000000
40.51479721 12.04719448 0.00000000 21 5 7484 42.26800000 3180070609 3180070609 0.00000000
39.70888519 7.68266964 -0.47085854 19 6 7485 40.44800000 3180070611 3180070611 -0.66700000
13.14682007 3.90674829 -2.13373709 1 7 7485 13.88000000 3180070611 3180070611 -8.84300000
15.45562363 3.78196716 -2.02534223 2 8 7485 16.04000000 3180070613 3180070613 -7.25400000
40.29483795 14.15053940 0.24821521 26 9 7485 42.70800000 3180070613 3180070613 0.33300000
40.34281921 9.86436272 -0.24138039 23 10 7486 41.53200000 3180070616 3180070616 -0.33300000
16.60695076 4.93181658 -1.86605895 2 11 7486 17.42400000 3180070616 3180070616 -6.14800000
19.07902527 3.68440247 -1.81389642 6 12 7487 19.51600000 3180070618 3180070618 -5.33300000
40.46029663 12.00793362 0.98207670 20 13 7487 42.21600000 3180070618 3180070618 1.33300000
39.86606598 7.69142723 0.47267455 27 14 7488 40.60400000 3180070620 3180070620 0.66700000
20.59671021 6.10884476 -1.50227547 18 15 7488 21.53600000 3180070620 3180070620 -4.00000000
19.92733955 4.86144638 -1.67448092 7 16 7489 20.58000000 3180070623 3180070623 -4.66700000
40.20908737 14.08890152 1.23995495 16 17 7489 42.62400000 3180070623 3180070623 1.66700000
40.23372269 9.81536388 0.72287869 18 18 7489 41.42000000 3180070625 3180070625 1.00000000
20.58798981 7.21384573 -1.39811182 37 19 7489 21.86000000 3180070625 3180070625 -3.66700000
20.60585785 3.96806288 -1.22208226 19 20 7490 21.02000000 3180070627 3180070627 -3.33300000
40.19465256 11.90619850 2.44137383 31 21 7490 41.99200000 3180070627 3180070627 3.33300000
40.07012558 9.76063538 1.68023372 17 22 7491 41.27600000 3180070630 3180070630 2.33300000
20.65466118 6.11426830 -1.00339711 22 23 7491 21.56400000 3180070630 3180070630 -2.66700000
20.62081909 5.01918840 -1.11224377 28 24 7492 21.25200000 3180070632 3180070632 -3.00000000
42.93630219 12.70201111 5.49776983 18 25 7492 45.11200000 3180070632 3180070632 7.00000000
42.06565094 10.23116875 3.53414726 19 26 7493 43.43600000 3180070634 3180070634 4.66700000
20.67852974 7.22936487 -0.89246643 29 27 7493 21.92400000 3180070634 3180070634 -2.33300000
20.65844917 3.96323490 -0.73456460 13 28 7494 21.04800000 3180070636 3180070636 -2.00000000
109.97304535 26.72721481 20.63459396 28 30 7494 115.04000000 3180070639 3180070639 10.33300000
38.66096878 11.42254734 -0.93806285 10 31 7494 40.32400000 3180070639 3180070639 -1.33300000
5.68754339 1.37386024 -2.72842360 6 0 7502 6.45600000 3180070659 3180070659 -25.00000000
39.59081268 13.77148628 -0.73167467 17 1 7502 41.92400000 3180070659 3180070659 -1.00000000
38.14009094 9.20592308 -1.14186168 8 2 7503 39.25200000 3180070662 3180070662 -1.66700000
8.50026417 2.49692822 -2.48009324 2 3 7503 9.20000000 3180070662 3180070662 -15.63900000
11.24068451 2.71110249 -2.31261516 4 4 7504 11.79200000 3180070664 3180070664 -11.31000000
40.51438522 11.89330387 0.00000000 21 5 7504 42.22400000 3180070664 3180070664 0.00000000
39.54946136 7.51585150 -0.46867001 19 6 7504 40.26000000 3180070666 3180070666 -0.66700000
13.15591049 3.86201715 -2.13312221 2 7 7504 13.87600000 3180070666 3180070666 -8.84300000
15.47258854 3.72892356 -2.02584743 2 8 7505 16.04400000 3180070669 3180070669 -7.25400000
40.27975082 13.98749161 0.24782000 26 9 7505 42.64000000 3180070669 3180070669 0.33300000
40.33034134 9.71224213 -0.24110143 23 10 7506 41.48400000 3180070671 3180070671 -0.33300000
16.61643219 4.87157965 -1.86520219 2 11 7506 17.41600000 3180070671 3180070671 -6.14800000
19.08785629 3.61704040 -1.81352460 6 12 7507 19.51200000 3180070673 3180070673 -5.33300000
40.45975494 11.85425949 0.98105317 20 13 7507 42.17200000 3180070673 3180070673 1.33300000
39.87302399 7.54850197 0.47244173 26 14 7508 40.58400000 3180070676 3180070676 0.66700000
20.59493256 6.03018427 -1.50060129 20 15 7508 21.51200000 3180070676 3180070676 -4.00000000
19.94806480 4.79278898 -1.67480636 5 16 7509 20.58400000 3180070678 3180070678 -4.66700000
40.22402191 13.93667889 1.23890769 16 17 7509 42.58800000 3180070678 3180070678 1.66700000
40.01108551 9.61319733 0.71827126 27 18 7509 41.15600000 3180070680 3180070680 1.00000000
20.58664322 7.13278818 -1.39632106 30 19 7509 21.83200000 3180070680 3180070680 -3.66700000
20.59211731 3.89092088 -1.22045434 19 20 7510 20.99200000 3180070683 3180070683 -3.33300000
40.29346085 11.78263187 2.44486213 12 21 7510 42.05200000 3180070683 3180070683 3.33300000
39.97181320 9.58900547 1.67469752 26 22 7511 41.14000000 3180070685 3180070685 2.33300000
20.64519501 6.03316641 -1.00190818 22 23 7511 21.53200000 3180070685 3180070685 -2.66700000
20.62656021 4.94438457 -1.11161566 28 24 7512 21.24000000 3180070687 3180070687 -3.00000000
42.89653778 12.52757263 5.48704529 27 25 7512 45.02400000 3180070687 3180070687 7.00000000
40.50375748 9.70166397 3.40005851 27 26 7513 41.78800000 3180070689 3180070689 4.66700000
20.68852806 7.15191603 -0.89181513 24 27 7513 21.90800000 3180070689 3180070689 -2.33300000
20.66429901 3.88962054 -0.73428541 13 28 7514 21.04000000 3180070692 3180070692 -2.00000000
110.74002838 26.48414040 20.76015282 28 30 7515 115.74000000 3180070694 3180070694 10.33300000
38.59123993 11.24832058 -0.93536437 15 31 7515 40.20800000 3180070694 3180070694 -1.33300000
5.70288467 1.35651529 -2.73349500 7 0 7522 6.46800000 3180070715 3180070715 -25.00000000
39.53653336 13.59808445 -0.72978985 17 1 7522 41.81600000 3180070715 3180070715 -1.00000000
38.17588425 9.07365799 -1.14197803 8 2 7523 39.25600000 3180070717 3180070717 -1.66700000
8.51262760 2.46831417 -2.48117161 2 3 7523 9.20400000 3180070717 3180070717 -15.63900000
11.25008011 2.67184877 -2.31261516 4 4 7524 11.79200000 3180070719 3180070719 -11.31000000
40.50571060 11.73733711 0.00000000 14 5 7524 42.17200000 3180070719 3180070719 0.00000000
39.63443756 7.38874769 -0.46936849 19 6 7524 40.32000000 3180070722 3180070722 -0.66700000
13.18829346 3.82157111 -2.13619661 2 7 7524 13.89600000 3180070722 3180070722 -8.84300000
15.49323273 3.67672396 -2.02685761 2 8 7525 16.05200000 3180070724 3180070724 -7.25400000
40.28671646 13.83251572 0.24756427 17 9 7525 42.59600000 3180070724 3180070724 0.33300000
40.44183731 9.58986187 -0.24156637 23 10 7526 41.56400000 3180070726 3180070726 -0.33300000
16.64097595 4.81575871 -1.86605895 2 11 7526 17.42400000 3180070726 3180070726 -6.14800000
19.10428238 3.55111694 -1.81389642 6 12 7527 19.51600000 3180070729 3180070729 -5.33300000
40.45478821 11.69962502 0.97993654 20 13 7527 42.12400000 3180070729 3180070729 1.33300000
39.86766815 7.40343142 0.47206920 17 14 7528 40.55200000 3180070731 3180070731 0.66700000
20.58902168 5.95050240 -1.49864805 20 15 7528 21.48400000 3180070731 3180070731 -4.00000000
19.96079254 4.72220993 -1.67448092 5 16 7529 20.58000000 3180070733 3180070733 -4.66700000
40.28755188 13.80136871 1.23937309 25 17 7529 42.60400000 3180070733 3180070733 1.66700000
39.89650345 9.43848610 0.71561849 27 18 7529 41.00400000 3180070736 3180070736 1.00000000
20.58875656 7.05312204 -1.39478600 30 19 7529 21.80800000 3180070736 3180070736 -3.66700000
20.59772110 3.81756186 -1.21998918 19 20 7530 20.98400000 3180070738 3180070738 -3.33300000
40.24993896 11.61754799 2.43974590 12 21 7530 41.96400000 3180070738 3180070738 3.33300000
39.90780258 9.42645073 1.67062676 25 22 7531 41.04000000 3180070740 3180070740 2.33300000
20.63541603 5.95220566 -1.00041914 22 23 7531 21.50000000 3180070740 3180070740 -2.66700000
20.61647987 4.86593103 -1.11015034 28 24 7532 21.21200000 3180070742 3180070742 -3.00000000
42.96670914 12.38545704 5.49045753 27 25 7532 45.05200000 3180070742 3180070742 7.00000000
20.68689537 7.07060766 -0.89067531 24 27 7533 21.88000000 3180070745 3180070745 -2.33300000
20.66202736 3.81456184 -0.73372704 15 28 7534 21.02400000 3180070747 3180070747 -2.00000000
96.43726349 22.70796204 18.06387901 28 30 7535 100.70800000 3180070749 3180070749 10.33300000
38.58799362 11.10138130 -0.93434078 10 31 7535 40.16400000 3180070749 3180070749 -1.33300000
5.70052576 1.33494711 -2.73011398 8 0 7542 6.46000000 3180070770 3180070770 -25.00000000
39.58754349 13.46128082 -0.72985965 17 1 7542 41.82000000 3180070770 3180070770 -1.00000000
38.19175339 8.93669987 -1.14151251 16 2 7543 39.24000000 3180070772 3180070772 -1.66700000
8.52489471 2.43964434 -2.48224998 2 3 7543 9.20800000 3180070772 3180070772 -15.63900000
11.25169945 2.63077641 -2.31104612 2 4 7544 11.78400000 3180070775 3180070775 -11.31000000
40.50797653 11.58487606 0.00000000 21 5 7544 42.13200000 3180070775 3180070775 0.00000000
39.69539642 7.25682592 -0.46978754 19 6 7544 40.35600000 3180070777 3180070777 -0.66700000
13.20915318 3.77768564 -2.13742638 2 7 7544 13.90400000 3180070777 3180070777 -8.84300000
15.52142811 3.62623096 -2.02887774 2 8 7545 16.06800000 3180070779 3180070779 -7.25400000
40.27415085 13.67123222 0.24719231 17 9 7545 42.53200000 3180070779 3180070779 0.33300000
40.44779968 9.44227028 -0.24140365 23 10 7546 41.53600000 3180070782 3180070782 -0.33300000
16.65003586 4.75545740 -1.86520219 2 11 7546 17.41600000 3180070782 3180070782 -6.14800000
19.12047958 3.48512316 -1.81426823 6 12 7547 19.52000000 3180070784 3180070784 -5.33300000
40.45308304 11.54626656 0.97891295 20 13 7547 42.08000000 3180070784 3180070784 1.33300000
39.90113831 7.26565504 0.47216234 17 14 7548 40.56000000 3180070786 3180070786 0.66700000
20.58664513 5.87202978 -1.49697387 22 15 7548 21.46000000 3180070786 3180070786 -4.00000000
19.98103714 4.65340948 -1.67480636 5 16 7549 20.58400000 3180070789 3180070789 -4.66700000
40.23702240 13.62730789 1.23634768 16 17 7549 42.50000000 3180070789 3180070789 1.66700000
39.99931717 9.31549263 0.71687508 18 18 7549 41.07600000 3180070791 3180070791 1.00000000
20.59056664 6.97352791 -1.39325106 27 19 7549 21.78400000 3180070791 3180070791 -3.66700000
20.59127617 3.74206924 -1.21882641 19 20 7550 20.96400000 3180070793 3180070793 -3.33300000
40.31328964 11.48354244 2.44114113 12 21 7550 41.98800000 3180070793 3180070793 3.33300000
39.94046402 9.28708839 1.67062676 25 22 7551 41.04000000 3180070795 3180070795 2.33300000
20.63685226 5.87466812 -0.99948853 24 23 7551 21.48000000 3180070795 3180070795 -2.66700000
20.61777496 4.79032040 -1.10931289 31 24 7552 21.19600000 3180070798 3180070798 -3.00000000
43.30371857 12.31904793 5.52799320 18 25 7552 45.36000000 3180070798 3180070798 7.00000000
40.58214951 9.42136478 3.40103507 18 26 7553 41.80000000 3180070800 3180070800 4.66700000
20.67737198 6.98683929 -0.88920981 27 27 7553 21.84400000 3180070800 3180070800 -2.33300000
20.65554810 3.73885465 -0.73302901 15 28 7554 21.00400000 3180070802 3180070802 -2.00000000
96.46227264 22.35875511 18.05383492 28 30 7555 100.65200000 3180070805 3180070805 10.33300000
38.56880569 10.95023346 -0.93294495 15 31 7555 40.10400000 3180070805 3180070805 -1.33300000
5.71221590 1.31666899 -2.73349500 8 0 7562 6.46800000 3180070825 3180070825 -25.00000000
39.88070297 13.40584373 -0.73439729 17 1 7562 42.08000000 3180070825 3180070825 -1.00000000
38.09024048 8.77282047 -1.13755620 16 2 7563 39.10400000 3180070828 3180070828 -1.66700000
8.53335857 2.40987206 -2.48224998 2 3 7563 9.20800000 3180070828 3180070828 -15.63900000
11.27610397 2.59500313 -2.31418395 4 4 7564 11.80000000 3180070830 3180070830 -11.31000000
40.50197220 11.43036938 0.00000000 14 5 7564 42.08400000 3180070830 3180070830 0.00000000
13.20704365 3.72725987 -2.13496685 2 7 7564 13.88800000 3180070832 3180070832 -8.84300000
15.53785801 3.57291818 -2.02938294 2 8 7565 16.07200000 3180070835 3180070835 -7.25400000
40.26853943 13.51275063 0.24686685 17 9 7565 42.47600000 3180070835 3180070835 0.33300000
40.45712280 9.29564857 -0.24126416 15 10 7566 41.51200000 3180070837 3180070837 -0.33300000
16.67801857 4.70054531 -1.86648738 2 11 7566 17.42800000 3180070837 3180070837 -6.14800000
19.13644981 3.41905951 -1.81464005 6 12 7567 19.52400000 3180070839 3180070839 -5.33300000
40.44309998 11.39089489 0.97770327 13 13 7567 42.02800000 3180070839 3180070839 1.33300000
39.71757126 7.08908176 0.46969444 17 14 7568 40.34800000 3180070841 3180070841 0.66700000
20.58781052 5.79472780 -1.49557877 24 15 7568 21.44000000 3180070841 3180070841 -4.00000000
20.00104523 4.58452511 -1.67513180 5 16 7569 20.58800000 3180070844 3180070844 -4.66700000
40.23126602 13.46900082 1.23471868 16 17 7569 42.44400000 3180070844 3180070844 1.66700000
40.04328537 9.17849255 0.71708447 27 18 7569 41.08800000 3180070846 3180070846 1.00000000
20.58450127 6.89147282 -1.39120436 30 19 7569 21.75200000 3180070846 3180070846 -3.66700000
20.60028267 3.66946912 -1.21859384 19 20 7570 20.96000000 3180070848 3180070848 -3.33300000
40.25702286 11.31573868 2.43532729 18 21 7570 41.88800000 3180070848 3180070848 3.33300000
40.03107834 9.16098785 1.67306924 25 22 7571 41.10000000 3180070851 3180070851 2.33300000
20.63415337 5.79611301 -0.99837178 24 23 7571 21.45600000 3180070851 3180070851 -2.66700000
20.61879539 4.71476030 -1.10847557 35 24 7572 21.18000000 3180070853 3180070853 -3.00000000
43.46112823 12.20000458 5.54261780 27 25 7572 45.48000000 3180070853 3180070853 7.00000000
41.04231262 9.37732983 3.43683529 18 26 7573 42.24000000 3180070855 3180070855 4.66700000
20.67509842 6.90575600 -0.88807005 23 27 7573 21.81600000 3180070855 3180070855 -2.33300000
20.65272903 3.66393733 -0.73247063 15 28 7574 20.98800000 3180070858 3180070858 -2.00000000
96.34023285 21.97639275 18.01652527 28 30 7575 100.44400000 3180070860 3180070860 10.33300000
38.54903412 10.79935551 -0.93154919 15 31 7575 40.04400000 3180070860 3180070860 -1.33300000
5.71324205 1.29591966 -2.73180437 8 0 7582 6.46400000 3180070881 3180070881 -25.00000000
39.74887085 13.20728111 -0.73111624 26 1 7582 41.89200000 3180070881 3180070881 -1.00000000
38.17132187 8.65129662 -1.13906896 16 2 7583 39.15600000 3180070883 3180070883 -1.66700000
8.54542923 2.38110423 -2.48332834 2 3 7583 9.21200000 3180070883 3180070883 -15.63900000
11.28126717 2.55475998 -2.31339955 4 4 7584 11.79600000 3180070885 3180070885 -11.31000000
40.47611618 11.27068043 0.00000000 14 5 7584 42.01600000 3180070885 3180070885 0.00000000
39.57963562 6.95046997 -0.46783185 19 6 7584 40.18800000 3180070888 3180070888 -0.66700000
13.21997356 3.68113613 -2.13496685 2 7 7584 13.88800000 3180070888 3180070888 -8.84300000
15.54636574 3.51778340 -2.02887774 2 8 7585 16.06800000 3180070890 3180070890 -7.25400000
40.25851440 13.35321617 0.24651814 17 9 7585 42.41600000 3180070890 3180070890 0.33300000
40.44640732 9.14466763 -0.24100843 23 10 7586 41.46800000 3180070892 3180070892 -0.33300000
16.69049263 4.64123392 -1.86605895 2 11 7586 17.42400000 3180070892 3180070892 -6.14800000
19.15611267 3.35361362 -1.81538355 6 12 7587 19.53200000 3180070894 3180070894 -5.33300000
40.42097092 11.23252201 0.97621441 13 13 7587 41.96400000 3180070894 3180070894 1.33300000
39.88785172 6.97589302 0.47141731 17 14 7588 40.49600000 3180070897 3180070897 0.66700000
20.58868980 5.71748924 -1.49418366 26 15 7588 21.42000000 3180070897 3180070897 -4.00000000
20.00914764 4.51292610 -1.67448092 7 16 7589 20.58000000 3180070899 3180070899 -4.66700000
40.22109604 13.30964375 1.23297322 24 17 7589 42.38400000 3180070899 3180070899 1.66700000
40.04386902 9.03162003 0.71652597 27 18 7589 41.05600000 3180070901 3180070901 1.00000000
20.57811356 6.80954504 -1.38915777 30 19 7589 21.72000000 3180070901 3180070901 -3.66700000
20.58936310 3.59341908 -1.21719849 19 20 7590 20.93600000 3180070904 3180070904 -3.33300000
40.17698669 11.14206505 2.42811799 31 21 7590 41.76400000 3180070904 3180070904 3.33300000
40.03551865 9.01505184 1.67192948 17 22 7591 41.07200000 3180070906 3180070906 2.33300000
20.64270782 5.72084999 -0.99781340 27 23 7591 21.44400000 3180070906 3180070906 -2.66700000
20.62733269 4.64100504 -1.10805690 31 24 7592 21.17200000 3180070908 3180070908 -3.00000000
43.59910202 12.07471371 5.55480480 18 25 7592 45.58000000 3180070908 3180070908 7.00000000
41.16425705 9.25412083 3.44432092 27 26 7593 42.33200000 3180070911 3180070911 4.66700000
20.67251205 6.82477379 -0.88693023 23 27 7593 21.78800000 3180070911 3180070911 -2.33300000
20.64963722 3.58908534 -0.73191226 15 28 7594 20.97200000 3180070913 3180070913 -2.00000000
96.25900269 21.62229919 17.98782730 28 30 7594 100.28400000 3180070915 3180070915 10.33300000
38.57692719 10.66933060 -0.93136311 15 31 7594 40.03600000 3180070915 3180070915 -1.33300000
5.71773052 1.27596879 -2.73180437 8 0 7602 6.46400000 3180070936 3180070936 -25.00000000
39.69593811 13.03600788 -0.72930115 17 1 7602 41.78800000 3180070936 3180070936 -1.00000000
38.19738770 8.51713085 -1.13895261 16 2 7603 39.15200000 3180070938 3180070938 -1.66700000
8.54997540 2.35023975 -2.48224998 2 3 7603 9.20800000 3180070938 3180070938 -15.63900000
11.29394531 2.51621842 -2.31418395 4 4 7604 11.80000000 3180070941 3180070941 -11.31000000
40.46892548 11.11660957 0.00000000 14 5 7604 41.96800000 3180070941 3180070941 0.00000000
39.55359650 6.79655123 -0.46722651 19 6 7605 40.13600000 3180070943 3180070943 -0.66700000
13.24481106 3.63579655 -2.13681149 2 7 7605 13.90000000 3180070943 3180070943 -8.84300000
15.56242371 3.46435714 -2.02938294 2 8 7605 16.07200000 3180070945 3180070945 -7.25400000
40.26306915 13.19890022 0.24626240 17 9 7605 42.37200000 3180070945 3180070945 0.33300000
40.33361816 8.97129440 -0.24014828 23 10 7606 41.32000000 3180070947 3180070947 -0.33300000
16.70659256 4.58294487 -1.86605895 2 11 7606 17.42400000 3180070947 3180070947 -6.14800000
19.17162895 3.28739882 -1.81575537 6 12 7607 19.53600000 3180070950 3180070950 -5.33300000
40.41365051 11.07867146 0.97509778 20 13 7607 41.91600000 3180070950 3180070950 1.33300000
39.55715179 6.77583981 0.46722651 25 14 7608 40.13600000 3180070952 3180070952 0.66700000
20.58927917 5.64031506 -1.49278855 28 15 7608 21.40000000 3180070952 3180070952 -4.00000000
20.03256416 4.44478083 -1.67513180 7 16 7609 20.58800000 3180070954 3180070954 -4.66700000
40.22550964 13.15549374 1.23169327 24 17 7609 42.34000000 3180070954 3180070954 1.66700000
39.97908783 8.86315060 0.71478075 27 18 7610 40.95600000 3180070957 3180070957 1.00000000
20.58016777 6.72663546 -1.38762283 30 19 7610 21.69600000 3180070957 3180070957 -3.66700000
20.58209991 3.51816273 -1.21603572 19 20 7610 20.91600000 3180070959 3180070959 -3.33300000
40.13475037 10.97962475 2.42323446 30 21 7610 41.68000000 3180070959 3180070959 3.33300000
40.03162384 8.86746693 1.67046392 17 22 7611 41.03600000 3180070961 3180070961 2.33300000
20.63557243 5.64138269 -0.99651057 20 23 7611 21.41600000 3180070961 3180070961 -2.66700000
20.62390709 4.56465769 -1.10701013 31 24 7612 21.15200000 3180070964 3180070964 -3.00000000
43.07416916 11.76760006 5.48265791 36 25 7612 44.98800000 3180070964 3180070964 7.00000000
41.18852615 9.10865211 3.44367003 18 26 7613 42.32400000 3180070966 3180070966 4.66700000
20.67721176 6.74637318 -0.88611609 25 27 7613 21.76800000 3180070966 3180070966 -2.33300000
20.65021706 3.51497030 -0.73149347 15 28 7614 20.96000000 3180070968 3180070968 -2.00000000
95.45397186 21.09173203 17.82352448 28 30 7614 99.36800000 3180070971 3180070971 10.33300000
38.60235977 10.53145027 -0.93108392 21 31 7614 40.02400000 3180070971 3180070971 -1.33300000
5.72214985 1.25600243 -2.73180437 8 0 7622 6.46400000 3180070991 3180070991 -25.00000000
39.76402664 12.90477085 -0.72972000 26 1 7622 41.81200000 3180070991 3180070991 -1.00000000
38.22688293 8.38374519 -1.13895261 24 2 7623 39.15200000 3180070994 3180070994 -1.66700000
8.55812645 2.32038045 -2.48224998 2 3 7623 9.20800000 3180070994 3180070994 -15.63900000
11.30265999 2.47677994 -2.31418395 4 4 7624 11.80000000 3180070996 3180070996 -11.31000000
40.46501541 10.96377182 0.00000000 21 5 7624 41.92400000 3180070996 3180070996 0.00000000
40.46849060 6.80841255 -0.47775006 20 6 7625 41.04000000 3180070998 3180070998 -0.66700000
13.24979115 3.58747554 -2.13558173 2 7 7625 13.89200000 3180070998 3180070998 -8.84300000
15.58605003 3.41255903 -2.03089809 2 8 7625 16.08400000 3180071000 3180071000 -7.25400000
40.26704025 13.04471588 0.24600668 17 9 7625 42.32800000 3180071000 3180071000 0.33300000
40.30216599 8.81677151 -0.23977631 15 10 7626 41.25600000 3180071003 3180071003 -0.33300000
16.73400497 4.52771616 -1.86734414 2 11 7626 17.43600000 3180071003 3180071003 -6.14800000
19.18691444 3.22111678 -1.81612706 6 12 7627 19.54000000 3180071005 3180071005 -5.33300000
40.27450562 10.88952160 0.97081739 13 13 7627 41.73200000 3180071005 3180071005 1.33300000
39.79357147 6.67344093 0.46974099 26 14 7628 40.35200000 3180071007 3180071007 0.66700000
20.58958244 5.56320667 -1.49139345 26 15 7628 21.38000000 3180071007 3180071007 -4.00000000
20.06353760 4.37822676 -1.67643356 7 16 7629 20.60400000 3180071010 3180071010 -4.66700000
40.22172546 12.99901581 1.23018050 24 17 7629 42.28800000 3180071010 3180071010 1.66700000
40.00435257 8.72967434 0.71471095 18 18 7629 40.95200000 3180071012 3180071012 1.00000000
20.57197380 6.64853191 -1.38557613 30 19 7629 21.66400000 3180071012 3180071012 -3.66700000
20.59031677 3.44563746 -1.21580327 19 20 7630 20.91200000 3180071014 3180071014 -3.33300000
40.18054199 10.84154224 2.42369962 25 21 7630 41.68800000 3180071014 3180071014 3.33300000
39.84364700 8.68003559 1.66134548 25 22 7631 40.81200000 3180071017 3180071017 2.33300000
20.63970757 5.56515598 -0.99576604 20 23 7631 21.40000000 3180071017 3180071017 -2.66700000
20.61629677 4.48754168 -1.10575414 31 24 7632 21.12800000 3180071019 3180071019 -3.00000000
43.08431625 11.60890865 5.47875834 18 25 7632 44.95600000 3180071019 3180071019 7.00000000
41.57457352 9.04192257 3.47328663 18 26 7633 42.68800000 3180071021 3180071021 4.66700000
20.67400742 6.66557026 -0.88497627 25 27 7633 21.74000000 3180071021 3180071021 -2.33300000
20.65053177 3.44089508 -0.73107463 15 28 7634 20.94800000 3180071024 3180071024 -2.00000000
95.50009155 20.75255775 17.81850243 28 30 7634 99.34000000 3180071026 3180071026 10.33300000
38.62730026 10.39352131 -0.93080479 15 31 7634 40.01200000 3180071026 3180071026 -1.33300000
5.73358631 1.23755050 -2.73518538 7 0 7642 6.47200000 3180071047 3180071047 -25.00000000
39.76693726 12.75245667 -0.72895211 26 1 7642 41.76800000 3180071047 3180071047 -1.00000000
38.23637390 8.24604225 -1.13837075 24 2 7643 39.13200000 3180071049 3180071049 -1.66700000
8.56245327 2.28949785 -2.48117161 2 3 7643 9.20400000 3180071049 3180071049 -15.63900000
11.31123638 2.43731117 -2.31418395 4 4 7644 11.80000000 3180071052 3180071052 -11.31000000
40.46052933 10.81109715 0.00000000 14 5 7644 41.88000000 3180071052 3180071052 0.00000000
39.93044662 6.58180523 -0.47113791 19 6 7644 40.47200000 3180071054 3180071054 -0.66700000
13.25779629 3.54249763 -2.13496685 2 7 7644 13.88800000 3180071054 3180071054 -8.84300000
15.59398746 3.35729766 -2.03039312 2 8 7645 16.08000000 3180071056 3180071056 -7.25400000
40.22470856 12.87603092 0.24547198 17 9 7645 42.23600000 3180071056 3180071056 0.33300000
40.28968048 8.66678429 -0.23952058 15 10 7646 41.21200000 3180071059 3180071059 -0.33300000
16.73818016 4.46620035 -1.86605895 2 11 7646 17.42400000 3180071059 3180071059 -6.14800000
19.19411087 3.15347672 -1.81575537 6 12 7647 19.53600000 3180071061 3180071061 -5.33300000
40.30454254 10.74680996 0.97063124 13 13 7647 41.72400000 3180071061 3180071061 1.33300000
39.70611191 6.51635742 0.46843719 25 14 7648 40.24000000 3180071063 3180071063 0.66700000
20.58959770 5.48616505 -1.48999822 31 15 7648 21.36000000 3180071063 3180071063 -4.00000000
20.08259583 4.30900192 -1.67675900 7 16 7649 20.60800000 3180071065 3180071065 -4.66700000
40.21734238 12.84272480 1.22866786 24 17 7649 42.23600000 3180071065 3180071065 1.66700000
40.13625336 8.61179447 0.71652597 18 18 7649 41.05600000 3180071068 3180071068 1.00000000
20.57984543 6.57182455 -1.38455284 27 19 7649 21.64800000 3180071068 3180071068 -3.66700000
20.59433746 3.37245202 -1.21533811 19 20 7650 20.90400000 3180071070 3180071070 -3.33300000
39.99818039 10.64269257 2.41044378 18 21 7650 41.46000000 3180071070 3180071070 3.33300000
39.91278458 8.54927349 1.66297388 25 22 7651 40.85200000 3180071072 3180071072 2.33300000
20.63583755 5.48691559 -0.99464929 19 23 7651 21.37600000 3180071072 3180071072 -2.66700000
20.61230469 4.41137028 -1.10470736 31 24 7652 21.10800000 3180071075 3180071075 -3.00000000
42.80610275 11.37382507 5.43829775 27 25 7652 44.62400000 3180071075 3180071075 7.00000000
41.29009628 8.82921886 3.44692445 55 26 7653 42.36400000 3180071077 3180071077 4.66700000
20.67429924 6.58608532 -0.88399929 25 27 7653 21.71600000 3180071077 3180071077 -2.33300000
20.65847206 3.36814713 -0.73093504 13 28 7654 20.94400000 3180071079 3180071079 -2.00000000
96.00680542 20.51198006 17.89957809 28 30 7654 99.79200000 3180071082 3180071082 10.33300000
38.67880630 10.26272583 -0.93117696 15 31 7654 40.02800000 3180071082 3180071082 -1.33300000
5.73787117 1.21752894 -2.73518538 7 0 7662 6.47200000 3180071102 3180071102 -25.00000000
39.84933472 12.62564564 -0.72965020 26 1 7662 41.80800000 3180071102 3180071102 -1.00000000
38.28839493 8.11749840 -1.13906896 16 2 7663 39.15600000 3180071105 3180071105 -1.66700000
8.57411766 2.26057744 -2.48224998 2 3 7663 9.20800000 3180071105 3180071105 -15.63900000
11.31583786 2.39700007 -2.31339955 4 4 7664 11.79600000 3180071107 3180071107 -11.31000000
40.37037659 10.63616848 0.00000000 13 5 7664 41.74800000 3180071107 3180071107 0.00000000
39.88999939 6.43219423 -0.47039288 29 6 7664 40.40800000 3180071109 3180071109 -0.66700000
13.27772522 3.49821162 -2.13619661 2 7 7664 13.89600000 3180071109 3180071109 -8.84300000
15.61725807 3.30530882 -2.03190827 2 8 7665 16.09200000 3180071112 3180071112 -7.25400000
40.26940918 12.73554230 0.24547198 17 9 7665 42.23600000 3180071112 3180071112 0.33300000
40.17097855 8.49464798 -0.23863718 15 10 7666 41.06000000 3180071114 3180071114 -0.33300000
16.76905251 4.41179323 -1.86777258 4 11 7666 17.44000000 3180071114 3180071114 -6.14800000
19.20893478 3.08708954 -1.81612706 6 12 7667 19.54000000 3180071116 3180071116 -5.33300000
40.07108688 10.53488064 0.96411759 19 13 7667 41.44400000 3180071116 3180071116 1.33300000
39.88658142 6.40307617 0.47029975 17 14 7668 40.40000000 3180071118 3180071118 0.66700000
20.58932495 5.40919065 -1.48860312 26 15 7668 21.34000000 3180071118 3180071118 -4.00000000
20.09751511 4.23887396 -1.67675900 7 16 7669 20.60800000 3180071121 3180071121 -4.66700000
40.21998215 12.68902969 1.22738779 24 17 7669 42.19200000 3180071121 3180071121 1.66700000
40.25215912 8.48979855 0.71806180 18 18 7669 41.14400000 3180071123 3180071123 1.00000000
20.58362579 6.49394226 -1.38327372 27 19 7669 21.62800000 3180071123 3180071123 -3.66700000
20.59809875 3.29928088 -1.21487296 19 20 7670 20.89600000 3180071125 3180071125 -3.33300000
40.00032425 10.49388885 2.40835071 30 21 7670 41.42400000 3180071125 3180071125 3.33300000
40.03624725 8.42966270 1.66688168 25 22 7671 40.94800000 3180071128 3180071128 2.33300000
20.63554001 5.40978336 -0.99371868 20 23 7671 21.35600000 3180071128 3180071128 -2.66700000
20.60803223 4.33528137 -1.10366070 31 24 7672 21.08800000 3180071130 3180071130 -3.00000000
42.83018112 11.22030926 5.43634748 26 25 7672 44.60800000 3180071130 3180071130 7.00000000
41.16850662 8.65305424 3.43423176 18 26 7673 42.20800000 3180071132 3180071132 4.66700000
20.67428970 6.50667953 -0.88302231 25 27 7673 21.69200000 3180071132 3180071132 -2.33300000
20.65036392 3.29286766 -0.73023707 13 28 7674 20.92400000 3180071135 3180071135 -2.00000000
96.08937836 20.17915535 17.90172958 28 30 7674 99.80400000 3180071137 3180071137 10.33300000
38.74534607 10.13574505 -0.93192142 31 31 7674 40.06000000 3180071137 3180071137 -1.33300000
5.73811960 1.19875562 -2.73349500 7 0 7680 6.46800000 3180071158 3180071158 -25.00000000
39.77431107 12.46451378 -0.72755593 8 1 7680 41.68800000 3180071158 3180071158 -1.00000000
38.36850357 8.00860882 -1.14069808 24 2 7681 39.21200000 3180071160 3180071160 -1.66700000
8.59608746 2.23751116 -2.48656321 2 3 7681 9.22400000 3180071160 3180071160 -15.63900000
11.34635067 2.36624289 -2.31810641 4 4 7682 11.82000000 3180071162 3180071162 -11.31000000
40.42295074 10.51432323 0.00000000 21 5 7682 41.76800000 3180071162 3180071162 0.00000000
39.59790421 6.25752354 -0.46671429 28 6 7682 40.09200000 3180071165 3180071165 -0.66700000
13.30012512 3.45946598 -2.13804150 2 7 7682 13.90800000 3180071165 3180071165 -8.84300000
15.61979580 3.25461078 -2.03089809 2 8 7683 16.08400000 3180071167 3180071167 -7.25400000
40.25577545 12.59225178 0.24514651 17 9 7683 42.18000000 3180071167 3180071167 0.33300000
40.35802460 8.40182972 -0.23959033 23 10 7684 41.22400000 3180071169 3180071169 -0.33300000
16.78282928 4.35909033 -1.86777258 2 11 7684 17.44000000 3180071169 3180071169 -6.14800000
19.23427391 3.02920604 -1.81761420 6 12 7685 19.55600000 3180071171 3180071171 -5.33300000
40.13494873 10.41697884 0.96486199 19 13 7685 41.47600000 3180071171 3180071171 1.33300000
39.83538055 6.26654959 0.46946159 17 14 7686 40.32800000 3180071174 3180071174 0.66700000
20.59462929 5.34147549 -1.48776603 24 15 7686 21.32800000 3180071174 3180071174 -4.00000000
20.11853981 4.17733622 -1.67741001 7 16 7687 20.61600000 3180071176 3180071176 -4.66700000
40.21384430 12.54832077 1.22599149 16 17 7687 42.14400000 3180071176 3180071176 1.66700000
39.70443726 8.23684883 0.70779979 26 18 7688 40.55600000 3180071178 3180071178 1.00000000
20.56693840 6.41376495 -1.38071537 25 19 7688 21.58800000 3180071178 3180071178 -3.66700000
20.58469200 3.23083878 -1.21347761 19 20 7688 20.87200000 3180071181 3180071181 -3.33300000
40.07948303 10.38018608 2.41114140 24 21 7688 41.47200000 3180071181 3180071181 3.33300000
40.06253052 8.30384350 1.66688168 25 22 7689 40.94800000 3180071183 3180071183 2.33300000
20.63309288 5.33992243 -0.99278808 19 23 7689 21.33600000 3180071183 3180071183 -2.66700000
20.59808159 4.26565742 -1.10240459 35 24 7690 21.06400000 3180071185 3180071185 -3.00000000
43.31109238 11.20100975 5.49289513 27 25 7690 45.07200000 3180071185 3180071185 7.00000000
40.78556442 8.43886089 3.40005851 18 26 7691 41.78800000 3180071188 3180071188 4.66700000
20.66791725 6.43338203 -0.88188255 25 27 7691 21.66400000 3180071188 3180071188 -2.33300000
20.64875793 3.22612524 -0.72981828 13 28 7692 20.91200000 3180071190 3180071190 -2.00000000
96.37580872 19.92338943 17.94334412 28 30 7692 100.03600000 3180071192 3180071192 10.33300000
38.75763702 10.00897408 -0.93145615 21 31 7692 40.04000000 3180071192 3180071192 -1.33300000
5.74268007 1.17671406 -2.73349500 7 0 7702 6.46800000 3180071213 3180071213 -25.00000000
39.74928284 12.28925514 -0.72622955 17 1 7702 41.61200000 3180071213 3180071213 -1.00000000
38.38721848 7.85881996 -1.14034891 24 2 7703 39.20000000 3180071215 3180071215 -1.66700000
8.59342194 2.20162010 -2.48332834 2 3 7703 9.21200000 3180071215 3180071215 -15.63900000
11.34766769 2.32108688 -2.31653738 2 4 7704 11.81200000 3180071217 3180071217 -11.31000000
40.40102386 10.34316063 0.00000000 20 5 7704 41.70400000 3180071217 3180071217 0.00000000
39.63061142 6.09973431 -0.46680743 19 6 7705 40.10000000 3180071220 3180071220 -0.66700000
13.31773472 3.40702772 -2.13865638 2 7 7705 13.91200000 3180071220 3180071220 -8.84300000
15.63995266 3.19620013 -2.03190827 2 8 7705 16.09200000 3180071222 3180071222 -7.25400000
40.27707672 12.42933178 0.24498379 17 9 7705 42.15200000 3180071222 3180071222 0.33300000
40.06862259 8.18118858 -0.23768403 23 10 7706 40.89600000 3180071224 3180071224 -0.33300000
16.79558945 4.29363203 -1.86734414 2 11 7706 17.43600000 3180071224 3180071224 -6.14800000
19.23395538 2.95351624 -1.81649888 6 12 7707 19.54400000 3180071227 3180071227 -5.33300000
40.24439240 10.28061104 0.96653694 19 13 7707 41.54800000 3180071227 3180071227 1.33300000
39.78007889 6.10141945 0.46853033 17 14 7708 40.24800000 3180071229 3180071229 0.66700000
20.58792305 5.25545025 -1.48581290 26 15 7708 21.30000000 3180071229 3180071229 -4.00000000
20.14224434 4.10164690 -1.67806089 7 16 7709 20.62400000 3180071231 3180071231 -4.66700000
40.22351837 12.38205433 1.22482789 16 17 7709 42.10400000 3180071231 3180071231 1.66700000
39.65206528 8.07451057 0.70633382 26 18 7709 40.47200000 3180071234 3180071234 1.00000000
20.57504845 6.33364248 -1.37969208 12 19 7709 21.57200000 3180071234 3180071234 -3.66700000
20.58905029 3.15056753 -1.21301258 22 20 7710 20.86400000 3180071236 3180071236 -3.33300000
40.13838959 10.23114777 2.41230416 30 21 7710 41.49200000 3180071236 3180071236 3.33300000
39.98445511 8.12766266 1.66232252 25 22 7711 40.83600000 3180071238 3180071238 2.33300000
20.63408279 5.25572681 -0.99185741 19 23 7711 21.31600000 3180071238 3180071238 -2.66700000
20.60647964 4.18494558 -1.10198593 35 24 7712 21.05600000 3180071241 3180071241 -3.00000000
41.97637177 10.68404007 5.31837797 25 25 7712 43.64000000 3180071241 3180071241 7.00000000
40.63793945 8.24572563 3.38508749 54 26 7713 41.60400000 3180071243 3180071243 4.66700000
20.66954231 6.34693670 -0.88090557 25 27 7713 21.64000000 3180071243 3180071243 -2.33300000
20.65308952 3.14561224 -0.72953910 13 28 7714 20.90400000 3180071245 3180071245 -2.00000000
100.37352753 20.33002281 18.67229843 28 30 7715 104.10000000 3180071247 3180071247 10.33300000
38.73936462 9.83854580 -0.93006033 25 31 7715 39.98000000 3180071247 3180071247 -1.33300000
5.74675274 1.15666115 -2.73349500 6 0 7722 6.46800000 3180071268 3180071268 -25.00000000
39.76898575 12.14342117 -0.72581071 17 1 7722 41.58800000 3180071268 3180071268 -1.00000000
38.36737823 7.71531677 -1.13895261 16 2 7723 39.15200000 3180071270 3180071270 -1.66700000
8.58985043 2.16878128 -2.48009324 2 3 7723 9.20000000 3180071270 3180071270 -15.63900000
11.35954571 2.28223443 -2.31732202 2 4 7724 11.81600000 3180071273 3180071273 -11.31000000
40.38645935 10.18935108 0.00000000 20 5 7724 41.65200000 3180071273 3180071273 0.00000000
39.69517136 5.96790171 -0.46731964 19 6 7725 40.14400000 3180071275 3180071275 -0.66700000
13.32188129 3.35858703 -2.13742638 2 7 7725 13.90400000 3180071275 3180071275 -8.84300000
15.66268539 3.14392996 -2.03342342 2 8 7725 16.10400000 3180071277 3180071277 -7.25400000
40.43500137 12.32364655 0.24568121 17 9 7725 42.27200000 3180071277 3180071277 0.33300000
40.03810883 8.02947521 -0.23733531 23 10 7726 40.83600000 3180071280 3180071280 -0.33300000
16.80661964 4.23400640 -1.86691570 2 11 7726 17.43200000 3180071280 3180071280 -6.14800000
19.24414635 2.88635921 -1.81649888 6 12 7727 19.54400000 3180071282 3180071282 -5.33300000
40.11328125 10.09809113 0.96253568 19 13 7727 41.37600000 3180071282 3180071282 1.33300000
39.74575424 5.95422745 0.46787840 25 14 7728 40.19200000 3180071284 3180071284 0.66700000
20.57905579 5.17673874 -1.48385966 24 15 7728 21.27200000 3180071284 3180071284 -4.00000000
20.16816711 4.03365803 -1.67903721 7 16 7729 20.63600000 3180071287 3180071287 -4.66700000
40.40803528 12.28460312 1.22913325 16 17 7729 42.25200000 3180071287 3180071287 1.66700000
39.69961548 7.93997192 0.70668286 17 18 7729 40.49200000 3180071289 3180071289 1.00000000
20.57411575 6.25481701 -1.37815702 22 19 7729 21.54800000 3180071289 3180071289 -3.66700000
20.58807564 3.07690835 -1.21231484 22 20 7730 20.85200000 3180071291 3180071291 -3.33300000
40.14287567 10.08319378 2.41044378 30 21 7730 41.46000000 3180071291 3180071291 3.33300000
39.89500427 7.96456718 1.65743768 25 22 7731 40.71600000 3180071294 3180071294 2.33300000
20.62905121 5.17783213 -0.99074066 20 23 7731 21.29200000 3180071294 3180071294 -2.66700000
20.60529327 4.10986471 -1.10114849 35 24 7732 21.04000000 3180071296 3180071296 -3.00000000
41.99415588 10.53262043 5.31594086 25 25 7732 43.62000000 3180071296 3180071296 7.00000000
40.60782623 8.09213543 3.38020563 27 26 7733 41.54400000 3180071298 3180071298 4.66700000
20.66479874 6.26662922 -0.87976575 27 27 7733 21.61200000 3180071298 3180071298 -2.33300000
20.64417458 3.07055974 -0.72884107 13 28 7734 20.88400000 3180071300 3180071300 -2.00000000
100.08147430 19.92560196 18.60557365 28 30 7734 103.72800000 3180071303 3180071303 10.33300000
38.67868042 9.68671131 -0.92782706 15 31 7734 39.88400000 3180071303 3180071303 -1.33300000
5.75075483 1.13659418 -2.73349500 8 0 7742 6.46800000 3180071323 3180071323 -25.00000000
39.81496048 12.00568199 -0.72588050 26 1 7742 41.59200000 3180071323 3180071323 -1.00000000
38.36661911 7.57592106 -1.13813806 8 2 7743 39.12400000 3180071326 3180071326 -1.66700000
8.59736824 2.13878393 -2.48009324 2 3 7743 9.20000000 3180071326 3180071326 -15.63900000
11.37129116 2.24332762 -2.31810641 2 4 7744 11.82000000 3180071328 3180071328 -11.31000000
40.27815247 10.01260948 0.00000000 20 5 7744 41.50400000 3180071328 3180071328 0.00000000
39.70682907 5.83507204 -0.46722651 19 6 7744 40.13600000 3180071330 3180071330 -0.66700000
13.33294582 3.31439161 -2.13742638 2 7 7744 13.90400000 3180071330 3180071330 -8.84300000
15.68135071 3.09077239 -2.03443360 2 8 7745 16.11200000 3180071333 3180071333 -7.25400000
40.45862198 12.17666340 0.24556498 26 9 7745 42.25200000 3180071333 3180071333 0.33300000
39.81864548 7.84098005 -0.23587070 15 10 7746 40.58400000 3180071335 3180071335 -0.33300000
16.81743622 4.17435646 -1.86648738 2 11 7746 17.42800000 3180071335 3180071335 -6.14800000
19.26592636 2.82089782 -1.81761420 6 12 7747 19.55600000 3180071337 3180071337 -5.33300000
40.00856018 9.92335224 0.95918578 19 13 7747 41.23200000 3180071337 3180071337 1.33300000
39.79400253 5.81950426 0.46820438 17 14 7748 40.22000000 3180071340 3180071340 0.66700000
20.57763481 5.10007334 -1.48246455 22 15 7748 21.25200000 3180071340 3180071340 -4.00000000
20.18603516 3.96400166 -1.67936277 7 16 7749 20.64000000 3180071342 3180071342 -4.66700000
40.41620255 12.13313198 1.22808599 24 17 7749 42.21600000 3180071342 3180071342 1.66700000
39.91153717 7.83756685 0.70996392 17 18 7749 40.68000000 3180071344 3180071344 1.00000000
20.57288551 6.17607546 -1.37662208 35 19 7749 21.52400000 3180071344 3180071344 -3.66700000
20.59078789 3.00387096 -1.21184981 16 20 7750 20.84400000 3180071347 3180071347 -3.33300000
40.12743759 9.93053722 2.40742064 18 21 7750 41.40800000 3180071347 3180071347 3.33300000
39.84019852 7.80911541 1.65401816 25 22 7751 40.63200000 3180071349 3180071349 2.33300000
20.62760544 5.10099554 -0.98981005 17 23 7751 21.27200000 3180071349 3180071349 -2.66700000
20.60775375 4.03561068 -1.10052049 35 24 7752 21.02800000 3180071351 3180071351 -3.00000000
42.15785599 10.41739845 5.33202744 25 25 7752 43.75200000 3180071351 3180071351 7.00000000
40.68668747 7.96028948 3.38443661 27 26 7753 41.59600000 3180071353 3180071353 4.66700000
20.66740417 6.18872499 -0.87895161 27 27 7753 21.59200000 3180071353 3180071353 -2.33300000
20.65476608 2.99847937 -0.72884107 11 28 7754 20.88400000 3180071356 3180071356 -2.00000000
95.96723938 18.74106789 17.82782936 28 30 7755 99.39200000 3180071358 3180071358 10.33300000
38.66344833 9.53243732 -0.92661738 25 31 7755 39.83200000 3180071358 3180071358 -1.33300000
5.75824642 1.11720383 -2.73518538 6 0 7762 6.47200000 3180071379 3180071379 -25.00000000
39.68413544 11.81527328 -0.72273904 17 1 7762 41.41200000 3180071379 3180071379 -1.00000000
38.41638184 7.44651556 -1.13883626 24 2 7763 39.14800000 3180071381 3180071381 -1.66700000
8.61226368 2.11059403 -2.48224998 2 3 7763 9.20800000 3180071381 3180071381 -15.63900000
11.38290310 2.20436645 -2.31889081 2 4 7764 11.82400000 3180071383 3180071383 -11.31000000
40.46826553 9.91000843 0.00000000 20 5 7764 41.66400000 3180071383 3180071383 0.00000000
39.78634262 5.70494938 -0.46792498 19 6 7764 40.19600000 3180071386 3180071386 -0.66700000
13.35978985 3.27159119 -2.13988614 2 7 7764 13.92000000 3180071386 3180071386 -8.84300000
15.68814754 3.03526163 -2.03392863 2 8 7765 16.10800000 3180071388 3180071388 -7.25400000
40.44720078 12.01941013 0.24523951 17 9 7765 42.19600000 3180071388 3180071388 0.33300000
39.99500656 7.73078537 -0.23675412 15 10 7766 40.73600000 3180071390 3180071390 -0.33300000
16.83963203 4.11751652 -1.86734414 4 11 7766 17.43600000 3180071390 3180071390 -6.14800000
19.28748512 2.75531983 -1.81872952 6 12 7767 19.56800000 3180071393 3180071393 -5.33300000
