# .PCD v0.7 - Point Cloud Data file format
VERSION 0.7
FIELDS x y z intensity laser_id azimuth distance_m adjustedtime timestamp vertical_angle
SIZE 4 4 4 1 1 2 8 8 4 8
TYPE F F F U U U F U U F
COUNT 1 1 1 1 1 1 1 1 1 1
WIDTH 522
HEIGHT 1
VIEWPOINT 0 0 0 1 0 0 0
POINTS 522
DATA ascii
6.22082806 10.50210476 -2.44126797 4 4 2924 12.44800000 3182557878 3182557878 -11.31000000
21.31219864 40.35387039 0.00000000 16 5 2924 45.63600000 3182557878 3182557878 0.00000000
21.10546684 31.94742203 -0.44576037 17 6 2925 38.29200000 3182557881 3182557881 -0.66700000
6.85022449 12.96516991 -2.28131533 3 7 2925 14.84000000 3182557881 3182557881 -8.84300000
8.68408775 14.65478706 -2.16827798 1 8 2925 17.17200000 3182557883 3182557883 -7.25400000
21.40381050 45.79623795 0.29380387 11 9 2925 50.55200000 3182557883 3182557883 0.33300000
21.14797783 35.67396545 -0.24103169 15 10 2926 41.47200000 3182557885 3182557885 -0.33300000
8.77955437 16.60972214 -2.02370572 1 11 2926 18.89600000 3182557885 3182557885 -6.14800000
11.27438831 17.05313683 -1.90832758 2 12 2927 20.53200000 3182557888 3182557888 -5.33300000
41.07549286 77.67642212 2.04464388 28 13 2927 87.89200000 3182557888 3182557888 1.33300000
40.55205154 61.31395340 0.85580587 28 14 2928 73.51600000 3182557890 3182557890 0.66700000
11.49971867 21.73753548 -1.71963656 2 15 2928 24.65200000 3182557890 3182557890 -4.00000000
11.37250996 19.16110802 -1.81898415 2 16 2929 22.35600000 3182557892 3182557892 -4.66700000
41.45199966 88.53076172 2.84493780 28 17 2929 97.79600000 3182557892 3182557892 1.66700000
40.93543625 68.97055054 1.39996219 28 18 2929 80.21600000 3182557895 3182557895 1.00000000
11.07867432 23.66118622 -1.67440844 3 19 2929 26.18000000 3182557895 3182557895 -3.66700000
14.55971336 21.99732780 -1.53626549 4 20 2930 26.42400000 3182557897 3182557897 -3.33300000
41.58465195 78.53974152 5.17553568 36 21 2930 89.02000000 3182557897 3182557897 3.33300000
40.74401474 68.59346771 3.25039482 28 22 2931 79.84800000 3182557899 3182557899 2.33300000
13.93940639 26.31585121 -1.38718581 2 23 2931 29.81200000 3182557899 3182557899 -2.66700000
14.61049366 24.58732033 -1.49890184 5 24 2932 28.64000000 3182557902 3182557902 -3.00000000
50.15778732 84.37467194 8.01309872 28 26 2933 98.48400000 3182557904 3182557904 4.66700000
13.83457851 29.49345207 -1.32722020 5 27 2933 32.60400000 3182557904 3182557904 -2.33300000
17.95476341 27.08558655 -1.13479209 5 28 2934 32.51600000 3182557906 3182557906 -2.00000000
18.30062675 34.49105072 -0.90856522 5 31 2935 39.05600000 3182557908 3182557908 -1.33300000
2.91234136 4.88162327 -2.65066171 16 0 2942 6.27200000 3182557929 3182557929 -25.00000000
18.50164032 39.28238678 -0.75792313 9 1 2942 43.42800000 3182557929 3182557929 -1.00000000
18.67142296 31.28434753 -1.06029177 14 2 2943 36.44800000 3182557931 3182557931 -1.66700000
3.88638377 7.30000114 -2.31511331 21 3 2943 8.58800000 3182557931 3182557931 -15.63900000
6.25342798 10.47359085 -2.43969917 4 4 2944 12.44000000 3182557934 3182557934 -11.31000000
21.30250168 39.99679184 0.00000000 16 5 2944 45.31600000 3182557934 3182557934 0.00000000
21.09717560 31.69376183 -0.44324589 17 6 2945 38.07600000 3182557936 3182557936 -0.66700000
6.89358091 12.93769073 -2.28070045 2 7 2945 14.83600000 3182557936 3182557936 -8.84300000
8.73925877 14.63119793 -2.16928816 1 8 2945 17.18000000 3182557938 3182557938 -7.25400000
21.40485764 45.38479233 0.29164183 10 9 2945 50.18000000 3182557938 3182557938 0.33300000
21.14721870 35.39047623 -0.23961358 15 10 2946 41.22800000 3182557941 3182557941 -0.33300000
8.83186722 16.56844521 -2.02242064 1 11 2946 18.88400000 3182557941 3182557941 -6.14800000
11.33163834 17.01036263 -1.90795588 2 12 2947 20.52800000 3182557943 3182557943 -5.33300000
41.27111435 77.39143372 2.04092193 28 13 2947 87.73200000 3182557943 3182557943 1.33300000
40.71702957 61.09880447 0.85478145 28 14 2948 73.42800000 3182557945 3182557945 0.66700000
11.56050110 21.66909599 -1.71740437 2 15 2948 24.62000000 3182557945 3182557945 -4.00000000
11.42295170 19.09392357 -1.81638050 2 16 2949 22.32400000 3182557948 3182557948 -4.66700000
41.07071304 86.92502594 2.79792762 28 17 2949 96.18000000 3182557948 3182557948 1.66700000
40.45524597 67.62257385 1.37545907 28 18 2949 78.81200000 3182557950 3182557950 1.00000000
11.14073563 23.57905960 -1.67133844 3 19 2949 26.13200000 3182557950 3182557950 -3.66700000
14.56772518 21.84338188 -1.52905631 4 20 2950 26.30000000 3182557952 3182557952 -3.33300000
41.51059341 77.74243164 5.13251257 36 21 2950 88.28000000 3182557952 3182557952 3.33300000
40.85591125 68.23822021 3.24029946 28 22 2951 79.60000000 3182557955 3182557955 2.33300000
14.00105953 26.21064377 -1.38420784 2 23 2951 29.74800000 3182557955 3182557955 -2.66700000
14.70033550 24.54302406 -1.49932051 5 24 2952 28.64800000 3182557957 3182557957 -3.00000000
50.39667511 84.10673523 8.00431156 28 26 2953 98.37600000 3182557959 3182557959 4.66700000
13.93744564 29.44498062 -1.32722020 5 27 2953 32.60400000 3182557959 3182557959 -2.33300000
17.98703194 26.92966843 -1.13088334 5 28 2954 32.40400000 3182557961 3182557961 -2.00000000
18.46582413 34.52538300 -0.91107762 5 31 2954 39.16400000 3182557964 3182557964 -1.33300000
2.93870473 4.88696146 -2.65911412 13 0 2962 6.29200000 3182557984 3182557984 -25.00000000
18.63864899 39.21756744 -0.75792313 9 1 2962 43.42800000 3182557984 3182557984 -1.00000000
18.73722839 31.14703369 -1.05784822 7 2 2963 36.36400000 3182557987 3182557987 -1.66700000
3.90637589 7.27620935 -2.31187820 23 3 2963 8.57600000 3182557987 3182557987 -15.63900000
6.28185940 10.43825626 -2.43656111 3 4 2964 12.42400000 3182557989 3182557989 -11.31000000
21.29814339 39.65437317 0.00000000 15 5 2964 45.01200000 3182557989 3182557989 0.00000000
21.09747314 31.46748543 -0.44105735 17 6 2964 37.88800000 3182557991 3182557991 -0.66700000
6.92522526 12.89386749 -2.27701092 2 7 2964 14.81200000 3182557991 3182557991 -8.84300000
8.74729824 14.52921486 -2.15868163 1 8 2965 17.09600000 3182557994 3182557994 -7.25400000
21.40329552 44.97390366 0.28947979 10 9 2965 49.80800000 3182557994 3182557994 0.33300000
21.13648605 35.09372330 -0.23810248 15 10 2966 40.96800000 3182557996 3182557996 -0.33300000
8.88964748 16.53751564 -2.02242064 1 11 2966 18.88400000 3182557996 3182557996 -6.14800000
11.38206863 16.95747757 -1.90646875 2 12 2967 20.51200000 3182557998 3182557998 -5.33300000
41.10728455 76.44036865 2.01961279 28 13 2967 86.81600000 3182557998 3182557998 1.33300000
40.73607635 60.66741180 0.85073036 28 14 2968 73.08000000 3182558001 3182558001 0.66700000
11.63796043 21.63212395 -1.71768343 2 15 2968 24.62400000 3182558001 3182558001 -4.00000000
11.49776745 19.06759071 -1.81768239 2 16 2969 22.34000000 3182558003 3182558003 -4.66700000
41.03491211 86.07013702 2.77500415 28 17 2969 95.39200000 3182558003 3182558003 1.66700000
40.47213364 67.11790466 1.36805928 28 18 2969 78.38800000 3182558005 3182558005 1.00000000
11.22297478 23.54002762 -1.67133844 3 19 2969 26.13200000 3182558005 3182558005 -3.66700000
14.68174648 21.84874344 -1.53300965 4 20 2970 26.36800000 3182558008 3182558008 -3.33300000
41.70977402 77.46345520 5.12367582 36 21 2970 88.12800000 3182558008 3182558008 3.33300000
40.88941956 67.75643158 3.22417951 28 22 2971 79.20400000 3182558010 3182558010 2.33300000
14.06593800 26.11236191 -1.38160217 2 23 2971 29.69200000 3182558010 3182558010 -2.66700000
14.76320744 24.45394516 -1.49701774 5 24 2972 28.60400000 3182558012 3182558012 -3.00000000
51.08980179 84.59236145 8.06745052 28 26 2973 99.15200000 3182558014 3182558014 4.66700000
13.96435261 29.23746681 -1.32005572 5 27 2973 32.42800000 3182558014 3182558014 -2.33300000
18.05637169 26.83023643 -1.12934768 5 28 2974 32.36000000 3182558017 3182558017 -2.00000000
18.49919701 34.28502655 -0.90651804 5 31 2975 38.96800000 3182558019 3182558019 -1.33300000
3.01399612 4.97278070 -2.71151876 13 0 2982 6.41600000 3182558040 3182558040 -25.00000000
18.67512894 38.94310760 -0.75387412 9 1 2982 43.19600000 3182558040 3182558040 -1.00000000
18.91010284 31.18742561 -1.06145537 7 2 2983 36.48800000 3182558042 3182558042 -1.66700000
3.95192289 7.29979038 -2.32373953 18 3 2983 8.62000000 3182558042 3182558042 -15.63900000
6.31825733 10.41626453 -2.43656111 4 4 2984 12.42400000 3182558044 3182558044 -11.31000000
21.29737282 39.32302475 0.00000000 15 5 2984 44.72000000 3182558044 3182558044 0.00000000
21.08852386 31.21798897 -0.43858945 17 6 2984 37.67600000 3182558047 3182558047 -0.66700000
6.96077919 12.85223866 -2.27393651 2 7 2984 14.79200000 3182558047 3182558047 -8.84300000
8.78561115 14.47823906 -2.15565109 1 8 2985 17.07200000 3182558049 3182558049 -7.25400000
21.37488747 44.51310349 0.28699231 10 9 2985 49.38000000 3182558049 3182558049 0.33300000
21.13431740 34.81457520 -0.23670763 15 10 2986 40.72800000 3182558051 3182558051 -0.33300000
8.93405342 16.48191071 -2.01942205 1 11 2986 18.85600000 3182558051 3182558051 -6.14800000
11.40549374 16.86485863 -1.90052032 2 12 2987 20.44800000 3182558054 3182558054 -5.33300000
41.29189301 76.14525604 2.01561141 28 13 2987 86.64400000 3182558054 3182558054 1.33300000
40.81312180 60.32607651 0.84793651 28 14 2988 72.84000000 3182558056 3182558056 0.66700000
11.71720505 21.59838295 -1.71824145 2 15 2988 24.63200000 3182558056 3182558056 -4.00000000
11.50006676 18.92172623 -1.80759311 2 16 2989 22.21600000 3182558058 3182558058 -4.66700000
41.14444351 85.53003693 2.76220441 28 17 2989 94.95200000 3182558058 3182558058 1.66700000
40.48391724 66.61053467 1.36058962 28 18 2989 77.96000000 3182558061 3182558061 1.00000000
11.29988480 23.48991776 -1.67057097 3 19 2989 26.12000000 3182558061 3182558061 -3.66700000
14.69076061 21.69816208 -1.52603304 4 20 2990 26.24800000 3182558063 3182558063 -3.33300000
47.64469147 87.75060272 5.81506491 42 21 2990 100.02000000 3182558063 3182558063 3.33300000
40.41121674 66.43865204 3.16816616 28 22 2991 77.82800000 3182558065 3182558065 2.33300000
14.13792896 26.02799225 -1.37974083 2 23 2991 29.65200000 3182558065 3182558065 -2.66700000
14.79241467 24.31012726 -1.49136543 5 24 2992 28.49600000 3182558067 3182558067 -3.00000000
51.21064377 84.12744904 8.04011154 28 26 2993 98.81600000 3182558070 3182558070 4.66700000
14.06632519 29.18854523 -1.32005572 5 27 2993 32.42800000 3182558070 3182558070 -2.33300000
18.15216064 26.77035332 -1.12948728 5 28 2994 32.36400000 3182558072 3182558072 -2.00000000
18.55951309 34.11135101 -0.90363342 5 31 2995 38.84400000 3182558074 3182558074 -1.33300000
3.00109816 4.91273117 -2.68447113 12 0 3002 6.35200000 3182558095 3182558095 -25.00000000
18.83011246 38.91728210 -0.75464207 9 1 3002 43.24000000 3182558095 3182558095 -1.00000000
19.00217247 31.09393311 -1.06052446 7 2 3003 36.45600000 3182558097 3182558097 -1.66700000
3.95707774 7.24876070 -2.31187820 16 3 3003 8.57600000 3182558097 3182558097 -15.63900000
6.34844065 10.38410664 -2.43420792 3 4 3004 12.41200000 3182558100 3182558100 -11.31000000
21.28879738 38.98163986 0.00000000 15 5 3004 44.41600000 3182558100 3182558100 0.00000000
21.09384346 30.99208450 -0.43644750 17 6 3004 37.49200000 3182558102 3182558102 -0.66700000
7.00181103 12.82092476 -2.27270651 2 7 3004 14.78400000 3182558102 3182558102 -8.84300000
8.82988453 14.43732738 -2.15413594 1 8 3005 17.06000000 3182558104 3182558104 -7.25400000
21.37142944 44.11064529 0.28487676 10 9 3005 49.01600000 3182558104 3182558104 0.33300000
21.12837219 34.53245926 -0.23528951 15 10 3006 40.48400000 3182558107 3182558107 -0.33300000
8.98580933 16.44015503 -2.01813674 1 11 3006 18.84400000 3182558107 3182558107 -6.14800000
11.45756531 16.81506920 -1.89940500 2 12 3007 20.43600000 3182558109 3182558109 -5.33300000
41.11233521 75.18665314 1.99402332 28 13 3007 85.71600000 3182558109 3182558109 1.33300000
40.82745743 59.89571381 0.84388542 28 14 3008 72.49200000 3182558111 3182558111 0.66700000
11.78295135 21.53984833 -1.71684635 2 15 3008 24.61200000 3182558111 3182558111 -4.00000000
11.57021141 18.88826752 -1.80824411 2 16 3009 22.22400000 3182558114 3182558114 -4.66700000
40.90502930 84.27801514 2.72636485 28 17 3009 93.72000000 3182558114 3182558114 1.66700000
40.41744614 65.98112488 1.35060680 28 18 3009 77.38800000 3182558116 3182558116 1.00000000
11.33997917 23.36414146 -1.66443098 3 19 3009 26.02400000 3182558116 3182558116 -3.66700000
14.82266903 21.72922134 -1.53184688 4 20 3010 26.34800000 3182558118 3182558118 -3.33300000
48.67941284 88.91476440 5.90343618 42 21 3010 101.54000000 3182558118 3182558118 3.33300000
40.11649323 65.43852234 3.12713337 28 22 3011 76.82000000 3182558120 3182558120 2.33300000
14.22293949 25.96796989 -1.37918246 2 23 3011 29.64000000 3182558120 3182558120 -2.66700000
14.86256409 24.23450851 -1.48989999 5 24 3012 28.46800000 3182558123 3182558123 -3.00000000
51.51650238 83.96856689 8.04206467 28 26 3013 98.84000000 3182558125 3182558125 4.66700000
14.17336941 29.15004921 -1.32054412 5 27 3013 32.44000000 3182558125 3182558125 -2.33300000
18.21618080 26.66391754 -1.12767255 5 28 3014 32.31200000 3182558127 3182558127 -2.00000000
18.65923691 34.01129913 -0.90270287 5 31 3015 38.80400000 3182558130 3182558130 -1.33300000
3.00112271 4.87444210 -2.66925693 13 0 3022 6.31600000 3182558150 3182558150 -25.00000000
18.80092430 38.51348114 -0.74807996 27 1 3022 42.86400000 3182558150 3182558150 -1.00000000
19.05397987 30.93549538 -1.05738270 7 2 3023 36.34800000 3182558153 3182558153 -1.66700000
4.00464582 7.27539778 -2.32481790 14 3 3023 8.62400000 3182558153 3182558153 -15.63900000
6.38464928 10.36188316 -2.43420792 3 4 3024 12.41200000 3182558155 3182558155 -11.31000000
21.28388786 38.65130615 0.00000000 15 5 3024 44.12400000 3182558155 3182558155 0.00000000
21.07974815 30.74013710 -0.43393302 16 6 3024 37.27600000 3182558157 3182558157 -0.66700000
7.04080200 12.78601933 -2.27086186 2 7 3024 14.77200000 3182558157 3182558157 -8.84300000
8.87606239 14.39966202 -2.15312576 1 8 3025 17.05200000 3182558160 3182558160 -7.25400000
21.36015511 43.69797897 0.28269148 10 9 3025 48.64000000 3182558160 3182558160 0.33300000
21.12281609 34.25421906 -0.23389466 15 10 3026 40.24400000 3182558162 3182558162 -0.33300000
9.03930283 16.40172195 -2.01728010 1 11 3026 18.83600000 3182558162 3182558162 -6.14800000
11.50266647 16.75527191 -1.89717436 2 12 3027 20.41200000 3182558164 3182558164 -5.33300000
41.19497299 74.71700287 1.98536944 28 13 3027 85.34400000 3182558164 3182558164 1.33300000
40.92306900 59.58798218 0.84155720 28 14 3028 72.29200000 3182558166 3182558166 0.66700000
11.79639721 21.38677788 -1.70791745 2 15 3028 24.48400000 3182558166 3182558166 -4.00000000
11.64026165 18.85454941 -1.80889499 2 16 3029 22.23200000 3182558169 3182558169 -4.66700000
41.20951462 84.15626526 2.72706294 28 17 3029 93.74400000 3182558169 3182558169 1.66700000
40.54036713 65.66607666 1.34704649 28 18 3029 77.18400000 3182558171 3182558171 1.00000000
11.40391064 23.28856468 -1.66187274 3 19 3029 25.98400000 3182558171 3182558171 -3.66700000
14.77402973 21.49634552 -1.51905632 4 20 3030 26.12800000 3182558173 3182558173 -3.33300000
48.85825729 88.50657654 5.88762236 42 21 3030 101.26800000 3182558173 3182558173 3.33300000
40.22492981 65.10429382 3.11785197 28 22 3031 76.59200000 3182558176 3182558176 2.33300000
14.29997635 25.89368057 -1.37787962 2 23 3031 29.61200000 3182558176 3182558176 -2.66700000
14.94286823 24.17568588 -1.48948133 5 24 3032 28.46000000 3182558178 3182558178 -3.00000000
51.77155304 83.72719574 8.03620625 28 26 3033 98.76800000 3182558180 3182558180 4.66700000
14.20462894 28.95686913 -1.31403100 5 27 3033 32.28000000 3182558180 3182558180 -2.33300000
18.26834679 26.54089546 -1.12515974 5 28 3034 32.24000000 3182558183 3182558183 -2.00000000
18.77590942 33.94245911 -0.90260983 10 31 3035 38.80000000 3182558185 3182558185 -1.33300000
2.97797990 4.79924822 -2.63375711 13 0 3042 6.23200000 3182558206 3182558206 -25.00000000
18.83806038 38.25028610 -0.74424040 9 1 3042 42.64400000 3182558206 3182558206 -1.00000000
19.14286995 30.83822250 -1.05633545 7 2 3043 36.31200000 3182558208 3182558208 -1.66700000
4.02067137 7.24453449 -2.31942630 13 3 3043 8.60400000 3182558208 3182558208 -15.63900000
6.41043425 10.32287312 -2.43028545 4 4 3044 12.39200000 3182558210 3182558210 -11.31000000
21.27499199 38.31798935 0.00000000 15 5 3044 43.82800000 3182558210 3182558210 0.00000000
21.08916283 30.52486610 -0.43193075 16 6 3044 37.10400000 3182558213 3182558213 -0.66700000
7.08347178 12.75790882 -2.27024698 2 7 3044 14.76800000 3182558213 3182558213 -8.84300000
8.91789722 14.35510921 -2.15110540 1 8 3045 17.03600000 3182558215 3182558215 -7.25400000
21.39579582 43.38638306 0.28115714 10 9 3045 48.37600000 3182558215 3182558215 0.33300000
21.11768723 33.97983551 -0.23252304 15 10 3046 40.00800000 3182558217 3182558217 -0.33300000
9.08491039 16.34921074 -2.01470971 1 11 3046 18.81200000 3182558217 3182558217 -6.14800000
11.57694244 16.73794746 -1.89977682 2 12 3047 20.44000000 3182558219 3182558219 -5.33300000
40.90761185 73.58712006 1.95912862 28 13 3047 84.21600000 3182558219 3182558219 1.33300000
40.89413452 59.10269928 0.83671451 28 14 3048 71.87600000 3182558222 3182558222 0.66700000
11.86710072 21.33849716 -1.70735943 2 15 3048 24.47600000 3182558222 3182558222 -4.00000000
11.69758034 18.80026245 -1.80759311 2 16 3049 22.21600000 3182558224 3182558224 -4.66700000
40.91862488 82.82894135 2.68866348 28 17 3049 92.42400000 3182558224 3182558224 1.66700000
40.52847290 65.13705444 1.33908820 28 18 3049 76.72800000 3182558226 3182558226 1.00000000
11.47275734 23.22356415 -1.66008186 3 19 3049 25.95600000 3182558226 3182558226 -3.66700000
14.82624340 21.41181374 -1.51673079 4 20 3050 26.08800000 3182558229 3182558229 -3.33300000
41.05301666 73.75771332 4.91600323 39 21 3050 84.55600000 3182558229 3182558229 3.33300000
40.27659225 64.68188477 3.10433722 28 22 3051 76.26000000 3182558231 3182558231 2.33300000
14.34945393 25.77029610 -1.37397099 2 23 3051 29.52800000 3182558231 3182558231 -2.66700000
15.00393295 24.08608246 -1.48717856 5 24 3052 28.41600000 3182558233 3182558233 -3.00000000
52.09512711 83.59672546 8.04108810 28 26 3053 98.82800000 3182558236 3182558236 4.66700000
14.36057377 29.01815224 -1.31907868 5 27 3053 32.40400000 3182558236 3182558236 -2.33300000
18.33582115 26.44083023 -1.12362421 5 28 3054 32.19600000 3182558238 3182558238 -2.00000000
2.99855852 4.79497147 -2.63713789 14 0 3062 6.24000000 3182558261 3182558261 -25.00000000
19.11738586 38.47799301 -0.74996483 9 1 3062 42.97200000 3182558261 3182558261 -1.00000000
19.23131371 30.74070740 -1.05528820 7 2 3063 36.27600000 3182558263 3182558263 -1.66700000
4.03276825 7.20692539 -2.31187820 11 3 3063 8.57600000 3182558263 3182558263 -15.63900000
6.44226694 10.29378414 -2.42871642 3 4 3064 12.38400000 3182558266 3182558266 -11.31000000
21.27184677 37.99916840 0.00000000 15 5 3064 43.54800000 3182558266 3182558266 0.00000000
21.08890724 30.28652954 -0.42964908 16 6 3065 36.90800000 3182558268 3182558268 -0.66700000
7.12245941 12.71806622 -2.26778746 2 7 3065 14.75200000 3182558268 3182558268 -8.84300000
8.96795177 14.32389259 -2.15110540 1 8 3065 17.03600000 3182558270 3182558270 -7.25400000
21.38320160 42.98196030 0.27901834 10 9 3065 48.00800000 3182558270 3182558270 0.33300000
21.12364006 33.72624969 -0.23129092 15 10 3066 39.79600000 3182558272 3182558272 -0.33300000
9.13220501 16.30005074 -2.01256776 1 11 3066 18.79200000 3182558272 3182558272 -6.14800000
11.62163639 16.67782784 -1.89754605 2 12 3067 20.41600000 3182558275 3182558275 -5.33300000
41.20137787 73.51015472 1.96089661 28 13 3067 84.29200000 3182558275 3182558275 1.33300000
41.13450241 59.00880814 0.83741295 28 14 3068 71.93600000 3182558277 3182558277 0.66700000
11.94541645 21.30390358 -1.70791745 2 15 3068 24.48400000 3182558277 3182558277 -4.00000000
11.75042725 18.73904991 -1.80564034 2 16 3069 22.19200000 3182558279 3182558279 -4.66700000
40.62789536 81.52257538 2.65084577 28 17 3069 91.12400000 3182558279 3182558279 1.66700000
40.77544022 65.00162506 1.33936751 28 18 3070 76.74400000 3182558282 3182558282 1.00000000
11.55423641 23.17421341 -1.65957022 3 19 3070 25.94800000 3182558282 3182558282 -3.66700000
14.90089417 21.35993004 -1.51673079 4 20 3070 26.08800000 3182558284 3182558284 -3.33300000
41.26137161 73.52690125 4.91018915 39 21 3070 84.45600000 3182558284 3182558284 3.33300000
40.25782013 64.15158844 3.08561182 28 22 3071 75.80000000 3182558286 3182558286 2.33300000
14.41389370 25.67475510 -1.37155139 2 23 3071 29.47600000 3182558286 3182558286 -2.66700000
15.08579445 24.03017807 -1.48696923 5 24 3072 28.41200000 3182558289 3182558289 -3.00000000
52.48414993 83.56967163 8.05605888 28 26 3073 99.01200000 3182558291 3182558291 4.66700000
14.38680077 28.81766319 -1.31223989 5 27 3073 32.23600000 3182558291 3182558291 -2.33300000
18.41884804 26.36355782 -1.12306583 5 28 3074 32.18000000 3182558293 3182558293 -2.00000000
3.05997062 4.85915089 -2.67770934 15 0 3080 6.33600000 3182558316 3182558316 -25.00000000
19.15042496 38.24251556 -0.74654412 9 1 3080 42.77600000 3182558316 3182558316 -1.00000000
19.31287575 30.65645790 -1.05447364 7 2 3081 36.24800000 3182558319 3182558319 -1.66700000
3.96838021 7.03986692 -2.26227641 15 3 3081 8.39200000 3182558319 3182558319 -15.63900000
6.47248268 10.27017593 -2.42793202 4 4 3082 12.38000000 3182558321 3182558321 -11.31000000
21.25947571 37.69871521 0.00000000 14 5 3082 43.28000000 3182558321 3182558321 0.00000000
21.07374954 30.06291771 -0.42741400 16 6 3083 36.71600000 3182558323 3182558323 -0.66700000
7.15461111 12.68185806 -2.26532769 2 7 3083 14.73600000 3182558323 3182558323 -8.84300000
9.00020981 14.27550888 -2.14807510 1 8 3083 17.01200000 3182558325 3182558325 -7.25400000
21.34601212 42.57131195 0.27678657 19 9 3083 47.62400000 3182558325 3182558325 0.33300000
21.10359383 33.46010971 -0.22991930 14 10 3084 39.56000000 3182558328 3182558328 -0.33300000
9.19314194 16.28859901 -2.01470971 1 11 3084 18.81200000 3182558328 3182558328 -6.14800000
11.66939926 16.63471413 -1.89680254 2 12 3085 20.40800000 3182558330 3182558330 -5.33300000
40.90322495 72.44364166 1.93586552 28 13 3085 83.21600000 3182558330 3182558330 1.33300000
40.47187424 57.67119217 0.82023072 28 14 3086 70.46000000 3182558332 3182558332 0.66700000
11.99854851 21.24195099 -1.70596433 2 15 3086 24.45600000 3182558332 3182558332 -4.00000000
11.81562519 18.71215630 -1.80661678 2 16 3087 22.20400000 3182558335 3182558335 -4.66700000
41.09018707 81.80542755 2.66422749 28 17 3087 91.58400000 3182558335 3182558335 1.66700000
40.60939407 64.31223297 1.32763946 28 18 3087 76.07200000 3182558337 3182558337 1.00000000
11.61219406 23.11842728 -1.65803528 3 19 3087 25.92400000 3182558337 3182558337 -3.66700000
41.49216080 73.39691162 4.91018915 39 21 3088 84.45600000 3182558339 3182558339 3.33300000
40.21576691 63.63964081 3.06704926 28 22 3089 75.34400000 3182558342 3182558342 2.33300000
14.47677994 25.59804535 -1.36987627 2 23 3089 29.44000000 3182558342 3182558342 -2.66700000
15.09931278 23.88475037 -1.48089826 5 24 3090 28.29600000 3182558344 3182558344 -3.00000000
14.47906017 28.77589226 -1.31240273 5 27 3091 32.24000000 3182558346 3182558346 -2.33300000
18.48088264 26.27613449 -1.12180936 5 28 3092 32.14400000 3182558349 3182558349 -2.00000000
18.91954994 33.41297150 -0.89349067 5 31 3092 38.40800000 3182558351 3182558351 -1.33300000
3.07581687 4.84484243 -2.67601871 20 0 3101 6.33200000 3182558372 3182558372 -25.00000000
19.29046249 38.17206955 -0.74654412 9 1 3101 42.77600000 3182558372 3182558372 -1.00000000
19.40581512 30.55509186 -1.05342638 7 2 3102 36.21200000 3182558374 3182558374 -1.66700000
3.92181182 6.89802980 -2.22130108 19 3 3102 8.24000000 3182558374 3182558374 -15.63900000
6.50587463 10.23976326 -2.42636323 4 4 3103 12.37200000 3182558377 3182558377 -11.31000000
21.26105118 37.38063431 0.00000000 14 5 3103 43.00400000 3182558377 3182558377 0.00000000
21.10011292 29.87809181 -0.42583081 16 6 3103 36.58000000 3182558379 3182558379 -0.66700000
7.19297314 12.64649963 -2.26348305 2 7 3103 14.72400000 3182558379 3182558379 -8.84300000
9.04608631 14.23237896 -2.14655972 1 8 3104 17.00000000 3182558381 3182558381 -7.25400000
21.39173508 42.27507782 0.27536848 9 9 3104 47.38000000 3182558381 3182558381 0.33300000
21.11877823 33.21376801 -0.22875692 14 10 3105 39.36000000 3182558384 3182558384 -0.33300000
9.23704147 16.22714424 -2.01128268 1 11 3105 18.78000000 3182558384 3182558384 -6.14800000
11.72339249 16.58207512 -1.89568722 2 12 3106 20.39600000 3182558386 3182558386 -5.33300000
41.12889481 72.22373962 1.93400443 28 13 3106 83.13600000 3182558386 3182558386 1.33300000
40.56287766 57.35266113 0.81780940 28 14 3107 70.25200000 3182558388 3182558388 0.66700000
12.08619976 21.21516609 -1.70735943 2 15 3107 24.47600000 3182558388 3182558388 -4.00000000
11.87556553 18.65527153 -1.80531490 2 16 3108 22.18800000 3182558390 3182558390 -4.66700000
41.21439362 81.30834198 2.65294027 28 17 3108 91.19600000 3182558390 3182558390 1.66700000
40.83624649 64.14946747 1.32736027 28 18 3108 76.05600000 3182558393 3182558393 1.00000000
11.68963051 23.06146812 -1.65701199 3 19 3108 25.90800000 3182558393 3182558393 -3.66700000
44.43696213 77.93788910 5.22483730 35 21 3109 89.86800000 3182558395 3182558395 3.33300000
40.19749832 63.09743500 3.04799843 28 22 3110 74.87600000 3182558397 3182558397 2.33300000
14.56654453 25.53787041 -1.36950397 2 23 3110 29.43200000 3182558397 3182558397 -2.66700000
15.17387199 23.80903625 -1.47964215 5 24 3111 28.27200000 3182558400 3182558400 -3.00000000
14.56995583 28.69412231 -1.31110013 5 27 3112 32.20800000 3182558402 3182558402 -2.33300000
18.57706451 26.20822144 -1.12180936 10 28 3113 32.14400000 3182558404 3182558404 -2.00000000
19.05180359 33.36076736 -0.89395595 5 31 3113 38.42800000 3182558407 3182558407 -1.33300000
3.10358500 4.85294056 -2.68616176 13 0 3120 6.35600000 3182558427 3182558427 -25.00000000
19.29165840 37.86201096 -0.74172729 9 1 3120 42.50000000 3182558427 3182558427 -1.00000000
19.45316315 30.40637016 -1.05051732 7 2 3121 36.11200000 3182558430 3182558430 -1.66700000
3.91211200 6.82816887 -2.20296979 16 3 3121 8.17200000 3182558430 3182558430 -15.63900000
6.53979492 10.21813202 -2.42636323 3 4 3122 12.37200000 3182558432 3182558432 -11.31000000
21.25361252 37.08087921 0.00000000 14 5 3122 42.74000000 3182558432 3182558432 0.00000000
21.08316994 29.64498138 -0.42350259 16 6 3122 36.38000000 3182558434 3182558434 -0.66700000
7.22897434 12.61229038 -2.26163816 2 7 3122 14.71200000 3182558434 3182558434 -8.84300000
9.09323311 14.20230293 -2.14655972 1 8 3123 17.00000000 3182558437 3182558437 -7.25400000
21.34820938 41.84404373 0.27302045 19 9 3123 46.97600000 3182558437 3182558437 0.33300000
21.10367393 32.94819641 -0.22740856 14 10 3124 39.12800000 3182558439 3182558439 -0.33300000
9.28684330 16.18952370 -2.01042581 1 11 3124 18.77200000 3182558439 3182558439 -6.14800000
11.77600670 16.53986359 -1.89531541 2 12 3125 20.39200000 3182558441 3182558441 -5.33300000
41.20694733 71.80601501 1.92646718 28 13 3125 82.81200000 3182558441 3182558441 1.33300000
40.43959427 56.77802277 0.81152320 28 14 3126 69.71200000 3182558443 3182558443 0.66700000
12.15052509 21.16458893 -1.70652235 2 15 3126 24.46400000 3182558443 3182558443 -4.00000000
11.92875481 18.60236359 -1.80401313 2 16 3127 22.17200000 3182558446 3182558446 -4.66700000
41.14717865 80.51256561 2.63141346 28 17 3127 90.45600000 3182558446 3182558446 1.66700000
40.56732178 63.26293182 1.31179273 28 18 3127 75.16400000 3182558448 3182558448 1.00000000
11.76604080 23.02257729 -1.65701199 3 19 3127 25.90800000 3182558448 3182558448 -3.66700000
14.95410919 20.98037529 -1.50045180 4 20 3128 25.80800000 3182558450 3182558450 -3.33300000
44.59371185 77.61351776 5.21297741 35 21 3128 89.66400000 3182558450 3182558450 3.33300000
40.36550140 62.89987946 3.04490447 28 22 3129 74.80000000 3182558453 3182558453 2.33300000
14.60336304 25.40628624 -1.36503708 2 23 3129 29.33600000 3182558453 3182558453 -2.66700000
15.24195194 23.74178123 -1.47859550 5 24 3130 28.25200000 3182558455 3182558455 -3.00000000
14.59035587 28.49978828 -1.30442405 5 27 3131 32.04400000 3182558457 3182558457 -2.33300000
19.15235329 33.28007507 -0.89349067 5 31 3132 38.40800000 3182558462 3182558462 -1.33300000
3.12050605 4.84207726 -2.68616176 11 0 3140 6.35600000 3182558483 3182558483 -25.00000000
19.40907860 37.76598358 -0.74116880 9 1 3140 42.46800000 3182558483 3182558483 -1.00000000
19.53751755 30.30467606 -1.04935372 7 2 3141 36.07200000 3182558485 3182558485 -1.66700000
3.93014312 6.80446482 -2.19973493 21 3 3141 8.16000000 3182558485 3182558485 -15.63900000
6.57329702 10.19194603 -2.42557859 3 4 3142 12.36800000 3182558487 3182558487 -11.31000000
21.25284004 36.78134155 0.00000000 21 5 3142 42.48000000 3182558487 3182558487 0.00000000
21.07936668 29.42164421 -0.42136064 23 6 3142 36.19600000 3182558490 3182558490 -0.66700000
7.27097797 12.58355713 -2.26102328 2 7 3142 14.70800000 3182558490 3182558490 -8.84300000
9.13844967 14.16380596 -2.14554977 1 8 3143 16.99200000 3182558492 3182558492 -7.25400000
21.33491325 41.45984268 0.27099791 19 9 3143 46.62800000 3182558492 3182558492 0.33300000
21.10576057 32.69957352 -0.22619969 14 10 3144 38.92000000 3182558494 3182558494 -0.33300000
9.30547237 16.09159660 -2.00228643 1 11 3144 18.69600000 3182558494 3182558494 -6.14800000
11.81742096 16.47600365 -1.89271295 2 12 3145 20.36400000 3182558496 3182558496 -5.33300000
40.94871521 70.78253937 1.90283179 28 13 3145 81.79600000 3182558496 3182558496 1.33300000
40.57225037 56.54552078 0.81021941 28 14 3146 69.60000000 3182558499 3182558499 0.66700000
12.21033764 21.09787178 -1.70456922 2 15 3146 24.43600000 3182558499 3182558499 -4.00000000
11.98928928 18.55391312 -1.80336213 2 16 3147 22.16400000 3182558501 3182558501 -4.66700000
40.93151093 79.40533447 2.59987926 28 17 3147 89.37200000 3182558501 3182558501 1.66700000
40.61436462 62.82833099 1.30585885 28 18 3148 74.82400000 3182558503 3182558503 1.00000000
11.81192207 22.90479279 -1.65163946 3 19 3148 25.82400000 3182558503 3182558503 -3.66700000
15.07383442 20.99291992 -1.50510299 4 20 3148 25.88800000 3182558506 3182558506 -3.33300000
45.17658615 77.99643707 5.24925613 35 21 3148 90.28800000 3182558506 3182558506 3.33300000
40.16811752 62.11422729 3.01364136 28 22 3149 74.03200000 3182558508 3182558508 2.33300000
14.68594837 25.34478378 -1.36447871 2 23 3149 29.32400000 3182558508 3182558508 -2.66700000
15.32256413 23.68507767 -1.47838604 5 24 3150 28.24800000 3182558510 3182558510 -3.00000000
14.68058109 28.43092918 -1.30360997 5 27 3151 32.02400000 3182558513 3182558513 -2.33300000
18.59399033 25.85722351 -1.11217713 10 28 3152 31.86800000 3182558515 3182558515 -2.00000000
19.19415855 33.08503723 -0.89004773 5 31 3152 38.26000000 3182558517 3182558517 -1.33300000
3.09197688 4.76122665 -2.64728069 14 0 3160 6.26400000 3182558538 3182558538 -25.00000000
19.51502037 37.64829254 -0.74019146 9 1 3160 42.41200000 3182558538 3182558538 -1.00000000
19.61050797 30.18600082 -1.04760826 6 2 3161 36.01200000 3182558540 3182558540 -1.66700000
3.96937656 6.81733465 -2.20836139 18 3 3161 8.19200000 3182558540 3182558540 -15.63900000
6.60455894 10.16236115 -2.42400980 4 4 3162 12.36000000 3182558542 3182558542 -11.31000000
21.24419785 36.47189713 0.00000000 14 5 3162 42.20800000 3182558542 3182558542 0.00000000
21.07935715 29.19501877 -0.41921869 23 6 3163 36.01200000 3182558545 3182558545 -0.66700000
7.31307030 12.54999352 -2.25979352 2 7 3163 14.70000000 3182558545 3182558545 -8.84300000
9.18134689 14.12184048 -2.14403439 1 8 3163 16.98000000 3182558547 3182558547 -7.25400000
21.35973358 41.15435028 0.26948681 19 9 3163 46.36800000 3182558547 3182558547 0.33300000
21.09982872 32.44128036 -0.22492106 14 10 3164 38.70000000 3182558549 3182558549 -0.33300000
9.39363194 16.11398888 -2.00914073 1 11 3164 18.76000000 3182558549 3182558549 -6.14800000
11.87486076 16.43465233 -1.89271295 2 12 3165 20.36400000 3182558552 3182558552 -5.33300000
40.87724686 70.09336853 1.88812947 28 13 3165 81.16400000 3182558552 3182558552 1.33300000
40.69206238 56.29658127 0.80868274 28 14 3166 69.46800000 3182558554 3182558554 0.66700000
12.27586555 21.04133415 -1.70345306 2 15 3166 24.42000000 3182558554 3182558554 -4.00000000
12.05180645 18.50860977 -1.80303669 2 16 3167 22.16000000 3182558556 3182558556 -4.66700000
40.75656891 78.39282990 2.57137060 28 17 3167 88.39200000 3182558556 3182558556 1.66700000
40.36201859 61.98613358 1.29112899 28 18 3167 73.98000000 3182558559 3182558559 1.00000000
11.88228798 22.85487175 -1.65087199 3 19 3167 25.81200000 3182558559 3182558559 -3.66700000
15.14000034 20.93046951 -1.50440526 4 20 3168 25.87600000 3182558561 3182558561 -3.33300000
45.20695114 77.42445374 5.22134924 35 21 3168 89.80800000 3182558561 3182558561 3.33300000
40.15994644 61.62874222 2.99687004 28 22 3169 73.62000000 3182558563 3182558563 2.33300000
14.74006844 25.23471260 -1.36131454 2 23 3169 29.25600000 3182558563 3182558563 -2.66700000
15.39642143 23.61806297 -1.47754872 5 24 3170 28.23200000 3182558566 3182558566 -3.00000000
14.77050400 28.36178780 -1.30279577 5 27 3171 32.00400000 3182558568 3182558568 -2.33300000
18.69351578 25.80511093 -1.11273551 5 28 3172 31.88400000 3182558570 3182558570 -2.00000000
19.30519485 32.99720764 -0.88958246 5 31 3173 38.24000000 3182558572 3182558572 -1.33300000
3.10659266 4.74737120 -2.64559031 15 0 3180 6.26000000 3182558593 3182558593 -25.00000000
19.63334846 37.55513000 -0.73970282 9 1 3180 42.38400000 3182558593 3182558593 -1.00000000
19.67196083 30.05045700 -1.04528105 6 2 3181 35.93200000 3182558595 3182558595 -1.66700000
3.97950101 6.78018379 -2.20081329 17 3 3181 8.16400000 3182558595 3182558595 -15.63900000
6.63569403 10.13268185 -2.42244077 3 4 3182 12.35200000 3182558598 3182558598 -11.31000000
21.23973274 36.17331314 0.00000000 21 5 3182 41.94800000 3182558598 3182558598 0.00000000
21.07291603 28.97246742 -0.41707674 23 6 3183 35.82800000 3182558600 3182558600 -0.66700000
7.34882593 12.51075745 -2.25733399 2 7 3183 14.68400000 3182558600 3182558600 -8.84300000
9.22623634 14.08306789 -2.14302421 1 8 3183 16.97200000 3182558602 3182558602 -7.25400000
21.32703400 40.74288177 0.26727828 19 9 3183 45.98800000 3182558602 3182558602 0.33300000
21.09892845 32.19346619 -0.22371218 14 10 3184 38.49200000 3182558605 3182558605 -0.33300000
9.40952492 16.01252365 -2.00057292 1 11 3184 18.68000000 3182558605 3182558605 -6.14800000
11.92746925 16.38666153 -1.89196944 2 12 3185 20.35600000 3182558607 3182558607 -5.33300000
40.73053360 69.28491974 1.87017035 28 13 3185 80.39200000 3182558607 3182558607 1.33300000
40.68585205 55.87612534 0.80467826 28 14 3186 69.12400000 3182558609 3182558609 0.66700000
12.34519291 20.99147606 -1.70289505 2 15 3186 24.41200000 3182558609 3182558609 -4.00000000
12.10977840 18.45642853 -1.80206037 2 16 3187 22.14800000 3182558612 3182558612 -4.66700000
40.79044342 77.79328918 2.55635977 28 17 3187 87.87600000 3182558612 3182558612 1.66700000
40.64835358 61.95186996 1.29336298 28 18 3187 74.10800000 3182558614 3182558614 1.00000000
11.95457935 22.79911423 -1.64984870 3 19 3187 25.79600000 3182558614 3182558614 -3.66700000
15.20826626 20.87103844 -1.50394022 4 20 3188 25.86800000 3182558616 3182558616 -3.33300000
41.33677673 70.23197174 4.74600458 41 21 3188 81.63200000 3182558616 3182558616 3.33300000
40.35508347 61.45811462 2.99540448 28 22 3189 73.58400000 3182558619 3182558619 2.33300000
14.81792736 25.16589165 -1.36038399 2 23 3189 29.23600000 3182558619 3182558619 -2.66700000
15.47438335 23.55749702 -1.47713006 5 24 3190 28.22400000 3182558621 3182558621 -3.00000000
14.80994511 28.19682884 -1.29758525 5 27 3191 31.87600000 3182558623 3182558623 -2.33300000
18.82589531 25.79782677 -1.11524832 5 28 3192 31.95600000 3182558625 3182558625 -2.00000000
19.40029526 32.90889359 -0.88893110 5 31 3192 38.21200000 3182558628 3182558628 -1.33300000
3.14193726 4.76318884 -2.66080451 14 0 3201 6.29600000 3182558648 3182558648 -25.00000000
19.70928955 37.36618423 -0.73739910 8 1 3201 42.25200000 3182558648 3182558648 -1.00000000
19.77315903 29.96480560 -1.04481566 6 2 3202 35.91600000 3182558651 3182558651 -1.66700000
4.01609659 6.78544140 -2.20728302 17 3 3202 8.18800000 3182558651 3182558651 -15.63900000
6.66630507 10.09847260 -2.42008734 3 4 3203 12.34000000 3182558653 3182558653 -11.31000000
21.23970413 35.87149811 0.00000000 13 5 3203 41.68800000 3182558653 3182558653 0.00000000
21.06990623 28.75677109 -0.41502789 23 6 3203 35.65200000 3182558655 3182558655 -0.66700000
7.39245176 12.48502922 -2.25733399 2 7 3203 14.68400000 3182558655 3182558655 -8.84300000
9.27560520 14.04584599 -2.14251924 1 8 3204 16.96800000 3182558658 3182558658 -7.25400000
21.31183815 40.35318756 0.26523250 19 9 3204 45.63600000 3182558658 3182558658 0.33300000
21.10433578 31.94571114 -0.22252655 14 10 3205 38.28800000 3182558660 3182558660 -0.33300000
9.46815109 15.97792912 -2.00057292 1 11 3205 18.68000000 3182558660 3182558660 -6.14800000
11.98509312 16.33962440 -1.89159763 2 12 3206 20.35200000 3182558662 3182558662 -5.33300000
40.88632202 68.97004700 1.86570382 28 13 3206 80.20000000 3182558662 3182558662 1.33300000
40.50704956 55.20422363 0.79713482 28 14 3207 68.47600000 3182558665 3182558665 0.66700000
12.43018913 20.95981598 -1.70401108 2 15 3207 24.42800000 3182558665 3182558665 -4.00000000
12.17734337 18.41192055 -1.80206037 2 16 3208 22.14800000 3182558667 3182558667 -4.66700000
40.78549576 77.09545898 2.53832364 28 17 3208 87.25600000 3182558667 3182558667 1.66700000
40.74056625 61.59898758 1.28910458 28 18 3208 73.86400000 3182558669 3182558669 1.00000000
12.02312851 22.72691917 -1.64780200 3 19 3208 25.76400000 3182558669 3182558669 -3.66700000
15.39810753 20.96965218 -1.51510286 4 20 3209 26.06000000 3182558672 3182558672 -3.33300000
41.30653763 69.59580231 4.71321392 41 21 3209 81.06800000 3182558672 3182558672 3.33300000
40.27565002 60.84986877 2.97293401 28 22 3210 73.03200000 3182558674 3182558674 2.33300000
14.86314583 25.03239059 -1.35610306 2 23 3210 29.14400000 3182558674 3182558674 -2.66700000
15.50328445 23.41402817 -1.47168708 4 24 3211 28.12000000 3182558676 3182558676 -3.00000000
14.90196323 28.12117004 -1.29660833 5 27 3212 31.85200000 3182558678 3182558678 -2.33300000
18.89190292 25.69000626 -1.11357319 5 28 3213 31.90800000 3182558681 3182558681 -2.00000000
19.51016235 32.80666351 -0.88818669 5 31 3214 38.18000000 3182558683 3182558683 -1.33300000
3.17058492 4.77030706 -2.67094731 16 0 3221 6.32000000 3182558704 3182558704 -25.00000000
19.76259422 37.15238953 -0.73453689 8 1 3221 42.08800000 3182558704 3182558704 -1.00000000
19.85549736 29.86230659 -1.04365206 6 2 3222 35.87600000 3182558706 3182558706 -1.66700000
6.70151472 10.07514191 -2.42008734 3 4 3223 12.34000000 3182558708 3182558708 -11.31000000
21.23769188 35.58418274 0.00000000 20 5 3223 41.44000000 3182558708 3182558708 0.00000000
21.06802368 28.54467010 -0.41302562 22 6 3223 35.48000000 3182558711 3182558711 -0.66700000
7.42788553 12.44557285 -2.25487423 2 7 3223 14.66800000 3182558711 3182558711 -8.84300000
9.32677555 14.01668644 -2.14302421 1 8 3224 16.97200000 3182558713 3182558713 -7.25400000
21.33410645 40.05613327 0.26376790 19 9 3224 45.38400000 3182558713 3182558713 0.33300000
21.09824753 31.69537354 -0.22129443 13 10 3225 38.07600000 3182558715 3182558715 -0.33300000
9.50755119 15.91746807 -1.99714577 1 11 3225 18.64800000 3182558715 3182558715 -6.14800000
12.03258896 16.28487587 -1.89011061 2 12 3226 20.33600000 3182558718 3182558718 -5.33300000
40.39864349 67.60827637 1.83267021 27 13 3226 78.78000000 3182558718 3182558718 1.33300000
40.57587433 54.89523315 0.79471344 28 14 3227 68.26800000 3182558720 3182558720 0.66700000
12.43571377 20.80327606 -1.69480324 2 15 3227 24.29600000 3182558720 3182558720 -4.00000000
12.17742348 18.27309227 -1.79262209 2 16 3228 22.03200000 3182558722 3182558722 -4.66700000
40.64972687 76.19417572 2.51330566 28 17 3228 86.39600000 3182558722 3182558722 1.66700000
40.88658142 61.35322952 1.28694046 28 18 3228 73.74000000 3182558725 3182558725 1.00000000
12.10426617 22.68833351 -1.64805782 3 19 3228 25.76800000 3182558725 3182558725 -3.66700000
15.45221424 20.89009285 -1.51324248 4 20 3229 26.02800000 3182558727 3182558727 -3.33300000
41.12485123 68.74184418 4.66507483 42 21 3229 80.24000000 3182558727 3182558727 3.33300000
40.36141205 60.51938248 2.96365285 28 22 3230 72.80400000 3182558729 3182558729 2.33300000
14.93607140 24.95635605 -1.35480022 2 23 3230 29.11600000 3182558729 3182558729 -2.66700000
15.56718540 23.33318520 -1.47001231 4 24 3231 28.08800000 3182558731 3182558731 -3.00000000
14.98496437 28.04078102 -1.29530561 5 27 3232 31.82000000 3182558734 3182558734 -2.33300000
18.99098015 25.63675308 -1.11413157 5 28 3233 31.92400000 3182558736 3182558736 -2.00000000
19.55876732 32.62860489 -0.88520902 4 31 3234 38.05200000 3182558738 3182558738 -1.33300000
3.18840289 4.76277971 -2.67263794 14 0 3240 6.32400000 3182558759 3182558759 -25.00000000
19.88190842 37.07960129 -0.73439729 8 1 3240 42.08000000 3182558759 3182558759 -1.00000000
19.92326736 29.74979019 -1.04202294 6 2 3241 35.82000000 3182558761 3182558761 -1.66700000
4.02646971 6.69852257 -2.18787360 2 3 3241 8.11600000 3182558761 3182558761 -15.63900000
6.72833872 10.04308701 -2.41773391 3 4 3242 12.32800000 3182558764 3182558764 -11.31000000
21.21952629 35.28731537 0.00000000 20 5 3242 41.17600000 3182558764 3182558764 0.00000000
21.05520248 28.33018875 -0.41093025 22 6 3242 35.30000000 3182558766 3182558766 -0.66700000
7.46096802 12.40732384 -2.25241470 23 7 3242 14.65200000 3182558766 3182558766 -8.84300000
9.32460499 13.91316414 -2.13191271 1 8 3243 16.88400000 3182558768 3182558768 -7.25400000
21.30599976 39.68561172 0.26179186 18 9 3243 45.04400000 3182558768 3182558768 0.33300000
21.08740997 31.45247459 -0.22008555 13 10 3244 37.86800000 3182558771 3182558771 -0.33300000
9.55823326 15.88244438 -1.99671733 1 11 3244 18.64400000 3182558771 3182558771 -6.14800000
12.08414841 16.24168968 -1.88973880 2 12 3245 20.33200000 3182558773 3182558773 -5.33300000
40.52980042 67.31977081 1.82848287 27 13 3245 78.60000000 3182558773 3182558773 1.33300000
40.64783478 54.61278534 0.79257149 28 14 3246 68.08400000 3182558775 3182558775 0.66700000
12.48816204 20.73457718 -1.69257104 2 15 3246 24.26400000 3182558775 3182558775 -4.00000000
12.24461842 18.24254036 -1.79359841 2 16 3247 22.04400000 3182558778 3182558778 -4.66700000
40.92300034 76.09768677 2.51458573 28 17 3247 86.44000000 3182558778 3182558778 1.66700000
40.77553558 60.74908829 1.27709734 28 18 3247 73.17600000 3182558780 3182558780 1.00000000
12.16620255 22.62345886 -1.64626706 3 19 3247 25.74000000 3182558780 3182558780 -3.66700000
15.51424694 20.82912827 -1.51254475 4 20 3248 26.01600000 3182558782 3182558782 -3.33300000
41.06810379 68.13313293 4.63298225 41 21 3248 79.68800000 3182558782 3182558782 3.33300000
40.45267868 60.22264099 2.95567417 28 22 3249 72.60800000 3182558784 3182558784 2.33300000
14.98986149 24.85878563 -1.35219443 2 23 3249 29.06000000 3182558784 3182558784 -2.66700000
15.63779163 23.27148819 -1.46938431 4 24 3250 28.07600000 3182558787 3182558787 -3.00000000
15.06649590 27.96982384 -1.29432869 5 27 3251 31.79600000 3182558789 3182558789 -2.33300000
18.99462509 25.46468925 -1.10938525 5 28 3252 31.78800000 3182558791 3182558791 -2.00000000
19.64825439 32.53275681 -0.88437152 4 31 3253 38.01600000 3182558794 3182558794 -1.33300000
3.20381021 4.74805641 -2.67094731 13 0 3261 6.32000000 3182558814 3182558814 -25.00000000
19.99864960 36.97130203 -0.73369914 8 1 3261 42.04000000 3182558814 3182558814 -1.00000000
19.97401047 29.59040451 -1.03899753 6 2 3262 35.71600000 3182558817 3182558817 -1.66700000
4.01705265 6.62772036 -2.16954255 5 3 3262 8.04800000 3182558817 3182558817 -15.63900000
6.75632334 10.00535679 -2.41459608 3 4 3263 12.31200000 3182558819 3182558819 -11.31000000
21.21391487 34.98698044 0.00000000 13 5 3263 40.91600000 3182558819 3182558819 0.00000000
21.07977486 28.14717865 -0.40939361 22 6 3263 35.16800000 3182558821 3182558821 -0.66700000
7.49614716 12.36299610 -2.24934006 41 7 3263 14.63200000 3182558821 3182558821 -8.84300000
9.37775803 13.88218307 -2.13241768 2 8 3264 16.88800000 3182558824 3182558824 -7.25400000
21.34082603 39.40325546 0.26044348 18 9 3264 44.81200000 3182558824 3182558824 0.33300000
21.09056664 31.20926666 -0.21892317 13 10 3265 37.66800000 3182558826 3182558826 -0.33300000
9.60606480 15.83030510 -1.99457538 1 11 3265 18.62400000 3182558826 3182558826 -6.14800000
12.13881779 16.19091606 -1.88899529 2 12 3266 20.32400000 3182558828 3182558828 -5.33300000
40.18485641 66.19654083 1.80196285 27 13 3266 77.46000000 3182558828 3182558828 1.33300000
40.60054398 54.13385773 0.78777540 28 14 3267 67.67200000 3182558830 3182558830 0.66700000
12.56821632 20.69548798 -1.69312918 2 15 3267 24.27200000 3182558830 3182558830 -4.00000000
12.30469608 18.18763351 -1.79262209 2 16 3268 22.03200000 3182558833 3182558833 -4.66700000
40.82222748 75.24781036 2.49142981 28 17 3268 85.64400000 3182558833 3182558833 1.66700000
41.07187653 60.70854187 1.27940106 28 18 3268 73.30800000 3182558835 3182558835 1.00000000
12.24903965 22.57871628 -1.64626706 3 19 3268 25.74000000 3182558835 3182558835 -3.66700000
15.55932331 20.73060799 -1.50952148 4 20 3269 25.96400000 3182558837 3182558837 -3.33300000
41.12674332 67.66821289 4.61158705 41 21 3269 79.32000000 3182558837 3182558837 3.33300000
40.38184357 59.64373398 2.93450642 28 22 3270 72.08800000 3182558840 3182558840 2.33300000
15.07672119 24.79685020 -1.35182226 2 23 3270 29.05200000 3182558840 3182558840 -2.66700000
15.72522068 23.21732330 -1.46959364 4 24 3271 28.08000000 3182558842 3182558842 -3.00000000
98.53688812 145.42900085 14.34065151 28 26 3272 176.25200000 3182558844 3182558844 4.66700000
15.10975266 27.80555153 -1.28928101 5 27 3272 31.67200000 3182558844 3182558844 -2.33300000
19.07582092 25.37892151 -1.10868716 5 28 3273 31.76800000 3182558847 3182558847 -2.00000000
19.75904083 32.44686127 -0.88399935 4 31 3274 38.00000000 3182558849 3182558849 -1.33300000
3.22444105 4.74284029 -2.67432833 15 0 3281 6.32800000 3182558870 3182558870 -25.00000000
20.06438446 36.78540421 -0.73139542 8 1 3281 41.90800000 3182558870 3182558870 -1.00000000
20.05469322 29.48744011 -1.03783393 6 2 3282 35.67600000 3182558872 3182558872 -1.66700000
4.02209091 6.58407402 -2.15983772 9 3 3282 8.01200000 3182558872 3182558872 -15.63900000
6.79120731 9.98171234 -2.41459608 3 4 3283 12.31200000 3182558874 3182558874 -11.31000000
21.21076393 34.70793152 0.00000000 19 5 3283 40.67600000 3182558874 3182558874 0.00000000
21.07432175 27.93612289 -0.40739134 22 6 3283 34.99600000 3182558877 3182558877 -0.66700000
7.53513432 12.33000946 -2.24811029 25 7 3283 14.62400000 3182558877 3182558877 -8.84300000
9.41722775 13.83624268 -2.13039756 1 8 3284 16.87200000 3182558879 3182558879 -7.25400000
21.30377579 39.00906372 0.25832793 18 9 3284 44.44800000 3182558879 3182558879 0.33300000
21.09582329 30.98336601 -0.21785377 13 10 3285 37.48400000 3182558881 3182558881 -0.33300000
9.66126442 15.79667759 -1.99457538 1 11 3285 18.62400000 3182558881 3182558881 -6.14800000
12.19286060 16.14526749 -1.88862348 2 12 3286 20.32000000 3182558883 3182558883 -5.33300000
40.10053635 65.54078674 1.78791189 26 13 3286 76.85600000 3182558883 3182558883 1.33300000
40.65183258 53.80989838 0.78512120 28 14 3287 67.44400000 3182558886 3182558886 0.66700000
12.61954975 20.61745644 -1.69033885 2 15 3287 24.23200000 3182558886 3182558886 -4.00000000
12.37259865 18.15115929 -1.79327297 2 16 3288 22.04000000 3182558888 3182558888 -4.66700000
40.87548447 74.72251129 2.47874618 28 17 3288 85.20800000 3182558888 3182558888 1.66700000
40.98844528 60.13189316 1.27025592 28 18 3288 72.78400000 3182558890 3182558890 1.00000000
