# .PCD v0.7 - Point Cloud Data file format
VERSION 0.7
FIELDS x y z intensity laser_id azimuth distance_m adjustedtime timestamp vertical_angle
SIZE 4 4 4 1 1 2 8 8 4 8
TYPE F F F U U U F U U F
COUNT 1 1 1 1 1 1 1 1 1 1
WIDTH 511
HEIGHT 1
VIEWPOINT 0 0 0 1 0 0 0
POINTS 511
DATA ascii
39.22187805 -12.05873203 0.71624678 27 18 10569 41.04000000 3179679241 3179679241 1.00000000
20.43530846 -4.15389633 -1.33645678 24 19 10569 20.89600000 3179679241 3179679241 -3.66700000
20.39977646 -7.38461590 -1.26347721 20 20 10570 21.73200000 3179679243 3179679243 -3.33300000
40.11517334 -10.22523022 2.41090894 18 21 10570 41.46800000 3179679243 3179679243 3.33300000
39.23314285 -12.07718754 1.67241788 25 22 10571 41.08400000 3179679245 3179679245 2.33300000
20.48125267 -5.22441292 -0.98459858 23 23 10571 21.16000000 3179679245 3179679245 -2.66700000
20.44283104 -6.29684830 -1.12103617 29 24 10572 21.42000000 3179679247 3179679247 -3.00000000
41.74487305 -12.86633015 3.56604218 19 26 10573 43.82800000 3179679250 3179679250 4.66700000
35.89435196 -7.32236242 -1.49249172 6 27 10573 36.66400000 3179679250 3179679250 -2.33300000
39.33404922 -14.26979351 -1.46117210 24 28 10574 41.86800000 3179679252 3179679252 -2.00000000
97.88438416 -30.20669937 18.67732048 28 30 10575 104.12800000 3179679254 3179679254 10.33300000
39.85726166 -10.19653893 -0.95732474 11 31 10575 41.15200000 3179679254 3179679254 -1.33300000
5.75505781 -1.78368974 -2.80956626 8 0 10582 6.64800000 3179679275 3179679275 -25.00000000
39.61690140 -8.14659500 -0.70598477 25 1 10582 40.45200000 3179679275 3179679275 -1.00000000
39.89198685 -12.37152481 -1.21551883 18 2 10583 41.78400000 3179679277 3179679277 -1.66700000
8.93430805 -2.29892755 -2.58253193 3 3 10583 9.58000000 3179679277 3179679277 -15.63900000
11.75525665 -3.64785504 -2.46166420 3 4 10584 12.55200000 3179679280 3179679280 -11.31000000
39.42588043 -10.15218925 0.00000000 19 5 10584 40.71200000 3179679280 3179679280 0.00000000
39.76625443 -14.50518131 -0.49279034 21 6 10584 42.33200000 3179679282 3179679282 -0.66700000
14.17357445 -3.64970469 -2.27701092 4 7 10584 14.81200000 3179679282 3179679282 -8.84300000
16.52223969 -5.13029146 -2.20211792 3 8 10585 17.44000000 3179679284 3179679284 -7.25400000
39.66108704 -8.17732811 0.23535925 25 9 10585 40.49600000 3179679284 3179679284 0.33300000
39.59231186 -12.30131626 -0.24096194 23 10 10586 41.46000000 3179679287 3179679287 -0.33300000
18.15366936 -4.68133926 -2.01942205 3 11 10586 18.85600000 3179679287 3179679287 -6.14800000
20.30524254 -7.41861010 -2.01800156 14 12 10587 21.71200000 3179679289 3179679289 -5.33300000
38.94911575 -10.05117130 0.93601573 18 13 10587 40.23600000 3179679289 3179679289 1.33300000
39.55701828 -14.46015835 0.49032241 30 14 10588 42.12000000 3179679291 3179679291 0.66700000
20.40703583 -5.27001953 -1.47381473 28 15 10588 21.12800000 3179679291 3179679291 -4.00000000
20.36905098 -6.34035301 -1.74152517 33 16 10589 21.40400000 3179679294 3179679294 -4.66700000
39.00104904 -8.06963062 1.15908325 22 17 10589 39.84400000 3179679294 3179679294 1.66700000
39.24827957 -12.21696377 0.71750331 18 18 10589 41.11200000 3179679296 3179679296 1.00000000
20.44022942 -4.22924757 -1.33773589 24 19 10589 20.91600000 3179679296 3179679296 -3.66700000
20.40012550 -7.46538591 -1.26510513 20 20 10590 21.76000000 3179679298 3179679298 -3.33300000
40.12949753 -10.37819290 2.41393209 18 21 10590 41.52000000 3179679298 3179679298 3.33300000
39.35863876 -12.26638699 1.67958236 17 22 10591 41.26000000 3179679300 3179679300 2.33300000
20.47836304 -5.29987812 -0.98534310 23 23 10591 21.17600000 3179679300 3179679300 -2.66700000
20.43216705 -6.37173653 -1.12166417 29 24 10592 21.43200000 3179679303 3179679303 -3.00000000
41.71873474 -13.01790619 3.56766939 19 26 10593 43.84800000 3179679305 3179679305 4.66700000
36.02118683 -7.47930098 -1.49884212 6 27 10593 36.82000000 3179679305 3179679305 -2.33300000
39.25772476 -14.39737320 -1.46019495 16 28 10594 41.84000000 3179679307 3179679307 -2.00000000
97.54171753 -30.47426605 18.63212013 28 30 10595 103.87600000 3179679310 3179679310 10.33300000
39.82529449 -10.33660889 -0.95741779 16 31 10595 41.15600000 3179679310 3179679310 -1.33300000
5.75917339 -1.80702364 -2.81463766 7 0 10602 6.66000000 3179679330 3179679330 -25.00000000
39.59605408 -8.28647232 -0.70612437 25 1 10602 40.46000000 3179679330 3179679330 -1.00000000
39.87144470 -12.51788425 -1.21621704 18 2 10603 41.80800000 3179679333 3179679333 -1.66700000
8.92622852 -2.33010006 -2.58253193 3 3 10603 9.58000000 3179679333 3179679333 -15.63900000
11.75742054 -3.69356847 -2.46480203 3 4 10604 12.56800000 3179679335 3179679335 -11.31000000
39.41729355 -10.29682636 0.00000000 19 5 10604 40.74000000 3179679335 3179679335 0.00000000
39.63657379 -14.61484528 -0.49181247 21 6 10604 42.24800000 3179679337 3179679337 -0.66700000
14.16074848 -3.69915748 -2.27701092 3 7 10604 14.81200000 3179679337 3179679337 -8.84300000
16.51937103 -5.19269323 -2.20413804 3 8 10605 17.45600000 3179679340 3179679340 -7.25400000
39.60098648 -8.30914974 0.23517327 25 9 10605 40.46400000 3179679340 3179679340 0.33300000
39.55676270 -12.44184494 -0.24100843 23 10 10606 41.46800000 3179679342 3179679342 -0.33300000
18.14876175 -4.74769831 -2.02070713 3 11 10606 18.86800000 3179679342 3179679342 -6.14800000
20.30163765 -7.49772215 -2.02023220 14 12 10607 21.73600000 3179679344 3179679344 -5.33300000
38.73583984 -10.14048195 0.93173528 18 13 10607 40.05200000 3179679344 3179679344 1.33300000
39.28870010 -14.51774216 0.48762169 20 14 10608 41.88800000 3179679346 3179679346 0.66700000
20.40009689 -5.34425497 -1.47465181 28 15 10608 21.14000000 3179679346 3179679346 -4.00000000
20.36960983 -6.41860485 -1.74347794 35 16 10609 21.42800000 3179679349 3179679349 -4.66700000
39.33259583 -8.28150845 1.16978860 22 17 10609 40.21200000 3179679349 3179679349 1.66700000
39.17106628 -12.34307384 0.71687508 18 18 10609 41.07600000 3179679351 3179679351 1.00000000
20.43315506 -4.30221653 -1.33824754 24 19 10609 20.92400000 3179679351 3179679351 -3.66700000
20.41139412 -7.55040407 -1.26743066 16 20 10610 21.80000000 3179679353 3179679353 -3.33300000
39.42866898 -10.34391785 2.37393260 17 21 10610 40.83200000 3179679353 3179679353 3.33300000
39.46804047 -12.45179939 1.68609560 26 22 10611 41.42000000 3179679356 3179679356 2.33300000
20.47906303 -5.37640190 -0.98627371 23 23 10611 21.19600000 3179679356 3179679356 -2.66700000
20.42884827 -6.44903183 -1.12271094 29 24 10612 21.45200000 3179679358 3179679358 -3.00000000
97.19119263 -25.53389740 12.33854008 28 25 10612 101.24400000 3179679358 3179679358 7.00000000
46.12850571 -14.57082081 3.94910598 23 26 10613 48.53600000 3179679360 3179679360 4.66700000
36.03005219 -7.61242819 -1.50030756 6 27 10613 36.85600000 3179679360 3179679360 -2.33300000
39.21097946 -14.53571033 -1.46033454 16 28 10614 41.84400000 3179679363 3179679363 -2.00000000
97.10832977 -30.71133041 18.56970024 28 30 10615 103.52800000 3179679365 3179679365 10.33300000
39.83150864 -10.48676109 -0.95844138 16 31 10615 41.20000000 3179679365 3179679365 -1.33300000
5.74937582 -1.82601845 -2.81294703 7 0 10622 6.65600000 3179679386 3179679386 -25.00000000
39.76638412 -8.46711540 -0.70968467 17 1 10622 40.66400000 3179679386 3179679386 -1.00000000
39.89228821 -12.67757225 -1.21819520 27 2 10623 41.87600000 3179679388 3179679388 -1.66700000
8.92548847 -2.36321592 -2.58468866 3 3 10623 9.58800000 3179679388 3179679388 -15.63900000
11.74071789 -3.73339844 -2.46401763 4 4 10624 12.56400000 3179679390 3179679390 -11.31000000
39.67110443 -10.51119232 0.00000000 20 5 10624 41.04000000 3179679390 3179679390 0.00000000
39.55908203 -14.74333572 -0.49148652 21 6 10624 42.22000000 3179679393 3179679393 -0.66700000
14.17449379 -3.75565124 -2.28131533 3 7 10624 14.84000000 3179679393 3179679393 -8.84300000
16.50870705 -5.25273132 -2.20514822 3 8 10625 17.46400000 3179679395 3179679395 -7.25400000
39.34094238 -8.39806461 0.23380166 33 9 10625 40.22800000 3179679395 3179679395 0.33300000
39.61600113 -12.61261082 -0.24163613 23 10 10626 41.57600000 3179679397 3179679397 -0.33300000
18.15129852 -4.81612015 -2.02284908 3 11 10626 18.88800000 3179679397 3179679397 -6.14800000
20.30519295 -7.57968473 -2.02320647 14 12 10627 21.76800000 3179679399 3179679399 -5.33300000
39.30314636 -10.43572521 0.94625151 31 13 10627 40.67600000 3179679399 3179679399 1.33300000
39.14411163 -14.61981106 0.48645759 30 14 10628 41.78800000 3179679402 3179679402 0.66700000
20.40831184 -5.42260456 -1.47660506 28 15 10628 21.16800000 3179679402 3179679402 -4.00000000
20.37746620 -6.49936056 -1.74608159 35 16 10629 21.46000000 3179679404 3179679404 -4.66700000
39.17834091 -8.39195633 1.16606498 38 17 10629 40.08400000 3179679404 3179679404 1.66700000
39.37160110 -12.55750942 0.72134286 27 18 10629 41.33200000 3179679406 3179679406 1.00000000
20.42581940 -4.37518740 -1.33875918 24 19 10629 20.93200000 3179679406 3179679406 -3.66700000
20.40735626 -7.62999773 -1.26882601 20 20 10630 21.82400000 3179679409 3179679409 -3.33300000
39.41547775 -10.48764706 2.37532783 23 21 10630 40.85600000 3179679409 3179679409 3.33300000
39.41291428 -12.58584499 1.68560708 26 22 10631 41.40800000 3179679411 3179679411 2.33300000
20.47561455 -5.45196676 -0.98701817 22 23 10631 21.21200000 3179679411 3179679411 -2.66700000
20.43665123 -6.53002882 -1.12438571 29 24 10632 21.48400000 3179679413 3179679413 -3.00000000
94.30861664 -25.12883759 11.98365593 28 25 10632 98.33200000 3179679413 3179679413 7.00000000
45.78496552 -14.63826561 3.92404580 34 26 10633 48.22800000 3179679416 3179679416 4.66700000
36.12829971 -7.76502466 -1.50551808 6 27 10633 36.98400000 3179679416 3179679416 -2.33300000
39.17497635 -14.67810345 -1.46089292 16 28 10634 41.86000000 3179679418 3179679418 -2.00000000
96.87477112 -30.99121857 18.54458809 28 30 10634 103.38800000 3179679420 3179679420 10.33300000
39.82742691 -10.62703800 -0.95918578 16 31 10634 41.23200000 3179679420 3179679420 -1.33300000
5.73606396 -1.84385765 -2.80956626 7 0 10642 6.64800000 3179679441 3179679441 -25.00000000
39.84993744 -8.63042355 -0.71170914 17 1 10642 40.78000000 3179679441 3179679441 -1.00000000
39.88965988 -12.83021164 -1.21947515 27 2 10643 41.92000000 3179679443 3179679443 -1.66700000
8.91718483 -2.39435744 -2.58468866 2 3 10643 9.58800000 3179679443 3179679443 -15.63900000
11.75001621 -3.78156829 -2.46872449 4 4 10644 12.58800000 3179679446 3179679446 -11.31000000
39.48737717 -10.61016273 0.00000000 13 5 10644 40.88800000 3179679446 3179679446 0.00000000
39.53846359 -14.90092278 -0.49190560 21 6 10645 42.25600000 3179679448 3179679448 -0.66700000
14.16445065 -3.80860448 -2.28193021 2 7 10645 14.84400000 3179679448 3179679448 -8.84300000
16.50915718 -5.31640673 -2.20767355 3 8 10645 17.48400000 3179679450 3179679450 -7.25400000
39.51464844 -8.57947159 0.23501053 16 9 10645 40.43600000 3179679450 3179679450 0.33300000
39.64787674 -12.77535439 -0.24210107 23 10 10646 41.65600000 3179679452 3179679452 -0.33300000
18.15357780 -4.88461733 -2.02499104 4 11 10646 18.90800000 3179679452 3179679452 -6.14800000
20.30096817 -7.65895176 -2.02543712 17 12 10647 21.79200000 3179679455 3179679455 -5.33300000
39.08113098 -10.52294922 0.94178498 25 13 10647 40.48400000 3179679455 3179679455 1.33300000
39.06664658 -14.74647331 0.48613164 30 14 10648 41.76000000 3179679457 3179679457 0.66700000
20.40467072 -5.49796247 -1.47772110 30 15 10648 21.18400000 3179679457 3179679457 -4.00000000
20.37362480 -6.57657480 -1.74770892 33 16 10649 21.48000000 3179679459 3179679459 -4.66700000
39.28163528 -8.55760002 1.17002130 15 17 10649 40.22000000 3179679459 3179679459 1.66700000
39.40142441 -12.72631359 0.72273904 18 18 10650 41.41200000 3179679462 3179679462 1.00000000
20.42914772 -4.45427418 -1.34003842 24 19 10650 20.95200000 3179679462 3179679462 -3.66700000
20.40301132 -7.70965528 -1.27022135 20 20 10650 21.84800000 3179679464 3179679464 -3.33300000
39.99548340 -10.79160976 2.41253686 30 21 10650 41.49600000 3179679464 3179679464 3.33300000
39.36113358 -12.72088718 1.68528140 26 22 10651 41.40000000 3179679466 3179679466 2.33300000
20.47574615 -5.52861452 -0.98794883 23 23 10651 21.23200000 3179679466 3179679466 -2.66700000
20.44033813 -6.60992956 -1.12585104 29 24 10652 21.51200000 3179679469 3179679469 -3.00000000
93.71823883 -25.32221985 11.91979694 28 25 10652 97.80800000 3179679469 3179679469 7.00000000
48.00187302 -15.53194237 4.11866951 26 26 10653 50.62000000 3179679471 3179679471 4.66700000
36.14782715 -7.90133047 -1.50747204 6 27 10653 37.03200000 3179679471 3179679471 -2.33300000
39.18331528 -14.83741093 -1.46312654 16 28 10654 41.92400000 3179679473 3179679473 -2.00000000
97.13289642 -31.44797325 18.61490059 28 30 10654 103.78000000 3179679476 3179679476 10.33300000
39.82868958 -10.77644062 -0.96011633 16 31 10654 41.27200000 3179679476 3179679476 -1.33300000
5.73993492 -1.86723340 -2.81463766 7 0 10662 6.66000000 3179679496 3179679496 -25.00000000
39.83519363 -8.77291393 -0.71198839 25 1 10662 40.79600000 3179679496 3179679496 -1.00000000
39.92066956 -12.99412537 -1.22180247 18 2 10663 42.00000000 3179679499 3179679499 -1.66700000
8.91620541 -2.42749333 -2.58684516 3 3 10663 9.59600000 3179679499 3179679499 -15.63900000
11.72928524 -3.82013106 -2.46715546 3 4 10664 12.58000000 3179679501 3179679501 -11.31000000
39.46553802 -10.75214100 0.00000000 20 5 10664 40.90400000 3179679501 3179679501 0.00000000
39.57965469 -15.07443714 -0.49306971 21 6 10665 42.35600000 3179679503 3179679503 -0.66700000
14.15869617 -3.86010361 -2.28316021 3 7 10665 14.85200000 3179679503 3179679503 -8.84300000
16.51690674 -5.38260841 -2.21120906 3 8 10665 17.51200000 3179679505 3179679505 -7.25400000
39.44540405 -8.70872784 0.23477806 25 9 10665 40.39600000 3179679505 3179679505 0.33300000
39.55740356 -12.89879322 -0.24182211 23 10 10666 41.60800000 3179679508 3179679508 -0.33300000
18.14792633 -4.95109558 -2.02627611 3 11 10666 18.92000000 3179679508 3179679508 -6.14800000
20.29271698 -7.73686314 -2.02729607 12 12 10667 21.81200000 3179679510 3179679510 -5.33300000
39.24090576 -10.71301651 0.94653064 18 13 10667 40.68800000 3179679510 3179679510 1.33300000
39.06725311 -14.90270901 0.48678353 30 14 10668 41.81600000 3179679512 3179679512 0.66700000
20.40460205 -5.57441235 -1.47911632 28 15 10668 21.20400000 3179679512 3179679512 -4.00000000
20.37328148 -6.65507936 -1.74966168 30 16 10669 21.50400000 3179679515 3179679515 -4.66700000
39.31788635 -8.70936680 1.17199945 22 17 10669 40.28800000 3179679515 3179679515 1.66700000
39.33239365 -12.84821033 0.72225040 27 18 10669 41.38400000 3179679517 3179679517 1.00000000
20.42595482 -4.52458525 -1.34080589 24 19 10669 20.96400000 3179679517 3179679517 -3.66700000
20.40208817 -7.79080009 -1.27184927 20 20 10670 21.87600000 3179679519 3179679519 -3.33300000
40.16556549 -10.98805523 2.42509484 18 21 10670 41.71200000 3179679519 3179679519 3.33300000
39.66976929 -12.97374249 1.70042455 26 22 10671 41.77200000 3179679522 3179679522 2.33300000
20.46403122 -5.60216475 -0.98832107 22 23 10671 21.24000000 3179679522 3179679522 -2.66700000
20.43612289 -6.68745136 -1.12689781 29 24 10672 21.53200000 3179679524 3179679524 -3.00000000
93.38804626 -25.58312035 11.88908577 28 25 10672 97.55600000 3179679524 3179679524 7.00000000
48.04587173 -15.73166084 4.12713146 13 26 10673 50.72400000 3179679526 3179679526 4.66700000
36.27608871 -8.06214523 -1.51398516 6 27 10673 37.19200000 3179679526 3179679526 -2.33300000
39.18729019 -14.99552631 -1.46522045 24 28 10674 41.98400000 3179679529 3179679529 -2.00000000
39.85253143 -10.93232918 -0.96160519 16 31 10674 41.33600000 3179679531 3179679531 -1.33300000
5.72993898 -1.88612461 -2.81294703 7 0 10682 6.65600000 3179679551 3179679551 -25.00000000
39.82774353 -8.91715431 -0.71240723 25 1 10682 40.82000000 3179679551 3179679551 -1.00000000
39.87886810 -13.13464546 -1.22191882 18 2 10683 42.00400000 3179679553 3179679553 -1.66700000
8.90025139 -2.45655227 -2.58468866 2 3 10683 9.58800000 3179679553 3179679553 -15.63900000
11.73078060 -3.86596131 -2.47029328 4 4 10684 12.59600000 3179679556 3179679556 -11.31000000
39.56271362 -10.92710781 0.00000000 20 5 10684 41.04400000 3179679556 3179679556 0.00000000
39.54811096 -15.21278477 -0.49330255 32 6 10684 42.37600000 3179679558 3179679558 -0.66700000
14.15724754 -3.91019106 -2.28500485 3 7 10684 14.86400000 3179679558 3179679558 -8.84300000
16.51309204 -5.44520092 -2.21322942 3 8 10685 17.52800000 3179679560 3179679560 -7.25400000
39.66454315 -8.90242672 0.23626591 17 9 10685 40.65200000 3179679560 3179679560 0.33300000
39.47035599 -13.02300930 -0.24156637 23 10 10686 41.56400000 3179679563 3179679563 -0.33300000
18.14586639 -5.01865435 -2.02798963 3 11 10686 18.93600000 3179679563 3179679563 -6.14800000
20.29160118 -7.81767321 -2.02989841 17 12 10687 21.84000000 3179679565 3179679565 -5.33300000
39.12619019 -10.82859421 0.94466960 18 13 10687 40.60800000 3179679565 3179679565 1.33300000
39.05604553 -15.05481339 0.48729575 30 14 10688 41.86000000 3179679567 3179679567 0.66700000
20.39270973 -5.64773369 -1.47967434 28 15 10688 21.21200000 3179679567 3179679567 -4.00000000
20.36128235 -6.72990847 -1.75063801 33 16 10689 21.51600000 3179679569 3179679569 -4.66700000
39.04930878 -8.79298019 1.16490138 22 17 10689 40.04400000 3179679569 3179679569 1.66700000
39.29869843 -12.98919296 0.72245979 18 18 10689 41.39600000 3179679572 3179679572 1.00000000
20.43729782 -4.60199594 -1.34259665 27 19 10689 20.99200000 3179679572 3179679572 -3.66700000
20.40084839 -7.87203217 -1.27347708 20 20 10690 21.90400000 3179679574 3179679574 -3.33300000
40.08848190 -11.11752033 2.42276931 49 21 10690 41.67200000 3179679574 3179679574 3.33300000
39.66218185 -13.12469292 1.70205283 26 22 10691 41.81200000 3179679576 3179679576 2.33300000
20.45975113 -5.67783689 -0.98906559 22 23 10691 21.25600000 3179679576 3179679576 -2.66700000
20.43540764 -6.76627922 -1.12815392 29 24 10692 21.55600000 3179679579 3179679579 -3.00000000
94.97370911 -26.37424469 12.10260105 28 25 10692 99.30800000 3179679579 3179679579 7.00000000
48.74755478 -16.15003395 4.19222307 14 26 10693 51.52400000 3179679581 3179679581 4.66700000
36.29450607 -8.19929123 -1.51593912 6 27 10693 37.24000000 3179679581 3179679581 -2.33300000
39.09369278 -15.11636448 -1.46368492 24 28 10694 41.94000000 3179679583 3179679583 -2.00000000
39.75248718 -11.05423260 -0.96011633 28 31 10694 41.27200000 3179679586 3179679586 -1.33300000
5.72675943 -1.90725982 -2.81463766 8 0 10702 6.66000000 3179679606 3179679606 -25.00000000
39.78077698 -9.05257511 -0.71212798 17 1 10702 40.80400000 3179679606 3179679606 -1.00000000
39.90105438 -13.29652214 -1.22401333 18 2 10703 42.07600000 3179679609 3179679609 -1.66700000
8.90275097 -2.49071836 -2.58792353 2 3 10703 9.60000000 3179679609 3179679609 -15.63900000
11.72465611 -3.90936732 -2.47186232 4 4 10704 12.60400000 3179679611 3179679611 -11.31000000
39.49736404 -11.05759239 0.00000000 20 5 10704 41.01600000 3179679611 3179679611 0.00000000
39.30091095 -15.27539253 -0.49088120 31 6 10704 42.16800000 3179679613 3179679613 -0.66700000
14.14731789 -3.96065092 -2.28561974 5 7 10704 14.86800000 3179679613 3179679613 -8.84300000
16.50151062 -5.50532055 -2.21423960 3 8 10705 17.53600000 3179679616 3179679616 -7.25400000
39.55913162 -9.02392483 0.23582421 25 9 10705 40.57600000 3179679616 3179679616 0.33300000
39.44742203 -13.16830730 -0.24170586 23 10 10706 41.58800000 3179679618 3179679618 -0.33300000
18.15121269 -5.08840561 -2.03056002 4 11 10706 18.96000000 3179679618 3179679618 -6.14800000
20.28274536 -7.89568043 -2.03175735 12 12 10707 21.86000000 3179679620 3179679620 -5.33300000
39.02269745 -10.94674301 0.94308770 25 13 10707 40.54000000 3179679620 3179679620 1.33300000
39.01816559 -15.19685841 0.48748201 20 14 10708 41.87600000 3179679622 3179679622 0.66700000
20.39208031 -5.72427559 -1.48106945 26 15 10708 21.23200000 3179679622 3179679622 -4.00000000
20.36413383 -6.80979204 -1.75291622 30 16 10709 21.54400000 3179679625 3179679625 -4.66700000
39.12750626 -8.95420837 1.16815948 22 17 10709 40.15600000 3179679625 3179679625 1.66700000
39.34035492 -13.15546417 0.72406542 27 18 10709 41.48800000 3179679627 3179679627 1.00000000
20.43667412 -4.67686939 -1.34361994 24 19 10709 21.00800000 3179679627 3179679627 -3.66700000
20.39184761 -7.95044899 -1.27463984 20 20 10710 21.92400000 3179679629 3179679629 -3.33300000
39.41513062 -11.07909298 2.38439751 18 21 10710 41.01200000 3179679629 3179679629 3.33300000
39.63128662 -13.26813507 1.70270407 26 22 10711 41.82800000 3179679632 3179679632 2.33300000
20.45134735 -5.75246620 -0.98962396 20 23 10711 21.26800000 3179679632 3179679632 -2.66700000
20.43438911 -6.84518385 -1.12940991 29 24 10712 21.58000000 3179679634 3179679634 -3.00000000
96.47470856 -27.15415764 12.30587864 28 25 10712 100.97600000 3179679634 3179679634 7.00000000
49.07645035 -16.44932938 4.22542000 15 26 10713 51.93200000 3179679636 3179679636 4.66700000
36.30851364 -8.33577061 -1.51773024 6 27 10713 37.28400000 3179679636 3179679636 -2.33300000
39.03696442 -15.25128078 -1.46354532 24 28 10714 41.93600000 3179679639 3179679639 -2.00000000
39.80603027 -11.21896267 -0.96234959 22 31 10714 41.36800000 3179679641 3179679641 -1.33300000
5.71663141 -1.92608082 -2.81294703 8 0 10722 6.65600000 3179679662 3179679662 -25.00000000
39.62813950 -9.16344833 -0.70996392 25 1 10722 40.68000000 3179679662 3179679662 -1.00000000
39.74452209 -13.39868069 -1.22063875 27 2 10723 41.96000000 3179679664 3179679664 -1.66700000
8.90141392 -2.52388096 -2.59008002 2 3 10723 9.60800000 3179679664 3179679664 -15.63900000
11.71837139 -3.95277739 -2.47343135 4 4 10724 12.61200000 3179679666 3179679666 -11.31000000
39.52779388 -11.21504879 0.00000000 13 5 10724 41.08800000 3179679666 3179679666 0.00000000
39.74622726 -15.60839462 -0.49712083 32 6 10724 42.70400000 3179679669 3179679669 -0.66700000
14.14861584 -4.01432562 -2.28807926 3 7 10724 14.88400000 3179679669 3179679669 -8.84300000
16.49347305 -5.56669474 -2.21575475 3 8 10725 17.54800000 3179679671 3179679671 -7.25400000
39.57415009 -9.17279530 0.23610318 25 9 10725 40.62400000 3179679671 3179679671 0.33300000
39.65891266 -13.39294910 -0.24328671 23 10 10726 41.86000000 3179679673 3179679673 -0.33300000
18.14099312 -5.15390778 -2.03141689 4 11 10726 18.96800000 3179679673 3179679673 -6.14800000
20.28100586 -7.97663641 -2.03435969 10 12 10727 21.88800000 3179679675 3179679675 -5.33300000
39.05348587 -11.10257435 0.94476265 25 13 10727 40.61200000 3179679675 3179679675 1.33300000
39.15469742 -15.40765953 0.48985678 30 14 10728 42.08000000 3179679678 3179679678 0.66700000
20.39116478 -5.80088139 -1.48246455 28 15 10728 21.25200000 3179679678 3179679678 -4.00000000
20.36667442 -6.88977718 -1.75519443 30 16 10729 21.57200000 3179679680 3179679680 -4.66700000
39.16222000 -9.10612869 1.17013764 22 17 10729 40.22400000 3179679680 3179679680 1.66700000
39.42067719 -13.34316254 0.72643894 18 18 10730 41.62400000 3179679682 3179679682 1.00000000
20.43105888 -4.75445652 -1.34438753 26 19 10730 21.02000000 3179679682 3179679682 -3.66700000
20.38626289 -8.03036213 -1.27603519 20 20 10730 21.94800000 3179679685 3179679685 -3.33300000
39.25332260 -11.18160248 2.37695575 35 21 10730 40.88400000 3179679685 3179679685 3.33300000
39.54687881 -13.39357281 1.70107579 71 22 10731 41.78800000 3179679687 3179679687 2.33300000
20.45804024 -5.83148670 -0.99092680 19 23 10731 21.29600000 3179679687 3179679687 -2.66700000
20.42550468 -6.92159939 -1.13024735 29 24 10732 21.59600000 3179679689 3179679689 -3.00000000
97.42162323 -27.78804970 12.43896008 28 25 10732 102.06800000 3179679689 3179679689 7.00000000
48.05972672 -16.29537201 4.14275360 40 26 10733 50.91600000 3179679692 3179679692 4.66700000
36.41542053 -8.49423599 -1.52342927 6 27 10733 37.42400000 3179679692 3179679692 -2.33300000
39.01695633 -15.40066147 -1.46480167 16 28 10734 41.97200000 3179679694 3179679694 -2.00000000
39.83199692 -11.37651253 -0.96393150 16 31 10734 41.43600000 3179679696 3179679696 -1.33300000
5.70987368 -1.94602382 -2.81294703 10 0 10742 6.65600000 3179679717 3179679717 -25.00000000
39.59980774 -9.30263519 -0.71003371 25 1 10742 40.68400000 3179679717 3179679717 -1.00000000
39.70129395 -13.53862381 -1.22075522 18 2 10743 41.96400000 3179679719 3179679719 -1.66700000
8.89995384 -2.55706477 -2.59223676 4 3 10743 9.61600000 3179679719 3179679719 -15.63900000
11.71192646 -3.99619126 -2.47500014 4 4 10744 12.62000000 3179679721 3179679721 -11.31000000
39.39229584 -11.32532787 0.00000000 20 5 10744 40.98800000 3179679721 3179679721 0.00000000
39.80027771 -15.79823589 -0.49851775 32 6 10745 42.82400000 3179679724 3179679724 -0.66700000
14.14520264 -4.06943417 -2.28992414 2 7 10745 14.89600000 3179679724 3179679724 -8.84300000
16.48896217 -5.62936211 -2.21777511 3 8 10745 17.56400000 3179679726 3179679726 -7.25400000
39.55746460 -9.31454659 0.23619618 25 9 10745 40.64000000 3179679726 3179679726 0.33300000
39.64220047 -13.54164696 -0.24347270 23 10 10746 41.89200000 3179679728 3179679728 -0.33300000
18.13817787 -5.22160101 -2.03313041 4 11 10746 18.98400000 3179679728 3179679728 -6.14800000
20.29005051 -8.06208801 -2.03807759 10 12 10747 21.92800000 3179679731 3179679731 -5.33300000
39.17972946 -11.28642750 0.94876391 19 13 10747 40.78400000 3179679731 3179679731 1.33300000
39.11926270 -15.55162907 0.49008960 30 14 10748 42.10000000 3179679733 3179679733 0.66700000
20.38996124 -5.87755060 -1.48385966 30 15 10748 21.27200000 3179679733 3179679733 -4.00000000
20.35381699 -6.96470070 -1.75617075 30 16 10749 21.58400000 3179679735 3179679735 -4.66700000
39.12240982 -9.24093628 1.16990495 45 17 10749 40.21600000 3179679735 3179679735 1.66700000
39.40269852 -13.48287678 0.72692764 18 18 10749 41.65200000 3179679738 3179679738 1.00000000
20.42683411 -4.82493496 -1.34515500 28 19 10749 21.03200000 3179679738 3179679738 -3.66700000
20.38036919 -8.11033344 -1.27743053 20 20 10750 21.97200000 3179679740 3179679740 -3.33300000
39.16801071 -11.30526543 2.37416506 17 21 10750 40.83600000 3179679740 3179679740 3.33300000
39.46585464 -13.51987839 1.69961035 26 22 10751 41.75200000 3179679742 3179679742 2.33300000
20.44523811 -5.90508080 -0.99129903 20 23 10751 21.30400000 3179679742 3179679742 -2.66700000
20.43144798 -7.00321722 -1.13192201 29 24 10752 21.62800000 3179679745 3179679745 -3.00000000
94.68849945 -27.36624146 12.10211372 28 25 10752 99.30400000 3179679745 3179679745 7.00000000
36.42055130 -8.62959099 -1.52489471 6 27 10753 37.46000000 3179679747 3179679747 -2.33300000
39.09292221 -15.58858585 -1.46968758 16 28 10754 42.11200000 3179679749 3179679749 -2.00000000
51.54766083 -17.69898033 9.93703461 20 30 10755 55.40000000 3179679751 3179679751 10.33300000
39.89758301 -11.55357265 -0.96653694 16 31 10755 41.54800000 3179679751 3179679751 -1.33300000
5.70990038 -1.96830606 -2.81632805 7 0 10762 6.66400000 3179679772 3179679772 -25.00000000
39.66045761 -9.46308517 -0.71170914 17 1 10762 40.78000000 3179679772 3179679772 -1.00000000
39.70671082 -13.69537640 -1.22238421 18 2 10763 42.02000000 3179679774 3179679774 -1.66700000
8.87618065 -2.58380938 -2.58792353 2 3 10763 9.60000000 3179679774 3179679774 -15.63900000
11.70902920 -4.04088783 -2.47735357 4 4 10764 12.63200000 3179679777 3179679777 -11.31000000
39.47541809 -11.49855995 0.00000000 20 5 10764 41.11600000 3179679777 3179679777 0.00000000
39.62238312 -15.88794422 -0.49698111 32 6 10765 42.69200000 3179679779 3179679779 -0.66700000
14.14988422 -4.12431526 -2.29299855 6 7 10765 14.91600000 3179679779 3179679779 -8.84300000
16.48796463 -5.69336081 -2.22030044 3 8 10765 17.58400000 3179679781 3179679781 -7.25400000
39.62974548 -9.47769070 0.23682386 25 9 10765 40.74800000 3179679781 3179679781 0.33300000
39.57200623 -13.67210484 -0.24333321 23 10 10766 41.86800000 3179679784 3179679784 -0.33300000
18.13511276 -5.28933764 -2.03484392 4 11 10766 19.00000000 3179679784 3179679784 -6.14800000
20.29874611 -8.14770031 -2.04179525 15 12 10767 21.96800000 3179679786 3179679786 -5.33300000
38.97118759 -11.37382603 0.94466960 18 13 10767 40.60800000 3179679786 3179679786 1.33300000
39.19093323 -15.73876572 0.49167278 20 14 10768 42.23600000 3179679788 3179679788 0.66700000
20.38464165 -5.95316315 -1.48497581 28 15 10768 21.28800000 3179679788 3179679788 -4.00000000
20.35575485 -7.04483318 -1.75844896 30 16 10769 21.61200000 3179679791 3179679791 -4.66700000
39.20266724 -9.40449142 1.17327940 22 17 10769 40.33200000 3179679791 3179679791 1.66700000
39.43476486 -13.64780331 0.72839361 18 18 10769 41.73600000 3179679793 3179679793 1.00000000
20.42927742 -4.90086460 -1.34643412 28 19 10769 21.05200000 3179679793 3179679793 -3.66700000
20.37787056 -8.19185162 -1.27905846 16 20 10770 22.00000000 3179679795 3179679795 -3.33300000
39.43109512 -11.53045940 2.39253688 18 21 10770 41.15200000 3179679795 3179679795 3.33300000
39.46373749 -13.67325878 1.70156431 26 22 10771 41.80000000 3179679798 3179679798 2.33300000
20.45134544 -5.98426676 -0.99260193 20 23 10771 21.33200000 3179679798 3179679798 -2.66700000
20.42197418 -7.07972717 -1.13275945 29 24 10772 21.64400000 3179679800 3179679800 -3.00000000
94.43236542 -27.64974213 12.08163929 28 25 10772 99.13600000 3179679800 3179679800 7.00000000
48.10675812 -16.68667221 4.15674829 27 26 10773 51.08800000 3179679802 3179679802 4.66700000
36.53009415 -8.79033184 -1.53075659 6 27 10773 37.60400000 3179679802 3179679802 -2.33300000
39.11984634 -15.75781059 -1.47275877 16 28 10774 42.20000000 3179679804 3179679804 -2.00000000
51.64110565 -17.92272186 9.96645164 20 30 10774 55.56400000 3179679807 3179679807 10.33300000
39.97417068 -11.71956539 -0.96932852 17 31 10774 41.66800000 3179679807 3179679807 -1.33300000
5.70641804 -1.98941875 -2.81801867 7 0 10782 6.66800000 3179679827 3179679827 -25.00000000
39.74767685 -9.63066292 -0.71387321 25 1 10782 40.90400000 3179679827 3179679827 -1.00000000
39.78702164 -13.87866974 -1.22634053 27 2 10783 42.15600000 3179679830 3179679830 -1.66700000
8.88188553 -2.61913538 -2.59223676 2 3 10783 9.61600000 3179679830 3179679830 -15.63900000
11.69114971 -4.08044291 -2.47656918 3 4 10784 12.62800000 3179679832 3179679832 -11.31000000
39.39667511 -11.62496471 0.00000000 20 5 10784 41.07600000 3179679832 3179679832 0.00000000
39.48049927 -15.98322773 -0.49586359 32 6 10784 42.59600000 3179679834 3179679834 -0.66700000
14.13233948 -4.17009687 -2.29238367 4 7 10784 14.91200000 3179679834 3179679834 -8.84300000
16.48672104 -5.75742054 -2.22282577 3 8 10785 17.60400000 3179679837 3179679837 -7.25400000
39.48758698 -9.58953667 0.23617293 25 9 10785 40.63600000 3179679837 3179679837 0.33300000
39.56180191 -13.82334709 -0.24356568 23 10 10786 41.90800000 3179679839 3179679839 -0.33300000
18.13942337 -5.35936975 -2.03741431 3 11 10786 19.02400000 3179679839 3179679839 -6.14800000
20.29232597 -8.22748470 -2.04402590 15 12 10787 21.99200000 3179679841 3179679841 -5.33300000
39.16900635 -11.58008385 0.95043886 25 13 10787 40.85600000 3179679841 3179679841 1.33300000
39.17652512 -15.89200974 0.49218500 31 14 10788 42.28000000 3179679844 3179679844 0.66700000
20.38669586 -6.03107452 -1.48664999 26 15 10788 21.31200000 3179679844 3179679844 -4.00000000
20.34985352 -7.12243032 -1.76007628 33 16 10789 21.63200000 3179679846 3179679846 -4.66700000
39.11521530 -9.52802944 1.17165029 22 17 10789 40.27600000 3179679846 3179679846 1.66700000
39.53032684 -13.83557892 0.73104638 19 18 10789 41.88800000 3179679848 3179679848 1.00000000
20.42755890 -4.97592497 -1.34745741 26 19 10789 21.06800000 3179679848 3179679848 -3.66700000
20.37874985 -8.27495193 -1.28091896 16 20 10790 22.03200000 3179679851 3179679851 -3.33300000
39.50930023 -11.70318794 2.39974618 18 21 10790 41.27600000 3179679851 3179679851 3.33300000
39.32524490 -13.77921104 1.69765639 17 22 10791 41.70400000 3179679853 3179679853 2.33300000
20.44948578 -6.06129646 -0.99353254 20 23 10791 21.35200000 3179679853 3179679853 -2.66700000
20.41975403 -7.15889931 -1.13401544 29 24 10792 21.66800000 3179679855 3179679855 -3.00000000
64.98872375 -19.27521515 8.32318878 28 25 10792 68.29600000 3179679855 3179679855 7.00000000
47.57044220 -16.68689919 4.11541510 26 26 10793 50.58000000 3179679857 3179679857 4.66700000
36.51860046 -8.92253494 -1.53157067 6 27 10793 37.62400000 3179679857 3179679857 -2.33300000
39.09422684 -15.90632057 -1.47387552 25 28 10794 42.23200000 3179679860 3179679860 -2.00000000
39.98078156 -11.88080788 -0.97053820 17 31 10795 41.72000000 3179679862 3179679862 -1.33300000
5.70697880 -2.00974441 -2.82139945 8 0 10800 6.67600000 3179679883 3179679883 -25.00000000
39.67838669 -9.74594688 -0.71317512 25 1 10800 40.86400000 3179679883 3179679883 -1.00000000
39.82618713 -14.03282738 -1.22890055 18 2 10801 42.24400000 3179679885 3179679885 -1.66700000
8.89206982 -2.65253115 -2.59762812 4 3 10801 9.63600000 3179679885 3179679885 -15.63900000
11.69676876 -4.12367249 -2.48049140 3 4 10802 12.64800000 3179679887 3179679887 -11.31000000
39.29479980 -11.72922611 0.00000000 20 5 10802 41.00800000 3179679887 3179679887 0.00000000
39.48933411 -16.13138199 -0.49660861 21 6 10802 42.66000000 3179679890 3179679890 -0.66700000
14.12674332 -4.21673489 -2.29361367 3 7 10802 14.92000000 3179679890 3179679890 -8.84300000
16.48352051 -5.81446648 -2.22484612 3 8 10803 17.62000000 3179679892 3179679892 -7.25400000
39.61262512 -9.75178909 0.23710284 17 9 10803 40.79600000 3179679892 3179679892 0.33300000
39.55966949 -13.96220970 -0.24382140 23 10 10804 41.95200000 3179679894 3179679894 -0.33300000
18.14535904 -5.42316294 -2.03998446 3 11 10804 19.04800000 3179679894 3179679894 -6.14800000
20.28849602 -8.30024242 -2.04625654 15 12 10805 22.01600000 3179679897 3179679897 -5.33300000
39.08646011 -11.68933010 0.94932222 19 13 10805 40.80800000 3179679897 3179679897 1.33300000
39.24485779 -16.06349182 0.49367505 31 14 10806 42.40800000 3179679899 3179679899 0.66700000
20.39440727 -6.10309887 -1.48860312 24 15 10806 21.34000000 3179679899 3179679899 -4.00000000
20.36120605 -7.19828558 -1.76300538 30 16 10807 21.66800000 3179679901 3179679901 -4.66700000
38.96475601 -9.62115383 1.16804314 22 17 10807 40.15200000 3179679901 3179679901 1.66700000
39.45650101 -13.94903469 0.73048794 28 18 10807 41.85600000 3179679904 3179679904 1.00000000
20.41957664 -5.04198933 -1.34796906 26 19 10807 21.07600000 3179679904 3179679904 -3.66700000
20.39329910 -8.35558701 -1.28347707 16 20 10808 22.07600000 3179679906 3179679906 -3.33300000
39.22524643 -13.88268471 1.69521403 26 22 10809 41.64400000 3179679908 3179679908 2.33300000
20.45330811 -6.13239527 -0.99464929 19 23 10809 21.37600000 3179679908 3179679908 -2.66700000
20.42728615 -7.23368168 -1.13569021 29 24 10810 21.70000000 3179679910 3179679910 -3.00000000
64.86700439 -19.46103477 8.31538868 28 25 10810 68.23200000 3179679910 3179679910 7.00000000
47.55912018 -16.85091019 4.11899519 13 26 10811 50.62400000 3179679913 3179679913 4.66700000
36.53306198 -9.04778576 -1.53336179 6 27 10811 37.66800000 3179679913 3179679913 -2.33300000
39.09953308 -16.05183411 -1.47596955 25 28 10812 42.29200000 3179679915 3179679915 -2.00000000
39.94709015 -12.00750351 -0.97063124 17 31 10813 41.72400000 3179679917 3179679917 -1.33300000
5.69615936 -2.02943134 -2.81970906 8 0 10821 6.67200000 3179679938 3179679938 -25.00000000
39.78597641 -9.92713356 -0.71575809 17 1 10821 41.01200000 3179679938 3179679938 -1.00000000
39.84227753 -14.20286942 -1.23099506 18 2 10822 42.31600000 3179679940 3179679940 -1.66700000
8.89703655 -2.68956280 -2.60194135 5 3 10822 9.65200000 3179679940 3179679940 -15.63900000
11.68527031 -4.16783285 -2.48127604 3 4 10823 12.65200000 3179679943 3179679943 -11.31000000
39.73395920 -12.01909447 0.00000000 20 5 10823 41.51200000 3179679943 3179679943 0.00000000
39.40406418 -16.26532555 -0.49628267 21 6 10823 42.63200000 3179679945 3179679945 -0.66700000
14.12632656 -4.27306128 -2.29607320 3 7 10823 14.93600000 3179679945 3179679945 -8.84300000
16.47331047 -5.87884378 -2.22636127 3 8 10824 17.63200000 3179679947 3179679947 -7.25400000
39.18857193 -9.79987335 0.23477806 25 9 10824 40.39600000 3179679947 3179679947 0.33300000
39.59487152 -14.13804626 -0.24435610 23 10 10825 42.04400000 3179679950 3179679950 -0.33300000
18.14439201 -5.49539661 -2.04212642 4 11 10825 19.06800000 3179679950 3179679950 -6.14800000
20.28002167 -8.38367748 -2.04848719 12 12 10826 22.04000000 3179679952 3179679952 -5.33300000
39.19643402 -11.87890339 0.95304435 19 13 10826 40.96800000 3179679952 3179679952 1.33300000
39.10440445 -16.17359352 0.49265063 31 14 10827 42.32000000 3179679954 3179679954 0.66700000
20.39099312 -6.18359709 -1.48999822 28 15 10827 21.36000000 3179679954 3179679954 -4.00000000
20.35345650 -7.27957773 -1.76463270 33 16 10828 21.68800000 3179679957 3179679957 -4.66700000
38.91759491 -9.76098347 1.16769409 22 17 10828 40.14000000 3179679957 3179679957 1.66700000
39.90596008 -14.27268887 0.73977262 58 18 10828 42.38800000 3179679959 3179679959 1.00000000
20.42031860 -5.12165260 -1.34924829 28 19 10828 21.09600000 3179679959 3179679959 -3.66700000
20.38098526 -8.43791294 -1.28463984 20 20 10829 22.09600000 3179679961 3179679961 -3.33300000
40.11650085 -12.18067741 2.44160628 12 21 10829 41.99600000 3179679961 3179679961 3.33300000
39.10260773 -14.00076103 1.69212019 17 22 10830 41.56800000 3179679963 3179679963 2.33300000
20.45363235 -6.21428871 -0.99576604 19 23 10830 21.40000000 3179679963 3179679963 -2.66700000
20.43072128 -7.31928062 -1.13736498 29 24 10831 21.73200000 3179679966 3179679966 -3.00000000
64.72306824 -19.67671204 8.30612659 56 25 10831 68.15600000 3179679966 3179679966 7.00000000
43.95052338 -15.75387669 3.81143737 21 26 10832 46.84400000 3179679968 3179679968 4.66700000
36.66244507 -9.22257519 -1.54020071 7 27 10832 37.83600000 3179679968 3179679968 -2.33300000
39.04043579 -16.19503212 -1.47596955 25 28 10833 42.29200000 3179679970 3179679970 -2.00000000
39.97166824 -12.17480946 -0.97230619 17 31 10834 41.79600000 3179679973 3179679973 -1.33300000
5.69280910 -2.04953742 -2.82139945 7 0 10840 6.67600000 3179679993 3179679993 -25.00000000
39.69080353 -10.04331684 -0.71464115 17 1 10840 40.94800000 3179679993 3179679993 -1.00000000
39.70843887 -14.30374718 -1.22831869 37 2 10841 42.22400000 3179679996 3179679996 -1.66700000
8.87701797 -2.71567106 -2.59870648 2 3 10841 9.64000000 3179679996 3179679996 -15.63900000
11.68245506 -4.21054983 -2.48362947 3 4 10842 12.66400000 3179679998 3179679998 -11.31000000
39.62121201 -12.12854481 0.00000000 20 5 10842 41.43600000 3179679998 3179679998 0.00000000
39.33145142 -16.38821220 -0.49604982 32 6 10842 42.61200000 3179680000 3179680000 -0.66700000
14.12719631 -4.32451010 -2.29853272 3 7 10842 14.95200000 3179680000 3179680000 -8.84300000
16.46865463 -5.93882322 -2.22838163 3 8 10843 17.64800000 3179680003 3179680003 -7.25400000
39.35359573 -9.97991848 0.23596370 17 9 10843 40.60000000 3179680003 3179680003 0.33300000
39.54777145 -14.26926994 -0.24435610 23 10 10844 42.04400000 3179680005 3179680005 -0.33300000
18.14127922 -5.56019735 -2.04384017 3 11 10844 19.08400000 3179680005 3179680005 -6.14800000
20.28518867 -8.46468544 -2.05183315 15 12 10845 22.07600000 3179680007 3179680007 -5.33300000
38.83950424 -11.91149998 0.94532096 37 13 10845 40.63600000 3179680007 3179680007 1.33300000
39.07270432 -16.31242371 0.49293002 21 14 10846 42.34400000 3179680009 3179680009 0.66700000
20.38945007 -6.25703526 -1.49139345 28 15 10846 21.38000000 3179680009 3179680009 -4.00000000
20.35919952 -7.35787249 -1.76723635 33 16 10847 21.72000000 3179680012 3179680012 -4.66700000
39.17563248 -9.96390152 1.17642117 23 17 10847 40.44000000 3179680012 3179680012 1.66700000
39.18513870 -14.16162109 0.72727668 28 18 10847 41.67200000 3179680014 3179680014 1.00000000
20.41095924 -5.19130850 -1.34975994 28 19 10847 21.10400000 3179680014 3179680014 -3.66700000
20.37499809 -8.51469135 -1.28603518 16 20 10848 22.12000000 3179680016 3179680016 -3.33300000
39.19031906 -12.04154301 2.38765335 18 21 10848 41.06800000 3179680016 3179680016 3.33300000
39.08227539 -14.13987160 1.69326007 26 22 10849 41.59600000 3179680019 3179680019 2.33300000
20.44818878 -6.28677797 -0.99651057 20 23 10849 21.41600000 3179680019 3179680019 -2.66700000
20.42887306 -7.39514875 -1.13862109 29 24 10850 21.75600000 3179680021 3179680021 -3.00000000
64.65367126 -19.89006615 8.30563927 56 25 10850 68.15200000 3179680021 3179680021 7.00000000
43.73685837 -15.84115601 3.79744267 32 26 10851 46.67200000 3179680023 3179680023 4.66700000
36.78656769 -9.38361645 -1.54671383 7 27 10851 37.99600000 3179680023 3179680023 -2.33300000
39.03076553 -16.34293365 -1.47764468 25 28 10852 42.34000000 3179680026 3179680026 -2.00000000
39.92725372 -12.30611515 -0.97221315 17 31 10853 41.79200000 3179680028 3179680028 -1.33300000
5.68489742 -2.07138109 -2.82139945 7 0 10862 6.67600000 3179680049 3179680049 -25.00000000
39.60159302 -10.18269634 -0.71373361 25 1 10862 40.89600000 3179680049 3179680049 -1.00000000
39.70206070 -14.47391415 -1.22983146 18 2 10863 42.27600000 3179680051 3179680051 -1.66700000
8.86284637 -2.74859524 -2.59762812 3 3 10863 9.63600000 3179680051 3179680051 -15.63900000
11.66620159 -4.25537586 -2.48362947 3 4 10864 12.66400000 3179680053 3179680053 -11.31000000
39.73862457 -12.33156681 0.00000000 20 5 10864 41.60800000 3179680053 3179680053 0.00000000
39.28666306 -16.54687691 -0.49628267 21 6 10864 42.63200000 3179680056 3179680056 -0.66700000
14.12936115 -4.38457966 -2.30160737 3 7 10864 14.97200000 3179680056 3179680056 -8.84300000
16.47182274 -6.01153708 -2.23191714 3 8 10865 17.67600000 3179680058 3179680058 -7.25400000
39.35759354 -10.14193058 0.23621942 25 9 10865 40.64400000 3179680058 3179680058 0.33300000
39.35367203 -14.37025261 -0.24349594 23 10 10866 41.89600000 3179680060 3179680060 -0.33300000
18.13498688 -5.63453341 -2.04555368 3 11 10866 19.10000000 3179680060 3179680060 -6.14800000
20.27822304 -8.55334759 -2.05443573 17 12 10867 22.10400000 3179680062 3179680062 -5.33300000
39.05696487 -12.14245987 0.95174158 19 13 10867 40.91200000 3179680062 3179680062 1.33300000
38.92502594 -16.42656517 0.49185905 20 14 10868 42.25200000 3179680065 3179680065 0.66700000
20.38432503 -6.34120512 -1.49278855 28 15 10868 21.40000000 3179680065 3179680065 -4.00000000
20.35700607 -7.44557762 -1.76951456 33 16 10869 21.74800000 3179680067 3179680067 -4.66700000
39.22612381 -10.13726139 1.17909753 23 17 10869 40.53200000 3179680067 3179680067 1.66700000
39.20183945 -14.33807755 0.72860307 28 18 10869 41.74800000 3179680069 3179680069 1.00000000
20.40633583 -5.27363777 -1.35078323 26 19 10869 21.12000000 3179680069 3179680069 -3.66700000
20.36422539 -8.60218525 -1.28743052 13 20 10870 22.14400000 3179680072 3179680072 -3.33300000
43.34907150 -13.50173283 2.64416265 15 21 10870 45.48000000 3179680072 3179680072 3.33300000
39.49306870 -14.46022701 1.71345091 26 22 10871 42.09200000 3179680074 3179680074 2.33300000
20.44297218 -6.37119102 -0.99744117 19 23 10871 21.43600000 3179680074 3179680074 -2.66700000
20.42283249 -7.48177958 -1.13987708 32 24 10872 21.78000000 3179680076 3179680076 -3.00000000
63.87184906 -19.91832733 8.21496868 56 25 10872 67.40800000 3179680076 3179680076 7.00000000
36.76573944 -9.52880764 -1.54736519 7 27 10873 38.01200000 3179680079 3179680079 -2.33300000
39.07448578 -16.53786659 -1.48169303 25 28 10874 42.45600000 3179680081 3179680081 -2.00000000
39.92768860 -12.46667576 -0.97332978 17 31 10874 41.84000000 3179680083 3179680083 -1.33300000
5.68176460 -2.09048223 -2.82309008 7 0 10880 6.68000000 3179680104 3179680104 -25.00000000
39.77840042 -10.36149693 -0.71750331 25 1 10880 41.11200000 3179680104 3179680104 -1.00000000
39.56634140 -14.56542015 -1.22703874 27 2 10881 42.18000000 3179680106 3179680106 -1.66700000
8.86151886 -2.77873015 -2.59978485 3 3 10881 9.64400000 3179680106 3179680106 -15.63900000
11.66013622 -4.29471684 -2.48519826 3 4 10882 12.67200000 3179680109 3179680109 -11.31000000
39.33711243 -12.34258556 0.00000000 27 5 10882 41.22800000 3179680109 3179680109 0.00000000
39.10274506 -16.62229919 -0.49465290 32 6 10883 42.49200000 3179680111 3179680111 -0.66700000
14.11474419 -4.43141031 -2.30160737 3 7 10883 14.97200000 3179680111 3179680111 -8.84300000
16.46402550 -6.06737137 -2.23343229 3 8 10883 17.68800000 3179680113 3179680113 -7.25400000
39.50357056 -10.31199932 0.23728882 17 9 10883 40.82800000 3179680113 3179680113 0.33300000
39.25579071 -14.47444153 -0.24317047 23 10 10884 41.84000000 3179680115 3179680115 -0.33300000
18.13616753 -5.69743824 -2.04769564 4 11 10884 19.12000000 3179680115 3179680115 -6.14800000
20.29156494 -8.63416386 -2.05852532 15 12 10885 22.14800000 3179680118 3179680118 -5.33300000
39.04533005 -12.27349472 0.95239294 19 13 10885 40.94000000 3179680118 3179680118 1.33300000
38.89162827 -16.55660248 0.49209186 20 14 10886 42.27200000 3179680120 3179680120 0.66700000
20.38333511 -6.41119909 -1.49418366 28 15 10886 21.42000000 3179680120 3179680120 -4.00000000
20.35221291 -7.51640034 -1.77114189 35 16 10887 21.76800000 3179680122 3179680122 -4.66700000
38.95813751 -10.19867611 1.17199945 22 17 10887 40.28800000 3179680122 3179680122 1.66700000
39.22910690 -14.49572182 0.72999924 28 18 10888 41.82800000 3179680125 3179680125 1.00000000
20.42348862 -5.35038280 -1.35308576 28 19 10888 21.15600000 3179680125 3179680125 -3.66700000
20.37751007 -8.68333817 -1.28998864 10 20 10888 22.18800000 3179680127 3179680127 -3.33300000
39.47856140 -12.43239403 2.41044378 24 21 10888 41.46000000 3179680127 3179680127 3.33300000
39.46993637 -14.59254169 1.71442783 26 22 10889 42.11600000 3179680129 3179680129 2.33300000
20.44191170 -6.44138765 -0.99837178 21 23 10889 21.45600000 3179680129 3179680129 -2.66700000
20.41795921 -7.55283213 -1.14092386 29 24 10890 21.80000000 3179680132 3179680132 -3.00000000
64.25576019 -20.25976181 8.27249146 28 25 10890 67.88000000 3179680132 3179680132 7.00000000
36.89411545 -9.68587303 -1.55404115 7 27 10891 38.17600000 3179680134 3179680134 -2.33300000
39.13263321 -16.70763016 -1.48588097 25 28 10892 42.57600000 3179680136 3179680136 -2.00000000
39.84256363 -12.57760429 -0.97221315 17 31 10892 41.79200000 3179680139 3179680139 -1.33300000
5.68122816 -2.11282992 -2.82647085 6 0 10900 6.68800000 3179680159 3179680159 -25.00000000
39.72652435 -10.49619961 -0.71722412 17 1 10900 41.09600000 3179680159 3179680159 -1.00000000
39.57521439 -14.72575283 -1.22890055 18 2 10901 42.24400000 3179680162 3179680162 -1.66700000
8.87012196 -2.81547260 -2.60517621 3 3 10901 9.66400000 3179680162 3179680162 -15.63900000
11.65610123 -4.33949757 -2.48755169 3 4 10902 12.68400000 3179680164 3179680164 -11.31000000
39.17942047 -12.44349861 0.00000000 20 5 10902 41.10800000 3179680164 3179680164 0.00000000
39.33116913 -16.88174248 -0.49828494 21 6 10903 42.80400000 3179680166 3179680166 -0.66700000
14.11802292 -4.48663807 -2.30468202 4 7 10903 14.99200000 3179680166 3179680166 -8.84300000
16.45761871 -6.13034487 -2.23545265 3 8 10903 17.70400000 3179680168 3179680168 -7.25400000
39.49053192 -10.45597267 0.23742829 17 9 10903 40.85200000 3179680168 3179680168 0.33300000
39.99212265 -14.90472698 -0.24805248 56 10 10904 42.68000000 3179680171 3179680171 -0.33300000
18.13890839 -5.76794147 -2.05026579 4 11 10904 19.14400000 3179680171 3179680171 -6.14800000
20.29057693 -8.71751976 -2.06149936 15 12 10905 22.18000000 3179680173 3179680173 -5.33300000
39.09370804 -12.43881321 0.95462620 19 13 10905 41.03600000 3179680173 3179680173 1.33300000
38.93281174 -16.73490715 0.49334911 31 14 10906 42.38000000 3179680175 3179680175 0.66700000
20.37223816 -6.48594284 -1.49502075 26 15 10906 21.43200000 3179680175 3179680175 -4.00000000
20.34452820 -7.59436798 -1.77276909 37 16 10907 21.78800000 3179680178 3179680178 -4.66700000
39.04209518 -10.36641216 1.17560661 22 17 10907 40.41200000 3179680178 3179680178 1.66700000
