# .PCD v0.7 - Point Cloud Data file format
VERSION 0.7
FIELDS x y z intensity laser_id azimuth distance_m adjustedtime timestamp vertical_angle
SIZE 4 4 4 1 1 2 8 8 4 8
TYPE F F F U U U F U U F
COUNT 1 1 1 1 1 1 1 1 1 1
WIDTH 505
HEIGHT 1
VIEWPOINT 0 0 0 1 0 0 0
POINTS 505
DATA ascii
7.14699888 -25.70155525 -3.39560509 3 8 16306 26.89200000 3184895079 3184895079 -7.25400000
38.69255447 -100.06604004 0.62354857 28 9 16306 107.28800000 3184895079 3184895079 0.33300000
37.62688065 -135.40280151 -0.81678313 28 10 16307 140.53600000 3184895082 3184895082 -0.33300000
9.38667679 -28.33291626 -3.21505332 4 11 16307 30.02000000 3184895082 3184895082 -6.14800000
8.70620441 -38.56969833 -3.69099474 5 12 16308 39.71200000 3184895084 3184895084 -5.33300000
43.83631134 -132.39372253 3.24520802 28 13 16308 139.50000000 3184895084 3184895084 1.33300000
37.85962677 -167.85980225 2.00329065 28 14 16309 172.08800000 3184895086 3184895086 0.66700000
15.28605175 -46.19370270 -3.40244174 8 15 16309 48.77600000 3184895086 3184895086 -4.00000000
11.55862522 -41.67905807 -3.53089261 9 16 16310 43.39600000 3184895089 3184895089 -4.66700000
38.58827972 -100.00386047 3.11955261 28 17 16310 107.23600000 3184895089 3184895089 1.66700000
37.31255341 -134.54472351 2.43712378 28 18 16310 139.64400000 3184895091 3184895091 1.00000000
18.15267754 -47.04376221 -3.23164654 21 19 16310 50.52800000 3184895091 3184895091 -3.66700000
14.84076405 -65.90729523 -3.93438387 28 20 16311 67.67200000 3184895093 3184895093 -3.33300000
38.38501358 -116.13355255 7.12319279 42 21 16311 122.52000000 3184895093 3184895093 3.33300000
37.39717484 -135.03288269 5.70846319 28 22 16312 140.23200000 3184895095 3184895095 2.33300000
19.31187057 -58.46214676 -2.86799240 9 23 16312 61.63600000 3184895095 3184895095 -2.66700000
19.07942390 -68.93833160 -3.74871993 28 24 16313 71.62800000 3184895098 3184895098 -3.00000000
37.71490479 -114.23995209 14.77153969 28 25 16313 121.20800000 3184895098 3184895098 7.00000000
38.61949921 -139.63589478 11.82713985 28 26 16314 145.36000000 3184895100 3184895100 4.66700000
27.13106918 -70.45822144 -3.07600498 28 27 16314 75.56400000 3184895100 3184895100 -2.33300000
25.98585129 -115.77932739 -4.14368725 28 28 16315 118.73200000 3184895102 3184895102 -2.00000000
36.70848846 -111.38735962 -2.72904539 28 31 16316 117.31200000 3184895105 3184895105 -1.33300000
1.76800478 -6.43185282 -3.11047029 1 0 16323 7.36000000 3184895125 3184895125 -25.00000000
37.37692261 -97.52281189 -1.82300854 28 1 16323 104.45600000 3184895125 3184895125 -1.00000000
3.15140009 -9.60763836 -2.83054137 21 3 16324 10.50000000 3184895128 3184895128 -15.63900000
43.53729630 -132.80993652 0.00000000 28 5 16325 139.76400000 3184895130 3184895130 0.00000000
39.14892960 -175.86299133 -2.09749031 29 6 16325 180.18000000 3184895132 3184895132 -0.66700000
6.39860916 -19.51887131 -3.19568634 2 7 16325 20.78800000 3184895132 3184895132 -8.84300000
7.08138371 -25.81435776 -3.40722179 3 8 16326 26.98400000 3184895135 3184895135 -7.25400000
43.05191422 -112.50608063 0.70012635 28 9 16326 120.46400000 3184895135 3184895135 0.33300000
36.89809418 -134.59977722 -0.81115717 28 10 16327 139.56800000 3184895137 3184895137 -0.33300000
9.32979584 -28.49401283 -3.22961855 4 11 16327 30.15600000 3184895137 3184895137 -6.14800000
8.57928848 -38.63484192 -3.69434094 5 12 16328 39.74800000 3184895139 3184895139 -5.33300000
43.48086166 -132.87278748 3.25321054 28 13 16328 139.84400000 3184895139 3184895139 1.33300000
37.28385544 -168.03779602 2.00384951 28 14 16329 172.13600000 3184895141 3184895141 0.66700000
15.14579773 -46.31125259 -3.40718532 8 15 16329 48.84400000 3184895141 3184895141 -4.00000000
11.49933147 -42.03447723 -3.55758023 9 16 16330 43.72400000 3184895144 3184895144 -4.66700000
38.28175735 -100.25000763 3.12304330 28 17 16330 107.35600000 3184895144 3184895144 1.66700000
37.18565750 -135.92787170 2.45981193 28 18 16330 140.94400000 3184895146 3184895146 1.00000000
18.05670738 -47.28583908 -3.24392629 21 19 16330 50.72000000 3184895146 3184895146 -3.66700000
37.88640213 -115.98213959 7.10575104 42 21 16331 122.22000000 3184895148 3184895148 3.33300000
36.99300385 -135.40934753 5.71888447 28 22 16332 140.48800000 3184895151 3184895151 2.33300000
19.29368591 -59.09896088 -2.89591098 10 23 16332 62.23600000 3184895151 3184895151 -2.66700000
19.05433464 -69.79447174 -3.79163527 28 24 16333 72.44800000 3184895153 3184895153 -3.00000000
38.51535416 -118.04714203 15.24634266 28 25 16333 125.10400000 3184895153 3184895153 7.00000000
26.76114273 -70.22757721 -3.06183887 28 27 16334 75.21600000 3184895155 3184895155 -2.33300000
36.76774979 -112.89126587 -2.76273060 28 31 16336 118.76000000 3184895160 3184895160 -1.33300000
1.74554265 -6.43798542 -3.11047029 2 0 16343 7.36000000 3184895181 3184895181 -25.00000000
37.31567383 -98.38935852 -1.83676112 28 1 16343 105.24400000 3184895181 3184895181 -1.00000000
3.12021947 -9.62590885 -2.83269787 18 3 16344 10.50800000 3184895183 3184895183 -15.63900000
3.65238428 -13.48952198 -2.79506373 31 4 16345 14.25200000 3184895185 3184895185 -11.31000000
43.05001450 -132.88879395 0.00000000 28 5 16345 139.68800000 3184895185 3184895185 0.00000000
38.60239792 -176.30725098 -2.10116887 29 6 16345 180.49600000 3184895188 3184895188 -0.66700000
6.34627151 -19.58996773 -3.20368004 2 7 16345 20.84000000 3184895188 3184895188 -8.84300000
7.00366783 -25.88488197 -3.41328263 3 8 16346 27.03200000 3184895190 3184895190 -7.25400000
42.66318130 -112.66689301 0.70019609 28 9 16346 120.47600000 3184895190 3184895190 0.33300000
36.32049179 -134.33004761 -0.80876267 28 10 16347 139.15600000 3184895192 3184895192 -0.33300000
9.23884583 -28.55289459 -3.23261738 4 11 16347 30.18400000 3184895192 3184895192 -6.14800000
8.47836685 -38.82019424 -3.70921183 5 12 16348 39.90800000 3184895194 3184895194 -5.33300000
43.26163864 -133.78092957 3.27172804 28 13 16348 140.64000000 3184895194 3184895194 1.33300000
15.02699757 -46.49673080 -3.41695118 8 15 16349 48.98400000 3184895197 3184895197 -4.00000000
11.39511490 -42.23217392 -3.57092404 9 16 16350 43.88800000 3184895199 3184895199 -4.66700000
37.88353348 -100.25585938 3.11908698 28 17 16350 107.22000000 3184895199 3184895199 1.66700000
40.58771515 -150.42475891 2.71957350 28 18 16350 155.82800000 3184895201 3184895201 1.00000000
17.95926666 -47.52782059 -3.25620627 21 19 16350 50.91200000 3184895201 3184895201 -3.66700000
14.55028629 -66.78964233 -3.98089504 28 20 16351 68.47200000 3184895204 3184895204 -3.33300000
37.41998672 -115.92367554 7.09412336 42 21 16351 122.02000000 3184895204 3184895204 3.33300000
36.41717148 -135.15559387 5.70276451 28 22 16352 140.09200000 3184895206 3184895206 2.33300000
19.27742386 -59.75536346 -2.92476034 11 23 16352 62.85600000 3184895206 3184895206 -2.66700000
19.05361557 -70.76313019 -3.84062171 28 24 16353 73.38400000 3184895208 3184895208 -3.00000000
38.63910294 -119.84346771 15.46083260 28 25 16353 126.86400000 3184895208 3184895208 7.00000000
26.55673409 -70.42901611 -3.06656075 28 27 16354 75.33200000 3184895211 3184895211 -2.33300000
36.63466263 -113.76243591 -2.78106189 28 31 16355 119.54800000 3184895215 3184895215 -1.33300000
1.71931350 -6.43003035 -3.10370851 2 0 16363 7.34400000 3184895236 3184895236 -25.00000000
37.42026138 -99.71348572 -1.85903037 28 1 16363 106.52000000 3184895236 3184895236 -1.00000000
3.11714840 -9.73211861 -2.86073375 15 3 16364 10.61200000 3184895238 3184895238 -15.63900000
3.60426307 -13.49839973 -2.79427910 24 4 16365 14.24800000 3184895241 3184895241 -11.31000000
42.71392822 -133.43827820 0.00000000 28 5 16365 140.10800000 3184895241 3184895241 0.00000000
6.28285837 -19.63944817 -3.20798445 3 7 16366 20.86800000 3184895243 3184895243 -8.84300000
6.92043066 -25.93601036 -3.41681814 3 8 16366 27.06000000 3184895245 3184895245 -7.25400000
44.05900574 -117.59082794 0.72983688 28 9 16366 125.57600000 3184895245 3184895245 0.33300000
36.02141190 -135.09371948 -0.81259853 28 10 16367 139.81600000 3184895247 3184895247 -0.33300000
9.15486622 -28.63421440 -3.23818636 4 11 16367 30.23600000 3184895247 3184895247 -6.14800000
8.37876511 -39.01699066 -3.72519827 6 12 16368 40.08000000 3184895250 3184895250 -5.33300000
42.97696304 -134.50250244 3.28568602 28 13 16368 141.24000000 3184895250 3184895250 1.33300000
36.61748505 -170.65997314 2.03202081 28 14 16369 174.55600000 3184895252 3184895252 0.66700000
14.93864536 -46.78077316 -3.43397164 9 15 16369 49.22800000 3184895252 3184895252 -4.00000000
11.30913448 -42.50285339 -3.59045148 9 16 16370 44.12800000 3184895254 3184895254 -4.66700000
37.55854797 -100.45490265 3.12118149 28 17 16370 107.29200000 3184895254 3184895254 1.66700000
36.54500961 -137.44277954 2.48243022 28 18 16371 142.24000000 3184895257 3184895257 1.00000000
17.89393806 -47.88498688 -3.27616096 22 19 16371 51.22400000 3184895257 3184895257 -3.66700000
14.40069580 -67.23049164 -4.00415087 28 20 16371 68.87200000 3184895259 3184895259 -3.33300000
37.13644791 -116.43402863 7.11737871 42 21 16371 122.42000000 3184895259 3184895259 3.33300000
19.25681305 -60.41236496 -2.95360970 11 23 16372 63.47600000 3184895261 3184895261 -2.66700000
19.02176094 -71.63996887 -3.88458395 28 24 16373 74.22400000 3184895264 3184895264 -3.00000000
38.16630554 -119.80738831 15.43889618 28 25 16373 126.68400000 3184895264 3184895264 7.00000000
26.28697777 -70.45762634 -3.06379271 28 27 16374 75.26400000 3184895266 3184895266 -2.33300000
34.90681076 -163.52182007 -5.83896494 28 28 16375 167.30800000 3184895268 3184895268 -2.00000000
36.62532806 -115.10903931 -2.81083870 28 31 16375 120.82800000 3184895271 3184895271 -1.33300000
1.69870639 -6.44300365 -3.10708952 2 0 16383 7.35200000 3184895291 3184895291 -25.00000000
37.26964569 -100.37589264 -1.86894333 28 1 16383 107.08800000 3184895291 3184895291 -1.00000000
3.12615728 -9.87881947 -2.90063095 15 3 16384 10.76000000 3184895294 3184895294 -15.63900000
3.55312824 -13.49572659 -2.79114127 24 4 16385 14.23200000 3184895296 3184895296 -11.31000000
42.32025146 -133.81538391 0.00000000 28 5 16385 140.34800000 3184895296 3184895296 0.00000000
37.81146240 -178.80947876 -2.12771058 29 6 16386 182.77600000 3184895298 3184895298 -0.66700000
6.22736835 -19.70271683 -3.21474838 3 7 16386 20.91200000 3184895298 3184895298 -8.84300000
6.83086491 -25.96384621 -3.41732311 10 8 16386 27.06400000 3184895300 3184895300 -7.25400000
35.87304688 -136.44880676 -0.81999129 28 10 16387 141.08800000 3184895303 3184895303 -0.33300000
9.09918022 -28.80631256 -3.25403666 4 11 16387 30.38400000 3184895303 3184895303 -6.14800000
8.24251842 -39.04600143 -3.72519827 6 12 16388 40.08000000 3184895305 3184895305 -5.33300000
42.98752594 -136.17324829 3.32281399 28 13 16388 142.83600000 3184895305 3184895305 1.33300000
36.02154541 -170.78675842 2.03202081 28 14 16389 174.55600000 3184895307 3184895307 0.66700000
14.87970829 -47.16370010 -3.45824695 9 15 16389 49.57600000 3184895307 3184895307 -4.00000000
11.16373825 -42.55363846 -3.59142780 9 16 16390 44.14000000 3184895310 3184895310 -4.66700000
37.30754089 -100.85539246 3.12955976 28 17 16390 107.58000000 3184895310 3184895310 1.66700000
36.10729980 -137.63284302 2.48368692 28 18 16390 142.31200000 3184895312 3184895312 1.00000000
17.80706215 -48.13874435 -3.28946424 22 19 16390 51.43200000 3184895312 3184895312 -3.66700000
36.75979614 -116.65816498 7.12319279 42 21 16391 122.52000000 3184895314 3184895314 3.33300000
19.23784637 -61.08900070 -2.98338962 12 23 16392 64.11600000 3184895317 3184895317 -2.66700000
18.97187424 -72.47106171 -3.92603421 28 24 16393 75.01600000 3184895319 3184895319 -3.00000000
37.78362274 -120.05348969 15.45351982 28 25 16393 126.80400000 3184895319 3184895319 7.00000000
36.64180756 -116.56757355 -2.84331393 28 31 16395 122.22400000 3184895326 3184895326 -1.33300000
1.66982198 -6.42433357 -3.09525609 1 0 16403 7.32400000 3184895347 3184895347 -25.00000000
37.06108093 -100.89205170 -1.87613368 28 1 16403 107.50000000 3184895347 3184895347 -1.00000000
22.60279083 -87.02246857 -2.61663532 28 2 16404 89.94800000 3184895349 3184895349 -1.66700000
3.09280396 -9.89334869 -2.90170932 13 3 16404 10.76400000 3184895349 3184895349 -15.63900000
3.50107074 -13.48906422 -2.78721905 19 4 16405 14.21200000 3184895352 3184895352 -11.31000000
37.13929367 -178.55404663 -2.12319398 29 6 16405 182.38800000 3184895354 3184895354 -0.66700000
6.16906929 -19.74589348 -3.21843791 3 7 16405 20.93600000 3184895354 3184895354 -8.84300000
6.74716568 -26.01441765 -3.42085862 49 8 16406 27.09200000 3184895356 3184895356 -7.25400000
35.55308151 -137.17723083 -0.82361794 28 10 16407 141.71200000 3184895359 3184895359 -0.33300000
9.00331116 -28.85308456 -3.25575018 4 11 16407 30.40000000 3184895359 3184895359 -6.14800000
8.13610554 -39.21882248 -3.73895407 6 12 16408 40.22800000 3184895361 3184895361 -5.33300000
41.73928833 -133.84486389 3.26242280 28 13 16408 140.24000000 3184895361 3184895361 1.33300000
14.76841259 -47.38677979 -3.47080302 9 15 16409 49.75600000 3184895363 3184895363 -4.00000000
11.05006695 -42.72743988 -3.60281897 9 16 16410 44.28000000 3184895365 3184895365 -4.66700000
40.84247208 -111.60729218 3.45874810 28 17 16410 118.89600000 3184895365 3184895365 1.66700000
35.33425140 -136.62741089 2.46330237 28 18 16410 141.14400000 3184895368 3184895368 1.00000000
17.65949440 -48.25683975 -3.29330158 22 19 16410 51.49200000 3184895368 3184895368 -3.66700000
39.52473450 -126.97736359 7.74481535 42 21 16411 133.21200000 3184895370 3184895370 3.33300000
42.47291183 -164.46737671 6.92040062 28 22 16412 170.00400000 3184895372 3184895372 2.33300000
19.22981834 -61.81583405 -3.01558900 13 23 16412 64.80800000 3184895372 3184895372 -2.66700000
18.99127579 -73.59275055 -3.98318505 28 24 16413 76.10800000 3184895375 3184895375 -3.00000000
19.79960251 -54.22221756 -2.35174108 24 27 16414 57.77200000 3184895377 3184895377 -2.33300000
36.48153687 -176.94013977 -6.30885172 28 28 16415 180.77200000 3184895379 3184895379 -2.00000000
36.90824890 -118.86398315 -2.89616799 28 31 16415 124.49600000 3184895382 3184895382 -1.33300000
1.64828646 -6.43363476 -3.09694672 1 0 16423 7.32800000 3184895402 3184895402 -25.00000000
37.20859909 -102.39656830 -1.90168405 28 1 16423 108.96400000 3184895402 3184895402 -1.00000000
3.04461312 -9.85991859 -2.88876963 15 3 16424 10.71600000 3184895405 3184895405 -15.63900000
3.45396376 -13.50120354 -2.78721905 14 4 16425 14.21200000 3184895407 3184895407 -11.31000000
41.85210037 -135.62113953 0.00000000 28 5 16425 141.93200000 3184895407 3184895407 0.00000000
36.58226776 -179.00785828 -2.12705874 29 6 16425 182.72000000 3184895409 3184895409 -0.66700000
6.11059523 -19.80129814 -3.22397208 3 7 16425 20.97200000 3184895409 3184895409 -8.84300000
6.67597294 -26.11469841 -3.43096018 10 8 16426 27.17200000 3184895412 3184895412 -7.25400000
41.44198227 -114.23297882 0.70626378 28 9 16426 121.52000000 3184895412 3184895412 0.33300000
35.06907654 -137.28111267 -0.82350165 28 10 16427 141.69200000 3184895414 3184895414 -0.33300000
8.91776752 -28.93374443 -3.26131940 4 11 16427 30.45200000 3184895414 3184895414 -6.14800000
8.01347351 -39.31722641 -3.74564600 6 12 16428 40.30000000 3184895416 3184895416 -5.33300000
38.40705109 -188.60818481 2.24081540 28 14 16429 192.49200000 3184895418 3184895418 0.66700000
14.66865349 -47.65160751 -3.48642850 9 15 16429 49.98000000 3184895418 3184895418 -4.00000000
10.91168499 -42.80824661 -3.60639882 9 16 16430 44.32400000 3184895421 3184895421 -4.66700000
40.29885483 -111.32435608 3.44559932 28 17 16430 118.44400000 3184895421 3184895421 1.66700000
34.90650940 -136.94369507 2.46679282 28 18 16430 141.34400000 3184895423 3184895423 1.00000000
17.56702805 -48.52838135 -3.30762815 22 19 16430 51.71600000 3184895423 3184895423 -3.66700000
13.93451500 -68.55156708 -4.07391739 28 20 16431 70.07200000 3184895425 3184895425 -3.33300000
39.96842957 -130.00013733 7.92062759 42 21 16431 136.23600000 3184895425 3184895425 3.33300000
41.65209961 -163.64634705 6.87969303 28 22 16432 169.00400000 3184895428 3184895428 2.33300000
19.20404053 -62.50133133 -3.04574132 13 23 16432 65.45600000 3184895428 3184895428 -2.66700000
18.95778084 -74.53737640 -4.03070593 28 24 16433 77.01600000 3184895430 3184895430 -3.00000000
19.80844498 -54.83981323 -2.37551403 25 27 16434 58.35600000 3184895432 3184895432 -2.33300000
36.86010742 -120.18874359 -2.92529345 28 31 16435 125.74800000 3184895437 3184895437 -1.33300000
1.64800525 -6.52722263 -3.13920856 1 0 16443 7.42800000 3184895458 3184895458 -25.00000000
37.25677109 -103.65492249 -1.92262685 28 1 16443 110.16400000 3184895458 3184895458 -1.00000000
3.02590775 -9.92206764 -2.90386581 13 3 16444 10.77200000 3184895460 3184895460 -15.63900000
3.40585589 -13.50937462 -2.78643441 12 4 16445 14.20800000 3184895462 3184895462 -11.31000000
36.85378265 -120.92060089 0.00000000 28 5 16445 126.41200000 3184895462 3184895462 0.00000000
37.17806625 -185.21672058 -2.19928002 29 6 16445 188.92400000 3184895465 3184895465 -0.66700000
6.05411386 -19.86409569 -3.23073602 3 7 16445 21.01600000 3184895465 3184895465 -8.84300000
6.61579370 -26.26097107 -3.44712257 3 8 16446 27.30000000 3184895467 3184895467 -7.25400000
41.00380707 -114.26776123 0.70558959 28 9 16446 121.40400000 3184895467 3184895467 0.33300000
35.07692337 -139.33827209 -0.83510226 28 10 16447 143.68800000 3184895469 3184895469 -0.33300000
8.85261726 -29.08263969 -3.27459931 4 11 16447 30.57600000 3184895469 3184895469 -6.14800000
7.94028616 -39.66518784 -3.77613163 6 12 16448 40.62800000 3184895471 3184895471 -5.33300000
42.83824158 -140.82051086 3.42507863 28 13 16448 147.23200000 3184895471 3184895471 1.33300000
14.51383495 -47.74069977 -3.48921871 9 15 16449 50.02000000 3184895474 3184895474 -4.00000000
10.81366539 -43.05100632 -3.62364817 9 16 16450 44.53600000 3184895476 3184895476 -4.66700000
40.01514053 -111.75795746 3.45467544 28 17 16450 118.75600000 3184895476 3184895476 1.66700000
34.76849365 -138.52148438 2.49290180 28 18 16451 142.84000000 3184895478 3184895478 1.00000000
17.45763779 -48.78411865 -3.32067537 22 19 16451 51.92000000 3184895478 3184895478 -3.66700000
13.77331829 -68.99138641 -4.09717321 28 20 16451 70.47200000 3184895481 3184895481 -3.33300000
41.10491943 -163.88764954 6.88376379 28 22 16452 169.10400000 3184895483 3184895483 2.33300000
19.20039368 -63.27533340 -3.08017421 14 23 16452 66.19600000 3184895483 3184895483 -2.66700000
18.92374611 -75.50589752 -4.07948303 28 24 16453 77.94800000 3184895485 3184895485 -3.00000000
41.12837601 -135.62469482 17.40147972 28 25 16453 142.78800000 3184895485 3184895485 7.00000000
19.75270462 -55.28875732 -2.39195991 26 27 16454 58.76000000 3184895488 3184895488 -2.33300000
36.35984039 -182.79325867 -6.50833750 28 28 16455 186.48800000 3184895490 3184895490 -2.00000000
36.55278397 -120.68791962 -2.93431950 28 31 16455 126.13600000 3184895492 3184895492 -1.33300000
1.63571310 -6.57515144 -3.15949416 1 0 16463 7.47600000 3184895513 3184895513 -25.00000000
37.17604446 -104.57569885 -1.93728697 28 1 16463 111.00400000 3184895513 3184895513 -1.00000000
37.08865738 -149.19813538 -4.47424030 28 2 16464 153.80400000 3184895515 3184895515 -1.66700000
3.00125170 -9.96576405 -2.91357040 11 3 16464 10.80800000 3184895515 3184895515 -15.63900000
3.35300517 -13.49834061 -2.78172755 14 4 16465 14.18400000 3184895517 3184895517 -11.31000000
40.85700989 -135.75297546 0.00000000 28 5 16465 141.76800000 3184895517 3184895517 0.00000000
5.99265146 -19.92400169 -3.23688531 3 7 16466 21.05600000 3184895520 3184895520 -8.84300000
6.53938007 -26.34552193 -3.45520377 3 8 16466 27.36400000 3184895522 3184895522 -7.25400000
37.65051651 -151.79780579 -0.90898329 28 10 16467 156.40000000 3184895524 3184895524 -0.33300000
8.76707363 -29.16668510 -3.28059673 4 11 16467 30.63200000 3184895524 3184895524 -6.14800000
7.80178022 -39.69266129 -3.77613163 6 12 16468 40.62800000 3184895527 3184895527 -5.33300000
42.36713409 -141.03811646 3.42675352 28 13 16468 147.30400000 3184895527 3184895527 1.33300000
37.30596542 -189.97457886 2.25390005 28 14 16469 193.61600000 3184895529 3184895529 0.66700000
14.39987659 -47.96687317 -3.50205398 9 15 16469 50.20400000 3184895529 3184895529 -4.00000000
10.69875908 -43.23168182 -3.63569021 9 16 16470 44.68400000 3184895531 3184895531 -4.66700000
40.69786072 -114.92720795 3.54823065 28 17 16470 121.97200000 3184895531 3184895531 1.66700000
17.34906769 -48.99225616 -3.33090854 22 19 16470 52.08000000 3184895534 3184895534 -3.66700000
13.53240967 -69.03904724 -4.09717321 28 20 16471 70.47200000 3184895536 3184895536 -3.33300000
38.71010590 -129.10937500 7.84969807 42 21 16471 135.01600000 3184895536 3184895536 3.33300000
19.17666435 -64.00030518 -3.11218762 15 23 16472 66.88400000 3184895538 3184895538 -2.66700000
18.86306953 -76.39363861 -4.12386417 28 24 16473 78.79600000 3184895541 3184895541 -3.00000000
39.57390976 -132.15808105 16.93886375 28 25 16473 138.99200000 3184895541 3184895541 7.00000000
19.69007683 -55.72667313 -2.40791702 27 27 16474 59.15200000 3184895543 3184895543 -2.33300000
36.84307098 -123.27321625 -2.99387312 28 31 16476 128.69600000 3184895547 3184895547 -1.33300000
1.60958254 -6.56293488 -3.15104175 0 0 16482 7.45600000 3184895568 3184895568 -25.00000000
37.40237045 -106.32824707 -1.96744466 28 1 16482 112.73200000 3184895568 3184895568 -1.00000000
37.04574966 -151.16491699 -4.52951241 28 2 16483 155.70400000 3184895570 3184895570 -1.66700000
2.93742895 -9.87228775 -2.88337803 13 3 16483 10.69600000 3184895570 3184895570 -15.63900000
3.31288934 -13.52843380 -2.78565001 5 4 16484 14.20400000 3184895573 3184895573 -11.31000000
40.10905075 -134.88702393 0.00000000 28 5 16484 140.72400000 3184895573 3184895573 0.00000000
37.44921494 -193.56118774 -2.29520249 29 6 16485 197.16400000 3184895575 3184895575 -0.66700000
5.94005871 -19.98922920 -3.24426413 3 7 16485 21.10400000 3184895575 3184895575 -8.84300000
6.47838688 -26.47498322 -3.46934581 3 8 16485 27.47600000 3184895577 3184895577 -7.25400000
37.28944016 -152.50463867 -0.91247046 28 10 16486 157.00000000 3184895580 3184895580 -0.33300000
8.68275928 -29.23753357 -3.28530908 4 11 16486 30.67600000 3184895580 3184895580 -6.14800000
7.71768665 -39.96467209 -3.79955363 6 12 16487 40.88000000 3184895582 3184895582 -5.33300000
40.43262482 -136.23626709 3.30680895 28 13 16487 142.14800000 3184895582 3184895582 1.33300000
14.29065800 -48.18268204 -3.51433110 9 15 16488 50.38000000 3184895584 3184895584 -4.00000000
10.60163879 -43.45670319 -3.65163755 9 16 16489 44.88000000 3184895587 3184895587 -4.66700000
40.07189941 -164.25694275 2.95120192 28 18 16489 169.10000000 3184895589 3184895589 1.00000000
17.26306915 -49.26802063 -3.34574676 22 19 16489 52.31200000 3184895589 3184895589 -3.66700000
13.37890339 -69.47566223 -4.12042856 28 20 16490 70.87200000 3184895591 3184895591 -3.33300000
38.26247025 -129.17193604 7.84574461 42 21 16490 134.94800000 3184895591 3184895591 3.33300000
40.62595749 -166.78088379 6.99351072 28 22 16491 171.80000000 3184895594 3184895594 2.33300000
19.17187691 -64.76467896 -3.14624834 15 23 16491 67.61600000 3184895594 3184895594 -2.66700000
18.71638680 -76.89434814 -4.14752007 28 24 16492 79.24800000 3184895596 3184895596 -3.00000000
40.26057816 -136.09185791 17.42585373 28 25 16492 142.98800000 3184895596 3184895596 7.00000000
19.64630318 -56.19534683 -2.42533970 27 27 16493 59.58000000 3184895598 3184895598 -2.33300000
36.75134659 -124.38929749 -3.01815987 28 31 16494 129.74000000 3184895603 3184895603 -1.33300000
1.60283685 -6.63546705 -3.18316078 0 0 16502 7.53200000 3184895623 3184895623 -25.00000000
37.29246521 -107.20985413 -1.98133683 28 1 16502 113.52800000 3184895623 3184895623 -1.00000000
2.89209414 -9.84552288 -2.87259507 14 3 16503 10.65600000 3184895626 3184895626 -15.63900000
3.30335140 -13.69624805 -2.81781316 12 4 16504 14.36800000 3184895628 3184895628 -11.31000000
39.58839035 -134.85733032 0.00000000 28 5 16504 140.54800000 3184895628 3184895628 0.00000000
5.88264561 -20.03915596 -3.24918342 3 7 16504 21.13600000 3184895630 3184895630 -8.84300000
6.41196346 -26.60544586 -3.48348784 3 8 16505 27.58800000 3184895633 3184895633 -7.25400000
37.07059097 -153.93661499 -0.92025840 28 10 16506 158.34000000 3184895635 3184895635 -0.33300000
8.61085796 -29.37070656 -3.29687548 4 11 16506 30.78400000 3184895635 3184895635 -6.14800000
7.59222555 -40.06571579 -3.80661726 6 12 16507 40.95600000 3184895637 3184895637 -5.33300000
14.17620277 -48.41608810 -3.52772450 9 15 16508 50.57200000 3184895640 3184895640 -4.00000000
10.45826435 -43.52833557 -3.65456676 9 16 16509 44.91600000 3184895642 3184895642 -4.66700000
39.57210159 -164.70303345 2.95671678 28 18 16509 169.41600000 3184895644 3184895644 1.00000000
17.21905708 -49.69761658 -3.37081814 23 19 16509 52.70400000 3184895644 3184895644 -3.66700000
13.21044731 -69.91432190 -4.14368439 28 20 16510 71.27200000 3184895647 3184895647 -3.33300000
39.99692154 -166.72735596 6.98536921 28 22 16511 171.60000000 3184895649 3184895649 2.33300000
19.14518929 -65.51388550 -3.17937851 16 23 16511 68.32800000 3184895649 3184895649 -2.66700000
18.56052971 -77.42922974 -4.17285061 28 24 16512 79.73200000 3184895651 3184895651 -3.00000000
39.84093094 -136.42211914 17.45022774 28 25 16512 143.18800000 3184895651 3184895651 7.00000000
19.53098679 -56.49777603 -2.43543530 28 27 16513 59.82800000 3184895653 3184895653 -2.33300000
18.67387581 -99.20828247 -3.52526808 28 28 16514 101.01200000 3184895656 3184895656 -2.00000000
1.58018255 -6.64835119 -3.18654180 0 0 16523 7.54000000 3184895679 3184895679 -25.00000000
37.14628983 -108.06443024 -1.99460065 28 1 16523 114.28800000 3184895679 3184895679 -1.00000000
37.32490158 -157.16014099 -4.70103025 28 2 16524 161.60000000 3184895681 3184895681 -1.66700000
2.88815117 -9.96704865 -2.90494418 12 3 16524 10.77600000 3184895681 3184895681 -15.63900000
3.23863959 -13.64720249 -2.80526161 17 4 16525 14.30400000 3184895683 3184895683 -11.31000000
39.30301666 -135.72384644 0.00000000 28 5 16525 141.30000000 3184895683 3184895683 0.00000000
36.97505951 -198.53251648 -2.35103321 29 6 16525 201.96000000 3184895686 3184895686 -0.66700000
5.82015276 -20.09854698 -3.25533247 3 7 16525 21.17600000 3184895686 3184895686 -8.84300000
6.32173109 -26.65965652 -3.48752832 3 8 16526 27.62000000 3184895688 3184895688 -7.25400000
39.30599976 -165.88806152 -0.99083829 28 10 16527 170.48400000 3184895690 3184895690 -0.33300000
8.52082920 -29.46319580 -3.30372977 4 11 16527 30.84800000 3184895690 3184895690 -6.14800000
7.46932220 -40.22249603 -3.81888580 6 12 16528 41.08800000 3184895693 3184895693 -5.33300000
39.26018906 -135.84213257 3.29033852 28 13 16528 141.44000000 3184895693 3184895693 1.33300000
14.06287289 -48.69006729 -3.54390788 9 15 16529 50.80400000 3184895695 3184895695 -4.00000000
10.31332874 -43.62845230 -3.65977407 9 16 16530 44.98000000 3184895697 3184895697 -4.66700000
39.06017685 -165.23617554 2.96369791 28 18 16530 169.81600000 3184895700 3184895700 1.00000000
17.10402870 -49.95677948 -3.38412142 23 19 16530 52.91200000 3184895700 3184895700 -3.66700000
13.02681255 -70.35491943 -4.16693974 28 20 16531 71.67200000 3184895702 3184895702 -3.33300000
38.21036148 -132.46968079 8.02923107 42 21 16531 138.10400000 3184895702 3184895702 3.33300000
39.33966064 -166.67834473 6.97722769 28 22 16532 171.40000000 3184895704 3184895704 2.33300000
19.11742973 -66.32077026 -3.21511459 17 23 16532 69.09600000 3184895704 3184895704 -2.66700000
18.41689873 -78.09158325 -4.20488024 28 24 16533 80.34400000 3184895706 3184895706 -3.00000000
19.51628113 -57.13251495 -2.45969677 28 27 16534 60.42400000 3184895709 3184895709 -2.33300000
36.32913971 -126.36174774 -3.05947518 28 31 16536 131.51600000 3184895713 3184895713 -1.33300000
1.55895364 -6.65708447 -3.18823218 0 0 16542 7.54400000 3184895734 3184895734 -25.00000000
36.97184753 -108.72848511 -2.00458336 28 1 16542 114.86000000 3184895734 3184895734 -1.00000000
2.84448552 -9.93953896 -2.89416099 16 3 16543 10.73600000 3184895736 3184895736 -15.63900000
38.89341736 -135.99572754 0.00000000 28 5 16544 141.44800000 3184895739 3184895739 0.00000000
5.76433945 -20.15573883 -3.26148152 3 7 16544 21.21600000 3184895741 3184895741 -8.84300000
6.24592781 -26.73456764 -3.49459934 3 8 16545 27.67600000 3184895743 3184895743 -7.25400000
8.46130657 -29.62513351 -3.31872344 4 11 16546 30.98800000 3184895746 3184895746 -6.14800000
7.37874842 -40.48213196 -3.84119248 6 12 16547 41.32800000 3184895748 3184895748 -5.33300000
38.86328506 -136.16000366 3.29489803 28 13 16547 141.63600000 3184895748 3184895748 1.33300000
14.00312233 -49.09329605 -3.56985736 9 15 16548 51.17600000 3184895750 3184895750 -4.00000000
10.20295715 -43.80995941 -3.67214131 9 16 16549 45.13200000 3184895753 3184895753 -4.66700000
38.46665955 -165.17002869 2.96020746 28 18 16549 169.61600000 3184895755 3184895755 1.00000000
16.99973488 -50.19470215 -3.39640117 23 19 16549 53.10400000 3184895755 3184895755 -3.66700000
12.86412144 -70.78668976 -4.18996286 28 20 16550 72.06800000 3184895757 3184895757 -3.33300000
38.53665543 -135.28398132 8.19202042 42 21 16550 140.90400000 3184895757 3184895757 3.33300000
38.75956726 -166.69110107 6.97234297 28 22 16551 171.28000000 3184895759 3184895759 2.33300000
19.11400414 -67.14470673 -3.25196719 17 23 16551 69.88800000 3184895759 3184895759 -2.66700000
18.25004578 -78.54909515 -4.22623301 28 24 16552 80.75200000 3184895762 3184895762 -3.00000000
19.49431801 -57.69293594 -2.48102736 28 27 16553 60.94800000 3184895764 3184895764 -2.33300000
36.55866623 -128.76657104 -3.11474848 28 31 16555 133.89200000 3184895769 3184895769 -1.33300000
1.53570664 -6.66248560 -3.18823218 0 0 16562 7.54400000 3184895789 3184895789 -25.00000000
36.92851257 -109.85768890 -2.02301311 28 1 16562 115.91600000 3184895789 3184895789 -1.00000000
37.26654053 -161.80558777 -4.83228683 28 2 16563 166.11200000 3184895792 3184895792 -1.66700000
2.85478759 -10.10880566 -2.94052815 15 3 16563 10.90800000 3184895792 3184895792 -15.63900000
3.17558026 -13.79889297 -2.83193374 14 4 16564 14.44000000 3184895794 3184895794 -11.31000000
38.11969757 -135.07202148 0.00000000 28 5 16564 140.34800000 3184895794 3184895794 0.00000000
36.75030136 -205.07093811 -2.42544293 29 6 16564 208.35200000 3184895796 3184895796 -0.66700000
5.70683002 -20.22138405 -3.26886058 3 7 16564 21.26400000 3184895796 3184895796 -8.84300000
6.17835617 -26.86835289 -3.50924659 3 8 16565 27.79200000 3184895799 3184895799 -7.25400000
44.66626740 -133.10725403 0.81601596 28 9 16565 140.40400000 3184895799 3184895799 0.33300000
38.75187302 -168.65841675 -1.00578654 28 10 16566 173.05600000 3184895801 3184895801 -0.33300000
8.36431694 -29.67745590 -3.32129359 4 11 16566 31.01200000 3184895801 3184895801 -6.14800000
7.26051044 -40.63702011 -3.85346103 6 12 16567 41.46000000 3184895803 3184895803 -5.33300000
38.13841248 -135.40951538 3.27349615 28 13 16567 140.71600000 3184895803 3184895803 1.33300000
13.84680462 -49.19565201 -3.57376361 9 15 16568 51.23200000 3184895805 3184895805 -4.00000000
10.09361553 -44.03571701 -3.68808889 9 16 16569 45.32800000 3184895808 3184895808 -4.66700000
44.22899628 -132.10990906 4.05452204 28 17 16569 139.37600000 3184895808 3184895808 1.66700000
38.53144073 -168.10227966 3.01033068 28 18 16569 172.48800000 3184895810 3184895810 1.00000000
16.88778305 -50.44300461 -3.40919280 23 19 16569 53.30400000 3184895810 3184895810 -3.66700000
12.68697929 -71.22429657 -4.21321869 28 20 16570 72.46800000 3184895812 3184895812 -3.33300000
37.69355392 -134.09909058 8.11225414 42 21 16570 139.53200000 3184895812 3184895812 3.33300000
38.45653534 -168.04481506 7.02330875 28 22 16571 172.53200000 3184895815 3184895815 2.33300000
19.09346008 -67.97268677 -3.28881979 18 23 16571 70.68000000 3184895815 3184895815 -2.66700000
18.11643219 -79.22757721 -4.25930929 28 24 16572 81.38400000 3184895817 3184895817 -3.00000000
19.49287033 -58.35958099 -2.50675440 28 27 16573 61.58000000 3184895819 3184895819 -2.33300000
36.78857422 -131.31932068 -3.17337155 28 31 16575 136.41200000 3184895824 3184895824 -1.33300000
1.51324284 -6.67134142 -3.18992257 0 0 16582 7.54800000 3184895845 3184895845 -25.00000000
36.99879837 -111.35225677 -2.04814458 28 1 16582 117.35600000 3184895845 3184895845 -1.00000000
38.83847809 -171.36346436 -5.11365032 28 2 16583 175.78400000 3184895847 3184895847 -1.66700000
2.80914474 -10.08160305 -2.92974496 17 3 16583 10.86800000 3184895847 3184895847 -15.63900000
3.13085890 -13.82519531 -2.83507156 8 4 16584 14.45600000 3184895849 3184895849 -11.31000000
37.75098419 -135.57418823 0.00000000 28 5 16584 140.73200000 3184895849 3184895849 0.00000000
5.64363098 -20.26783371 -3.27316499 3 7 16584 21.29200000 3184895852 3184895852 -8.84300000
6.09153605 -26.92071724 -3.51328707 3 8 16585 27.82400000 3184895854 3184895854 -7.25400000
43.93439865 -132.45748901 0.81108743 28 9 16585 139.55600000 3184895854 3184895854 0.33300000
8.29902935 -29.84440994 -3.33671570 4 11 16586 31.15600000 3184895856 3184895856 -6.14800000
7.16463184 -40.92495728 -3.87837005 6 12 16587 41.72800000 3184895858 3184895858 -5.33300000
37.69870377 -135.66127014 3.27638078 28 13 16587 140.84000000 3184895858 3184895858 1.33300000
13.77322292 -49.59740448 -3.59943414 9 15 16588 51.60000000 3184895861 3184895861 -4.00000000
9.98018932 -44.24958038 -3.70305991 9 16 16589 45.51200000 3184895863 3184895863 -4.66700000
43.48495483 -131.40940857 4.02834082 28 17 16589 138.47600000 3184895863 3184895863 1.66700000
38.03153229 -168.62199402 3.01724172 28 18 16589 172.88400000 3184895865 3184895865 1.00000000
16.77430344 -50.69113159 -3.42198420 23 19 16589 53.50400000 3184895865 3184895865 -3.66700000
37.17187500 -134.03744507 8.10062599 42 21 16590 139.33200000 3184895868 3184895868 3.33300000
38.25690079 -169.89750671 7.09511614 28 22 16591 174.29600000 3184895870 3184895870 2.33300000
19.07163429 -68.81672668 -3.32641697 19 23 16591 71.48800000 3184895870 3184895870 -2.66700000
17.94936943 -79.77746582 -4.28547764 28 24 16592 81.88400000 3184895872 3184895872 -3.00000000
19.43312645 -58.86371613 -2.52547979 28 27 16593 62.04000000 3184895875 3184895875 -2.33300000
24.12724876 -87.23650360 -2.10615158 28 31 16594 90.53600000 3184895879 3184895879 -1.33300000
1.48205042 -6.64120102 -3.17301798 0 0 16602 7.50800000 3184895900 3184895900 -25.00000000
36.85071182 -112.21408081 -2.06161785 28 1 16602 118.12800000 3184895900 3184895900 -1.00000000
39.02234650 -175.00631714 -5.21825981 28 2 16603 179.38000000 3184895902 3184895902 -1.66700000
2.78210402 -10.12106037 -2.93837142 13 3 16603 10.90000000 3184895902 3184895902 -15.63900000
3.43058681 -15.39805031 -3.15513492 16 4 16604 16.08800000 3184895905 3184895905 -11.31000000
37.17579651 -135.33485413 0.00000000 28 5 16604 140.34800000 3184895905 3184895905 0.00000000
5.58186340 -20.33411980 -3.28054380 3 7 16605 21.34000000 3184895907 3184895907 -8.84300000
6.02684355 -27.07350349 -3.53045964 3 8 16605 27.96000000 3184895909 3184895909 -7.25400000
43.58016968 -132.94071960 0.81310999 28 9 16605 139.90400000 3184895909 3184895909 0.33300000
39.46674728 -177.43667603 -1.05646646 28 10 16606 181.77600000 3184895911 3184895911 -0.33300000
8.20742798 -29.91921997 -3.34185624 4 11 16606 31.20400000 3184895911 3184895911 -6.14800000
7.01971388 -40.93794250 -3.87725472 6 12 16607 41.71600000 3184895914 3184895914 -5.33300000
37.64676285 -137.33082581 3.31350875 28 13 16607 142.43600000 3184895914 3184895914 1.33300000
13.60001183 -49.64517975 -3.59943414 9 15 16608 51.60000000 3184895916 3184895916 -4.00000000
9.86366558 -44.45539856 -3.71738005 9 16 16609 45.68800000 3184895918 3184895918 -4.66700000
43.02598572 -131.56040955 4.02834082 28 17 16609 138.47600000 3184895918 3184895918 1.66700000
37.36044312 -168.52207947 3.01298356 28 18 16610 172.64000000 3184895921 3184895921 1.00000000
16.71241570 -51.13169861 -3.44756722 23 19 16610 53.90400000 3184895921 3184895921 -3.66700000
37.36549759 -136.58525085 8.24667168 42 21 16610 141.84400000 3184895923 3184895923 3.33300000
19.03676987 -69.63445282 -3.36271119 20 23 16611 72.26800000 3184895925 3184895925 -2.66700000
17.78645515 -80.36225128 -4.31352949 28 24 16612 82.42000000 3184895928 3184895928 -3.00000000
19.46183586 -59.64931107 -2.55625439 28 27 16613 62.79600000 3184895930 3184895930 -2.33300000
23.77838516 -87.15815735 -2.10224342 28 31 16614 90.36800000 3184895935 3184895935 -1.33300000
37.01433563 -114.05386353 -2.09303212 28 1 16622 119.92800000 3184895955 3184895955 -1.00000000
38.47546387 -175.43437195 -5.22698736 28 2 16623 179.68000000 3184895958 3184895958 -1.66700000
2.73869395 -10.10096931 -2.92974496 13 3 16623 10.86800000 3184895958 3184895958 -15.63900000
3.37261868 -15.39077377 -3.15121269 18 4 16624 16.06800000 3184895960 3184895960 -11.31000000
36.79521942 -135.80354309 0.00000000 28 5 16624 140.70000000 3184895960 3184895960 0.00000000
5.52117968 -20.39163208 -3.28669286 3 7 16625 21.38000000 3184895962 3184895962 -8.84300000
5.93909216 -27.12538528 -3.53450012 7 8 16625 27.99200000 3184895964 3184895964 -7.25400000
42.81507111 -132.16355896 0.80743754 28 9 16625 138.92800000 3184895964 3184895964 0.33300000
38.84713745 -177.57336426 -1.05646646 28 10 16626 181.77600000 3184895967 3184895967 -0.33300000
8.12059784 -30.01294899 -3.34913898 4 11 16626 31.27200000 3184895967 3184895967 -6.14800000
6.90380621 -41.12323380 -3.89249754 6 12 16627 41.88000000 3184895969 3184895969 -5.33300000
36.82897949 -136.21066284 3.28335953 28 13 16627 141.14000000 3184895969 3184895969 1.33300000
13.48804379 -49.91962433 -3.61589646 19 15 16628 51.83600000 3184895971 3184895971 -4.00000000
9.72287655 -44.55577469 -3.72291279 9 16 16629 45.75600000 3184895974 3184895974 -4.66700000
43.24275589 -133.80229187 4.09233999 28 17 16629 140.67600000 3184895974 3184895974 1.66700000
37.28486633 -170.86054993 3.05256557 28 18 16629 174.90800000 3184895976 3184895976 1.00000000
16.56117821 -51.24381256 -3.45140457 24 19 16629 53.96400000 3184895976 3184895976 -3.66700000
36.85105133 -136.57606506 8.23829937 42 21 16630 141.70000000 3184895978 3184895978 3.33300000
19.03179359 -70.58393860 -3.40533376 21 23 16631 73.18400000 3184895981 3184895981 -2.66700000
17.56190300 -80.68145752 -4.32734632 28 24 16632 82.68400000 3184895983 3184895983 -3.00000000
19.42765427 -60.25703049 -2.57937622 28 27 16633 63.36400000 3184895985 3184895985 -2.33300000
23.46568871 -87.20973969 -2.10149908 28 31 16634 90.33600000 3184895990 3184895990 -1.33300000
36.80772781 -114.78028107 -2.10399222 28 1 16642 120.55600000 3184896010 3184896010 -1.00000000
2.72132850 -10.17744827 -2.94915438 9 3 16643 10.94000000 3184896012 3184896012 -15.63900000
3.32961488 -15.45229912 -3.16141081 8 4 16644 16.12000000 3184896015 3184896015 -11.31000000
36.22285461 -135.56402588 0.00000000 28 5 16644 140.32000000 3184896015 3184896015 0.00000000
5.46679211 -20.45946884 -3.29468679 3 7 16644 21.43200000 3184896017 3184896017 -8.84300000
5.85606241 -27.20026016 -3.54157114 7 8 16645 28.04800000 3184896019 3184896019 -7.25400000
42.87295151 -133.93505859 0.81734103 28 9 16645 140.63200000 3184896019 3184896019 0.33300000
38.20097733 -177.58665466 -1.05574572 28 10 16646 181.65200000 3184896022 3184896022 -0.33300000
8.03834057 -30.12564850 -3.35856342 4 11 16646 31.36000000 3184896022 3184896022 -6.14800000
6.79185534 -41.33965302 -3.91071463 6 12 16647 42.07600000 3184896024 3184896024 -5.33300000
36.49547195 -136.87161255 3.29620075 28 13 16647 141.69200000 3184896024 3184896024 1.33300000
13.38768005 -50.24401474 -3.63598633 9 15 16648 52.12400000 3184896026 3184896026 -4.00000000
9.63670731 -44.91297913 -3.74992585 9 16 16649 46.08800000 3184896028 3184896028 -4.66700000
42.77543259 -133.95242310 4.09233999 28 17 16649 140.67600000 3184896028 3184896028 1.66700000
16.47691917 -51.59791565 -3.47135949 24 19 16649 54.27600000 3184896031 3184896031 -3.66700000
11.94942474 -72.97078705 -4.30624104 28 20 16650 74.06800000 3184896033 3184896033 -3.33300000
37.00556183 -139.07713318 8.38132095 42 21 16650 144.16000000 3184896033 3184896033 3.33300000
19.00399017 -71.47244263 -3.44497824 22 23 16651 74.03600000 3184896035 3184896035 -2.66700000
17.44735718 -81.52348328 -4.36921501 28 24 16652 83.48400000 3184896038 3184896038 -3.00000000
19.41493988 -60.94520187 -2.60591722 28 27 16653 64.01600000 3184896040 3184896040 -2.33300000
23.12933540 -87.17129517 -2.09861445 28 31 16654 90.21200000 3184896045 3184896045 -1.33300000
37.17873383 -117.34432220 -2.14860058 28 1 16662 123.11200000 3184896065 3184896065 -1.00000000
2.75059819 -10.43271160 -3.02032232 9 3 16663 11.20400000 3184896068 3184896068 -15.63900000
3.33824301 -15.75928974 -3.22181487 6 4 16664 16.42800000 3184896070 3184896070 -11.31000000
35.45796967 -134.58340454 0.00000000 28 5 16664 139.17600000 3184896070 3184896070 0.00000000
5.40541172 -20.51664734 -3.30083585 3 7 16664 21.47200000 3184896072 3184896072 -8.84300000
5.78737164 -27.34475899 -3.55773354 7 8 16665 28.17600000 3184896075 3184896075 -7.25400000
38.35980606 -121.29257965 0.73936844 28 9 16665 127.21600000 3184896075 3184896075 0.33300000
39.46597672 -186.63362122 -1.10870385 28 10 16666 190.76400000 3184896077 3184896077 -0.33300000
7.95033503 -30.21890831 -3.36584616 4 11 16666 31.42800000 3184896077 3184896077 -6.14800000
6.67531776 -41.53612518 -3.92707276 6 12 16667 42.25200000 3184896079 3184896079 -5.33300000
36.22591782 -137.79101562 3.31527662 28 13 16667 142.51200000 3184896079 3184896079 1.33300000
13.27102089 -50.51427841 -3.65216994 10 15 16668 52.35600000 3184896081 3184896081 -4.00000000
9.49386024 -45.01266098 -3.75545859 9 16 16669 46.15600000 3184896084 3184896084 -4.66700000
42.27751541 -134.00559998 4.08943081 28 17 16669 140.57600000 3184896084 3184896084 1.66700000
16.33514023 -51.77693558 -3.47954607 24 19 16669 54.40400000 3184896086 3184896086 -3.66700000
11.75779247 -73.40635681 -4.32949638 28 20 16670 74.46800000 3184896088 3184896088 -3.33300000
36.04867554 -137.40937805 8.27318287 42 21 16670 142.30000000 3184896088 3184896088 3.33300000
18.96818542 -72.35386658 -3.48425055 22 23 16671 74.88000000 3184896091 3184896091 -2.66700000
17.36743927 -82.55722046 -4.42134142 28 24 16672 84.48000000 3184896093 3184896093 -3.00000000
19.37485886 -61.56157684 -2.62936473 28 27 16673 64.59200000 3184896095 3184896095 -2.33300000
22.86134338 -87.39077759 -2.10196424 28 31 16674 90.35600000 3184896100 3184896100 -1.33300000
37.01141357 -118.24819183 -2.16277194 28 1 16682 123.92400000 3184896121 3184896121 -1.00000000
37.47140503 -179.83584595 -5.34614182 28 2 16683 183.77600000 3184896123 3184896123 -1.66700000
2.69381571 -10.36396122 -2.99767804 10 3 16683 11.12000000 3184896123 3184896123 -15.63900000
3.27441907 -15.72860718 -3.21318579 14 4 16684 16.38400000 3184896125 3184896125 -11.31000000
35.60840988 -137.09509277 0.00000000 28 5 16684 141.64400000 3184896125 3184896125 0.00000000
5.34369850 -20.57364464 -3.30698490 3 7 16684 21.51200000 3184896128 3184896128 -8.84300000
5.69754171 -27.39198875 -3.56126904 7 8 16685 28.20400000 3184896130 3184896130 -7.25400000
42.23746109 -135.19322205 0.82319945 28 9 16685 141.64000000 3184896130 3184896130 0.33300000
7.87675333 -30.36966515 -3.37955451 4 11 16686 31.55600000 3184896132 3184896132 -6.14800000
6.53956223 -41.61819077 -3.93264937 6 12 16687 42.31200000 3184896134 3184896134 -5.33300000
35.70558929 -137.76565552 3.31164765 28 13 16687 142.35600000 3184896134 3184896134 1.33300000
13.14663506 -50.76116180 -3.66667938 10 15 16688 52.56400000 3184896137 3184896137 -4.00000000
9.40788364 -45.38905716 -3.78409886 9 16 16689 46.50800000 3184896139 3184896139 -4.66700000
42.41027069 -136.08004761 4.14819384 28 17 16689 142.59600000 3184896139 3184896139 1.66700000
16.24259949 -52.14897919 -3.50052404 24 19 16690 54.73200000 3184896141 3184896141 -3.66700000
35.54381180 -137.43772888 8.26736832 42 21 16690 142.20000000 3184896144 3184896144 3.33300000
18.94245338 -73.29780579 -3.52650070 23 23 16691 75.78800000 3184896146 3184896146 -2.66700000
17.16002274 -83.00852203 -4.44227600 28 24 16692 84.88000000 3184896148 3184896148 -3.00000000
19.34850693 -62.23565674 -2.65525460 28 27 16693 65.22800000 3184896151 3184896151 -2.33300000
22.61606598 -87.70237732 -2.10754752 28 31 16694 90.59600000 3184896155 3184896155 -1.33300000
36.90084076 -119.35482788 -2.18064332 28 1 16702 124.94800000 3184896176 3184896176 -1.00000000
36.90357590 -180.25932312 -5.35486937 28 2 16703 184.07600000 3184896178 3184896178 -1.66700000
2.65284228 -10.35464382 -2.99228644 9 3 16703 11.10000000 3184896178 3184896178 -15.63900000
3.14875507 -15.39409256 -3.14258337 18 4 16704 16.02400000 3184896180 3184896180 -11.31000000
34.99968338 -136.71092224 0.00000000 28 5 16704 141.12000000 3184896180 3184896180 0.00000000
5.27805233 -20.63138390 -3.31313396 3 7 16705 21.55200000 3184896183 3184896183 -8.84300000
5.61460257 -27.47391129 -3.56935024 7 8 16705 28.26800000 3184896185 3184896185 -7.25400000
41.47749710 -134.40725708 0.81752706 28 9 16705 140.66400000 3184896185 3184896185 0.33300000
7.78842545 -30.46632957 -3.38726544 4 11 16706 31.62800000 3184896187 3184896187 -6.14800000
6.41480017 -41.77460480 -3.94528985 20 12 16707 42.44800000 3184896190 3184896190 -5.33300000
13.02068615 -51.00778961 -3.68118858 10 15 16708 52.77200000 3184896192 3184896192 -4.00000000
9.25257111 -45.43724442 -3.78540087 9 16 16709 46.52400000 3184896194 3184896194 -4.66700000
42.97488022 -139.60533142 4.25105810 28 17 16709 146.13200000 3184896194 3184896194 1.66700000
38.74296951 -190.25779724 3.38911772 28 18 16709 194.19200000 3184896197 3184896197 1.00000000
16.11185646 -52.33990097 -3.50973392 24 19 16709 54.87600000 3184896197 3184896197 -3.66700000
35.28577042 -138.43159485 8.31969357 42 21 16710 143.10000000 3184896199 3184896199 3.33300000
18.94191933 -74.36634064 -3.57470703 24 23 16711 76.82400000 3184896201 3184896201 -2.66700000
16.98941612 -83.65510559 -4.47367764 28 24 16712 85.48000000 3184896204 3184896204 -3.00000000
19.35874367 -63.04401398 -2.68684340 28 27 16713 66.00400000 3184896206 3184896206 -2.33300000
22.57992935 -88.90868378 -2.13453269 28 31 16715 91.75600000 3184896210 3184896210 -1.33300000
36.65918732 -120.05666351 -2.19111466 28 1 16722 125.54800000 3184896231 3184896231 -1.00000000
2.61856771 -10.37131023 -2.99444318 11 3 16723 11.10800000 3184896233 3184896233 -15.63900000
3.10890698 -15.47420883 -3.15670395 8 4 16724 16.09600000 3184896236 3184896236 -11.31000000
34.71894455 -137.61183167 0.00000000 28 5 16724 141.92400000 3184896236 3184896236 0.00000000
5.21373272 -20.68034172 -3.31805325 3 7 16725 21.58400000 3184896238 3184896238 -8.84300000
5.54131317 -27.60616302 -3.58399725 7 8 16725 28.38400000 3184896240 3184896240 -7.25400000
38.06705856 -189.81726074 -1.12518644 28 10 16726 193.60000000 3184896243 3184896243 -0.33300000
7.71214867 -30.61288261 -3.40054560 4 11 16726 31.75200000 3184896243 3184896243 -6.14800000
6.28725338 -41.91884232 -3.95681477 6 12 16727 42.57200000 3184896245 3184896245 -5.33300000
34.64727020 -137.63153076 3.30252838 28 13 16727 141.96400000 3184896245 3184896245 1.33300000
12.89122772 -51.24641418 -3.69513988 10 15 16728 52.97200000 3184896247 3184896247 -4.00000000
9.12752914 -45.63736725 -3.79939532 9 16 16729 46.69600000 3184896250 3184896250 -4.66700000
42.87574387 -141.03219604 4.28992271 28 17 16729 147.46800000 3184896250 3184896250 1.66700000
15.99524021 -52.61351776 -3.52431631 24 19 16729 55.10400000 3184896252 3184896252 -3.66700000
18.91664505 -75.36598969 -3.61956310 25 23 16731 77.78800000 3184896257 3184896257 -2.66700000
16.77543640 -84.10563660 -4.49461174 28 24 16732 85.88000000 3184896259 3184896259 -3.00000000
19.32297516 -63.71933365 -2.71273327 28 27 16733 66.64000000 3184896261 3184896261 -2.33300000
22.50258636 -89.85199738 -2.15537643 28 31 16734 92.65200000 3184896266 3184896266 -1.33300000
