# .PCD v0.7 - Point Cloud Data file format
VERSION 0.7
FIELDS x y z intensity laser_id azimuth distance_m adjustedtime timestamp vertical_angle
SIZE 4 4 4 1 1 2 8 8 4 8
TYPE F F F U U U F U U F
COUNT 1 1 1 1 1 1 1 1 1 1
WIDTH 521
HEIGHT 1
VIEWPOINT 0 0 0 1 0 0 0
POINTS 521
DATA ascii
5.52160835 7.35676575 -2.57498384 6 3 3829 9.55200000 3185260468 3185260468 -15.63900000
7.59903860 9.15308666 -2.37929487 3 4 3830 12.13200000 3185260470 3185260470 -11.31000000
21.43019867 28.54234505 0.00000000 5 5 3830 35.69200000 3185260470 3185260470 0.00000000
20.99451447 22.90346527 -0.36171174 17 6 3831 31.07200000 3185260473 3185260473 -0.66700000
8.53339577 11.36128521 -2.21060085 2 7 3831 14.38000000 3185260473 3185260473 -8.84300000
10.48032475 12.61913013 -2.08797145 2 8 3831 16.53600000 3185260475 3185260475 -7.25400000
21.02905273 25.31163406 -0.19125846 15 10 3832 32.90800000 3185260477 3185260477 -0.33300000
10.87462711 14.47311878 -1.95002306 3 11 3832 18.20800000 3185260477 3185260477 -6.14800000
13.42331028 14.63358307 -1.85367656 2 12 3833 19.94400000 3185260480 3185260480 -5.33300000
40.27173996 53.57846832 1.55965400 21 13 3833 67.04400000 3185260480 3185260480 1.33300000
41.03136826 44.71516800 0.70652062 28 14 3834 60.69200000 3185260482 3185260482 0.66700000
14.19410324 18.87730789 -1.65155423 2 15 3834 23.67600000 3185260482 3185260482 -4.00000000
13.77118683 16.55805206 -1.75812352 2 16 3835 21.60800000 3185260484 3185260484 -4.66700000
40.31562424 59.43413925 2.09009671 28 17 3835 71.84800000 3185260484 3185260484 1.66700000
40.58029175 48.79249573 1.10773909 28 18 3835 63.47200000 3185260487 3185260487 1.00000000
14.01202488 20.65682030 -1.59970593 3 19 3835 25.01200000 3185260487 3185260487 -3.66700000
17.11001968 18.63309860 -1.47324276 3 20 3836 25.34000000 3185260489 3185260489 -3.33300000
40.30253601 53.56102753 3.90368652 52 21 3836 67.14400000 3185260489 3185260489 3.33300000
40.14799118 48.23845291 2.55690575 28 22 3837 62.81200000 3185260491 3185260491 2.33300000
16.90737724 22.46130753 -1.30957198 2 23 3837 28.14400000 3185260491 3185260491 -2.66700000
17.42073059 20.92385864 -1.42688751 4 24 3838 27.26400000 3185260494 3185260494 -3.00000000
46.20867538 55.48106003 5.89436769 28 26 3839 72.44400000 3185260496 3185260496 4.66700000
17.18108177 25.29068756 -1.24564278 4 27 3839 30.60000000 3185260496 3185260496 -2.33300000
20.92437363 22.75508499 -1.07951128 9 28 3840 30.93200000 3185260498 3185260498 -2.00000000
21.02418709 27.88990974 -0.81272107 13 31 3841 34.93600000 3185260500 3185260500 -1.33300000
3.50059485 4.18963575 -2.54585242 14 0 3848 6.02400000 3185260521 3185260521 -25.00000000
21.06863785 30.90863800 -0.65292943 22 1 3848 37.41200000 3185260521 3185260521 -1.00000000
20.93394279 25.04559708 -0.94998050 16 2 3849 32.65600000 3185260523 3185260523 -1.66700000
5.54028559 7.32822895 -2.57174897 6 3 3849 9.54000000 3185260523 3185260523 -15.63900000
7.62842655 9.12349606 -2.37851048 3 4 3850 12.12800000 3185260526 3185260526 -11.31000000
21.48626900 28.40993881 0.00000000 5 5 3850 35.62000000 3185260526 3185260526 0.00000000
20.99294472 22.74187088 -0.36031482 17 6 3851 30.95200000 3185260528 3185260528 -0.66700000
8.55869389 11.31251717 -2.20691133 1 7 3851 14.35600000 3185260528 3185260528 -8.84300000
10.51667309 12.57333946 -2.08645606 2 8 3851 16.52400000 3185260530 3185260530 -7.25400000
38.76407242 56.80470657 0.39969692 28 9 3851 68.77200000 3185260530 3185260530 0.33300000
21.02744102 25.13070488 -0.19044478 15 10 3852 32.76800000 3185260533 3185260533 -0.33300000
10.92268085 14.43190002 -1.94959462 3 11 3852 18.20400000 3185260533 3185260533 -6.14800000
13.47430992 14.58663750 -1.85367656 2 12 3853 19.94400000 3185260535 3185260535 -5.33300000
40.21230316 53.11237335 1.55016255 20 13 3853 66.63600000 3185260535 3185260535 1.33300000
41.02162170 44.39247894 0.70368022 28 14 3854 60.44800000 3185260537 3185260537 0.66700000
14.24786472 18.81174278 -1.65015912 2 15 3854 23.65600000 3185260537 3185260537 -4.00000000
13.83914089 16.52210617 -1.75942540 2 16 3855 21.62400000 3185260540 3185260540 -4.66700000
40.21150970 58.83750916 2.07403874 28 17 3855 71.29600000 3185260540 3185260540 1.66700000
40.71697617 48.61069107 1.10683167 28 18 3855 63.42000000 3185260542 3185260542 1.00000000
14.07728767 20.59789658 -1.59893847 3 19 3855 25.00000000 3185260542 3185260542 -3.66700000
17.09904671 18.49116898 -1.46673119 3 20 3856 25.22800000 3185260544 3185260544 -3.33300000
40.30352020 53.17497253 3.88577962 25 21 3856 66.83600000 3185260544 3185260544 3.33300000
40.10816956 47.84991455 2.54371643 28 22 3857 62.48800000 3185260547 3185260547 2.33300000
16.95671082 22.36394501 -1.30733848 2 23 3857 28.09600000 3185260547 3185260547 -2.66700000
17.49366188 20.86292076 -1.42688751 4 24 3858 27.26400000 3185260549 3185260549 -3.00000000
105.21488953 125.43467712 13.36525345 28 26 3859 164.26400000 3185260551 3185260551 4.66700000
17.18573189 25.10853004 -1.23961806 4 27 3859 30.45200000 3185260551 3185260551 -2.33300000
20.89503098 22.56458092 -1.07392728 13 28 3860 30.77200000 3185260553 3185260553 -2.00000000
21.02710152 27.70218468 -0.80927813 9 31 3860 34.78800000 3185260556 3185260556 -1.33300000
3.56421494 4.23564100 -2.58135223 17 0 3868 6.10800000 3185260576 3185260576 -25.00000000
21.03602409 30.63050652 -0.64860123 14 1 3868 37.16400000 3185260576 3185260576 -1.00000000
20.92854500 24.86225319 -0.94579142 16 2 3869 32.51200000 3185260579 3185260579 -1.66700000
5.56349850 7.30578089 -2.57067060 7 3 3869 9.53600000 3185260579 3185260579 -15.63900000
7.67791224 9.11781406 -2.38400173 3 4 3870 12.15600000 3185260581 3185260581 -11.31000000
34.95341110 45.88291168 0.00000000 18 5 3870 57.68000000 3185260581 3185260581 0.00000000
20.97839546 22.57544327 -0.35877818 16 6 3870 30.82000000 3185260583 3185260583 -0.66700000
8.59136963 11.27778530 -2.20568156 1 7 3870 14.34800000 3185260583 3185260583 -8.84300000
10.55282879 12.52744865 -2.08494091 4 8 3871 16.51200000 3185260586 3185260586 -7.25400000
38.97798538 56.69212341 0.39985967 28 9 3871 68.80000000 3185260586 3185260586 0.33300000
21.02224350 24.94703674 -0.18960787 15 10 3872 32.62400000 3185260588 3185260588 -0.33300000
10.96816921 14.38735867 -1.94873786 3 11 3872 18.19600000 3185260588 3185260588 -6.14800000
13.52785683 14.54243088 -1.85404825 2 12 3873 19.94800000 3185260590 3185260590 -5.33300000
40.15496063 52.65370560 1.54085732 20 13 3873 66.23600000 3185260590 3185260590 1.33300000
41.08096313 44.14653397 0.70205045 28 14 3874 60.30800000 3185260593 3185260593 0.66700000
14.32796478 18.78092766 -1.65183330 2 15 3874 23.68000000 3185260593 3185260593 -4.00000000
13.87102318 16.44322395 -1.75617075 2 16 3875 21.58400000 3185260595 3185260595 -4.66700000
40.17628860 58.34771347 2.06170440 28 17 3875 70.87200000 3185260595 3185260595 1.66700000
40.16177750 47.60925674 1.08721507 28 18 3875 62.29600000 3185260597 3185260597 1.00000000
14.13778305 20.53219414 -1.59765935 3 19 3875 24.98000000 3185260597 3185260597 -3.66700000
17.17437363 18.44305801 -1.46766150 3 20 3876 25.24400000 3185260600 3185260600 -3.33300000
40.37257767 52.88161469 3.87461686 50 21 3876 66.64400000 3185260600 3185260600 3.33300000
40.23886108 47.66686249 2.54143691 28 22 3877 62.43200000 3185260602 3185260602 2.33300000
17.02982140 22.29826927 -1.30696619 2 23 3877 28.08800000 3185260602 3185260602 -2.66700000
17.56122589 20.79562569 -1.42646885 4 24 3878 27.25600000 3185260604 3185260604 -3.00000000
105.84505463 125.29505920 13.38966274 28 26 3879 164.56400000 3185260606 3185260606 4.66700000
17.27100372 25.04509735 -1.23945522 4 27 3879 30.44800000 3185260606 3185260606 -2.33300000
20.86461639 22.37456131 -1.06834340 9 28 3880 30.61200000 3185260609 3185260609 -2.00000000
21.02403069 27.48834610 -0.80527687 13 31 3881 34.61600000 3185260611 3185260611 -1.33300000
3.52741480 4.16232920 -2.54416203 17 0 3888 6.02000000 3185260632 3185260632 -25.00000000
21.03586197 30.40231323 -0.64532018 14 1 3888 36.97600000 3185260632 3185260632 -1.00000000
20.92470932 24.68230247 -0.94171876 16 2 3889 32.37200000 3185260634 3185260634 -1.66700000
5.58896685 7.28631592 -2.57067060 7 3 3889 9.53600000 3185260634 3185260634 -15.63900000
7.74774647 9.13582897 -2.39576888 3 4 3890 12.21600000 3185260636 3185260636 -11.31000000
35.28868103 45.98910522 0.00000000 18 5 3890 57.96800000 3185260636 3185260636 0.00000000
20.97781563 22.41738319 -0.35742781 16 6 3890 30.70400000 3185260639 3185260639 -0.66700000
8.62587261 11.24145508 -2.20445156 1 7 3890 14.34000000 3185260639 3185260639 -8.84300000
10.58879280 12.48145866 -2.08342576 2 8 3891 16.50000000 3185260641 3185260641 -7.25400000
39.02531433 56.33870316 0.39832532 28 9 3891 68.53600000 3185260641 3185260641 0.33300000
21.03413963 24.78506279 -0.18893369 15 10 3892 32.50800000 3185260643 3185260643 -0.33300000
11.01347923 14.34267712 -1.94788110 3 11 3892 18.18800000 3185260643 3185260643 -6.14800000
13.57581425 14.49221420 -1.85367656 2 12 3893 19.94400000 3185260646 3185260646 -5.33300000
40.09734344 52.19926071 1.53164518 20 13 3893 65.84000000 3185260646 3185260646 1.33300000
41.05430603 43.81024170 0.69897717 28 14 3894 60.04400000 3185260648 3185260648 0.66700000
14.37641621 18.70865250 -1.64988017 2 15 3894 23.65200000 3185260648 3185260648 -4.00000000
13.93349838 16.40078163 -1.75682175 2 16 3895 21.59200000 3185260650 3185260650 -4.66700000
40.28855133 58.07571030 2.05704975 28 17 3895 70.71200000 3185260650 3185260650 1.66700000
40.15163803 47.26151657 1.08246803 28 18 3895 62.02400000 3185260653 3185260653 1.00000000
14.19116497 20.45648003 -1.59561265 3 19 3895 24.94800000 3185260653 3185260653 -3.66700000
17.23045349 18.37425804 -1.46696377 3 20 3896 25.23200000 3185260655 3185260655 -3.33300000
40.35244751 52.47446060 3.85508227 49 21 3896 66.30800000 3185260655 3185260655 3.33300000
40.30145264 47.40431213 2.53492379 57 22 3897 62.27200000 3185260657 3185260657 2.33300000
17.09780693 22.22601891 -1.30622172 2 23 3897 28.07200000 3185260657 3185260657 -2.66700000
17.60783195 20.70376968 -1.42437541 4 24 3898 27.21600000 3185260659 3185260659 -3.00000000
106.66927338 125.38030243 13.43848228 28 26 3899 165.16400000 3185260662 3185260662 4.66700000
17.34692001 24.96824646 -1.23864114 4 27 3899 30.42800000 3185260662 3185260662 -2.33300000
20.86870384 22.22291374 -1.06457424 9 28 3900 30.50400000 3185260664 3185260664 -2.00000000
47.86505508 62.15403748 21.02024841 28 29 3900 81.21600000 3185260664 3185260664 15.00000000
21.02223587 27.28807640 -0.80155474 13 31 3901 34.45600000 3185260666 3185260666 -1.33300000
3.52544856 4.13068867 -2.53232861 10 0 3908 5.99200000 3185260687 3185260687 -25.00000000
21.02979088 30.16793442 -0.64189953 14 1 3908 36.78000000 3185260687 3185260687 -1.00000000
20.93285561 24.51788712 -0.93822789 16 2 3909 32.25200000 3185260689 3185260689 -1.66700000
5.61436653 7.26676226 -2.57067060 7 3 3909 9.53600000 3185260689 3185260689 -15.63900000
7.77958918 9.10872841 -2.39576888 1 4 3910 12.21600000 3185260692 3185260692 -11.31000000
35.25820160 45.61878586 0.00000000 18 5 3910 57.65600000 3185260692 3185260692 0.00000000
20.97364807 22.25669289 -0.35603088 16 6 3910 30.58400000 3185260694 3185260694 -0.66700000
8.66264248 11.20814991 -2.20383668 1 7 3910 14.33600000 3185260694 3185260694 -8.84300000
10.61940861 12.42933655 -2.08090043 2 8 3911 16.48000000 3185260696 3185260696 -7.25400000
39.12101746 56.05780792 0.39730242 28 9 3911 68.36000000 3185260696 3185260696 0.33300000
21.02696991 24.60202408 -0.18809678 10 10 3912 32.36400000 3185260699 3185260699 -0.33300000
11.05861092 14.29785347 -1.94702435 3 11 3912 18.18000000 3185260699 3185260699 -6.14800000
13.61812019 14.43604660 -1.85256112 2 12 3913 19.93200000 3185260701 3185260701 -5.33300000
40.15940094 51.90400314 1.52708554 20 13 3913 65.64400000 3185260701 3185260701 1.33300000
40.97639084 43.42231369 0.69506580 28 14 3914 59.70800000 3185260703 3185260703 0.66700000
14.43430710 18.64888763 -1.64904308 2 15 3914 23.64000000 3185260703 3185260703 -4.00000000
13.97252083 16.33084106 -1.75454354 2 16 3915 21.56400000 3185260706 3185260706 -4.66700000
40.49560928 57.94127655 2.05728269 28 17 3915 70.72000000 3185260706 3185260706 1.66700000
40.25656509 47.05117798 1.08086240 28 18 3915 61.93200000 3185260708 3185260708 1.00000000
14.25791168 20.40027428 -1.59510100 3 19 3915 24.94000000 3185260708 3185260708 -3.66700000
17.30545235 18.32561302 -1.46789396 3 20 3916 25.24800000 3185260710 3185260710 -3.33300000
40.50602722 52.29540253 3.85229158 24 21 3916 66.26000000 3185260710 3185260710 3.33300000
40.30292130 47.07208252 2.52466559 28 22 3917 62.02000000 3185260712 3185260712 2.33300000
17.15815544 22.14409256 -1.30491889 2 23 3917 28.04400000 3185260712 3185260712 -2.66700000
17.67739487 20.63914680 -1.42416608 4 24 3918 27.21200000 3185260715 3185260715 -3.00000000
17.43397141 24.90754128 -1.23864114 4 27 3919 30.42800000 3185260717 3185260717 -2.33300000
20.86100197 22.05989265 -1.06024671 9 28 3920 30.38000000 3185260719 3185260719 -2.00000000
21.01930046 27.08815384 -0.79783267 13 31 3921 34.29600000 3185260722 3185260722 -1.33300000
3.51077604 4.08597946 -2.51204300 13 0 3927 5.94400000 3185260742 3185260742 -25.00000000
21.02400970 29.94745827 -0.63868827 14 1 3927 36.59600000 3185260742 3185260742 -1.00000000
20.92543221 24.34524345 -0.93427157 16 2 3928 32.11600000 3185260745 3185260745 -1.66700000
5.63370275 7.24202394 -2.56851411 6 3 3928 9.52800000 3185260745 3185260745 -15.63900000
7.80975199 9.08288097 -2.39576888 1 4 3929 12.21600000 3185260747 3185260747 -11.31000000
35.28400040 45.34061813 0.00000000 18 5 3929 57.45200000 3185260747 3185260747 0.00000000
20.97301483 22.10867310 -0.35477364 16 6 3929 30.47600000 3185260749 3185260749 -0.66700000
8.69490814 11.17312336 -2.20260692 2 7 3929 14.32800000 3185260749 3185260749 -8.84300000
10.65797997 12.39104462 -2.08039522 2 8 3930 16.47600000 3185260752 3185260752 -7.25400000
39.16409683 55.72487259 0.39586106 28 9 3930 68.11200000 3185260752 3185260752 0.33300000
21.03278160 24.44423294 -0.18742259 10 10 3931 32.24800000 3185260754 3185260754 -0.33300000
11.10107708 14.25482750 -1.94616759 3 11 3931 18.17200000 3185260754 3185260754 -6.14800000
13.67140198 14.39658356 -1.85330474 2 12 3932 19.94000000 3185260756 3185260756 -5.33300000
39.95283127 51.28472900 1.51275551 19 13 3932 65.02800000 3185260756 3185260756 1.33300000
40.94110107 43.09770203 0.69203913 27 14 3933 59.44800000 3185260758 3185260758 0.66700000
14.49852180 18.60406685 -1.64932203 2 15 3933 23.64400000 3185260758 3185260758 -4.00000000
14.03440475 16.29347801 -1.75551987 2 16 3934 21.57600000 3185260761 3185260761 -4.66700000
40.39986038 57.39796829 2.04273725 28 17 3934 70.22000000 3185260761 3185260761 1.66700000
40.33667755 46.82954407 1.07883799 28 18 3934 61.81600000 3185260763 3185260763 1.00000000
14.31629276 20.33982468 -1.59407771 3 19 3934 24.92400000 3185260763 3185260763 -3.66700000
17.35512161 18.25654984 -1.46696377 3 20 3935 25.23200000 3185260765 3185260765 -3.33300000
40.46311951 51.88369370 3.83182669 48 21 3935 65.90800000 3185260765 3185260765 3.33300000
40.31266785 46.76864624 2.51554704 28 22 3936 61.79600000 3185260768 3185260768 2.33300000
17.22166252 22.07447052 -1.30417430 2 23 3936 28.02800000 3185260768 3185260768 -2.66700000
17.68313599 20.50780869 -1.41914177 4 24 3937 27.11600000 3185260770 3185260770 -3.00000000
17.51416779 24.84632492 -1.23847830 4 27 3938 30.42400000 3185260772 3185260772 -2.33300000
20.86513329 21.91820717 -1.05675673 9 28 3939 30.28000000 3185260775 3185260775 -2.00000000
21.01545715 26.89855766 -0.79429668 13 31 3940 34.14400000 3185260777 3185260777 -1.33300000
3.52335572 4.07034349 -2.51035237 12 0 3948 5.94000000 3185260798 3185260798 -25.00000000
21.02506447 29.71675301 -0.63540721 13 1 3948 36.40800000 3185260798 3185260798 -1.00000000
20.92553139 24.16561699 -0.93031526 16 2 3949 31.98000000 3185260800 3185260800 -1.66700000
5.65545607 7.21526337 -2.56635737 6 3 3949 9.52000000 3185260800 3185260800 -15.63900000
7.84042215 9.05123043 -2.39498425 1 4 3950 12.21200000 3185260802 3185260802 -11.31000000
35.39317703 45.13859177 0.00000000 18 5 3950 57.36000000 3185260802 3185260802 0.00000000
20.97653198 21.95068741 -0.35346985 16 6 3950 30.36400000 3185260805 3185260805 -0.66700000
8.73336220 11.13806915 -2.20199203 1 7 3950 14.32400000 3185260805 3185260805 -8.84300000
10.69293022 12.33990288 -2.07837486 2 8 3951 16.46000000 3185260807 3185260807 -7.25400000
39.19005585 55.32962036 0.39407098 28 9 3951 67.80400000 3185260807 3185260807 0.33300000
21.08031273 24.31862068 -0.18705063 10 10 3952 32.18400000 3185260809 3185260809 -0.33300000
11.14588356 14.20465851 -1.94488239 3 11 3952 18.16000000 3185260809 3185260809 -6.14800000
13.71306419 14.33486748 -1.85181761 2 12 3953 19.92400000 3185260811 3185260811 -5.33300000
40.38744354 51.45251083 1.52206075 20 13 3953 65.42800000 3185260811 3185260811 1.33300000
40.94669342 42.78842163 0.68947810 27 14 3954 59.22800000 3185260814 3185260814 0.66700000
14.56907654 18.55394173 -1.64960110 2 15 3954 23.64800000 3185260814 3185260814 -4.00000000
14.09141541 16.23891830 -1.75519443 2 16 3955 21.57200000 3185260816 3185260816 -4.66700000
40.26990891 56.77012253 2.02563214 28 17 3955 69.63200000 3185260816 3185260816 1.66700000
40.39009094 46.54545975 1.07569647 28 18 3955 61.63600000 3185260818 3185260818 1.00000000
14.38381672 20.27744865 -1.59331024 3 19 3955 24.91200000 3185260818 3185260818 -3.66700000
17.43572807 18.20723724 -1.46812654 3 20 3956 25.25200000 3185260821 3185260821 -3.33300000
40.50250626 51.54351044 3.81764078 48 21 3956 65.66400000 3185260821 3185260821 3.33300000
40.21128464 46.30673599 2.49861288 28 22 3957 61.38000000 3185260823 3185260823 2.33300000
17.25059891 21.94523430 -1.30026567 2 23 3957 27.94400000 3185260823 3185260823 -2.66700000
17.74246407 20.42476463 -1.41788578 4 24 3958 27.09200000 3185260825 3185260825 -3.00000000
17.59585762 24.76893234 -1.23782694 4 27 3959 30.40800000 3185260828 3185260828 -2.33300000
20.85955429 21.75214195 -1.05242920 13 28 3960 30.15600000 3185260830 3185260830 -2.00000000
21.01030350 26.69933319 -0.79057455 13 31 3960 33.98400000 3185260832 3185260832 -1.33300000
3.53683424 4.05863714 -2.51035237 15 0 3967 5.94000000 3185260853 3185260853 -25.00000000
21.02602196 29.51006699 -0.63247520 13 1 3967 36.24000000 3185260853 3185260853 -1.00000000
20.92147827 23.99964714 -0.92659169 10 2 3968 31.85200000 3185260855 3185260855 -1.66700000
5.68173790 7.19949341 -2.56743574 7 3 3968 9.52400000 3185260855 3185260855 -15.63900000
7.86008215 9.01335621 -2.39184642 3 4 3969 12.19600000 3185260858 3185260858 -11.31000000
35.39891052 44.83888245 0.00000000 17 5 3969 57.12800000 3185260858 3185260858 0.00000000
20.96982384 21.79087067 -0.35207292 16 6 3970 30.24400000 3185260860 3185260860 -0.66700000
8.75749016 11.08890629 -2.19830251 1 7 3970 14.30000000 3185260860 3185260860 -8.84300000
10.73900890 12.31035614 -2.07938504 2 8 3970 16.46800000 3185260862 3185260862 -7.25400000
39.26647186 55.04956055 0.39300162 28 9 3970 67.62000000 3185260862 3185260862 0.33300000
21.13191032 24.21543121 -0.18679491 10 10 3971 32.14000000 3185260864 3185260864 -0.33300000
11.19292641 14.16761875 -1.94488239 3 11 3971 18.16000000 3185260864 3185260864 -6.14800000
13.76052475 14.28931427 -1.85181761 2 12 3972 19.92400000 3185260867 3185260867 -5.33300000
40.35948181 51.06730652 1.51461649 20 13 3972 65.10800000 3185260867 3185260867 1.33300000
40.84416580 42.39891434 0.68538040 27 14 3973 58.87600000 3185260869 3185260869 0.66700000
14.61320019 18.48361588 -1.64764786 2 15 3973 23.62000000 3185260869 3185260869 -4.00000000
14.13731956 16.18309402 -1.75421798 2 16 3974 21.56000000 3185260871 3185260871 -4.66700000
40.22785950 56.31417465 2.01411223 28 17 3974 69.23600000 3185260871 3185260871 1.66700000
40.57337570 46.42827988 1.07625496 28 18 3975 61.66800000 3185260874 3185260874 1.00000000
14.44290638 20.21087646 -1.59203112 3 19 3975 24.89200000 3185260874 3185260874 -3.66700000
17.45998192 18.11194420 -1.46510339 3 20 3975 25.20000000 3185260876 3185260876 -3.33300000
40.41553116 51.08322525 3.79345489 23 21 3975 65.24800000 3185260876 3185260876 3.33300000
40.28044510 46.07685089 2.49340224 28 22 3976 61.25200000 3185260878 3185260878 2.33300000
17.30591774 21.86597633 -1.29896283 2 23 3976 27.91600000 3185260878 3185260878 -2.66700000
17.79169083 20.34476852 -1.41642034 4 24 3977 27.06400000 3185260881 3185260881 -3.00000000
17.59418297 24.59342766 -1.23196518 4 27 3978 30.26400000 3185260883 3185260883 -2.33300000
20.85660934 21.60519600 -1.04866004 13 28 3979 30.04800000 3185260885 3185260885 -2.00000000
20.99939156 26.50413895 -0.78685248 13 31 3979 33.82400000 3185260888 3185260888 -1.33300000
3.54380631 4.03809214 -2.50528097 12 0 3987 5.92800000 3185260908 3185260908 -25.00000000
21.02395821 29.29028320 -0.62933379 13 1 3987 36.06000000 3185260908 3185260908 -1.00000000
20.91807747 23.82731628 -0.92275172 16 2 3988 31.72000000 3185260911 3185260911 -1.66700000
5.70683432 7.17961645 -2.56743574 7 3 3988 9.52400000 3185260911 3185260911 -15.63900000
7.89408493 8.98881149 -2.39263105 3 4 3989 12.20000000 3185260913 3185260913 -11.31000000
35.85146332 45.08761978 0.00000000 18 5 3989 57.60400000 3185260913 3185260913 0.00000000
20.96782303 21.63711548 -0.35076913 16 6 3990 30.13200000 3185260915 3185260915 -0.66700000
8.80352592 11.06754875 -2.20014715 2 7 3990 14.31200000 3185260915 3185260915 -8.84300000
10.76620102 12.25490952 -2.07635474 2 8 3990 16.44400000 3185260917 3185260917 -7.25400000
39.28799820 54.67503738 0.39130452 28 9 3990 67.32800000 3185260917 3185260917 0.33300000
21.22422981 24.15053177 -0.18686464 5 10 3991 32.15200000 3185260920 3185260920 -0.33300000
11.18535805 14.05688572 -1.93502951 3 11 3991 18.06800000 3185260920 3185260920 -6.14800000
13.80754757 14.23833466 -1.85144579 2 12 3992 19.92000000 3185260922 3185260922 -5.33300000
40.51009750 50.89170074 1.51359296 20 13 3992 65.06400000 3185260922 3185260922 1.33300000
40.84709930 42.10679626 0.68295908 27 14 3993 58.66800000 3185260924 3185260924 0.66700000
14.68508816 18.44185829 -1.64848495 2 15 3993 23.63200000 3185260924 3185260924 -4.00000000
14.18319035 16.12167358 -1.75291622 2 16 3994 21.54400000 3185260927 3185260927 -4.66700000
40.43819809 56.19288254 2.01481032 28 17 3994 69.26000000 3185260927 3185260927 1.66700000
40.81957245 46.39857483 1.07869828 28 18 3994 61.80800000 3185260929 3185260929 1.00000000
14.46787834 20.10455132 -1.58742619 3 19 3994 24.82000000 3185260929 3185260929 -3.66700000
17.53422356 18.06234741 -1.46603358 3 20 3995 25.21600000 3185260931 3185260931 -3.33300000
40.38455963 50.67950821 3.77392006 46 21 3995 64.91200000 3185260931 3185260931 3.33300000
40.15317535 45.60898590 2.47565389 28 22 3996 60.81600000 3185260934 3185260934 2.33300000
17.37964821 21.80231094 -1.29877675 2 23 3996 27.91200000 3185260934 3185260934 -2.66700000
17.84939766 20.26755142 -1.41537356 4 24 3997 27.04400000 3185260936 3185260936 -3.00000000
17.66823959 24.51564980 -1.23115098 4 27 3998 30.24400000 3185260938 3185260938 -2.33300000
20.85944939 21.45773506 -1.04503047 8 28 3999 29.94400000 3185260941 3185260941 -2.00000000
21.00198555 26.31815147 -0.78350258 13 31 3999 33.68000000 3185260943 3185260943 -1.33300000
3.60589480 4.08002520 -2.53909063 13 0 4007 6.00800000 3185260964 3185260964 -25.00000000
21.01827431 29.06763649 -0.62612253 13 1 4007 35.87600000 3185260964 3185260964 -1.00000000
20.91372871 23.65530205 -0.91891181 15 2 4008 31.58800000 3185260966 3185260966 -1.66700000
5.72945356 7.15664530 -2.56635737 6 3 4008 9.52000000 3185260966 3185260966 -15.63900000
7.91242123 8.94651127 -2.38870859 4 4 4009 12.18000000 3185260969 3185260969 -11.31000000
36.21116638 45.21509171 0.00000000 18 5 4009 57.92800000 3185260969 3185260969 0.00000000
20.95846367 21.48443604 -0.34941876 16 6 4009 30.01600000 3185260971 3185260971 -0.66700000
8.83770752 11.03520870 -2.19953227 1 7 4009 14.30800000 3185260971 3185260971 -8.84300000
10.79839611 12.20536613 -2.07433438 2 8 4010 16.42800000 3185260973 3185260973 -7.25400000
39.31208420 54.30751419 0.38965395 28 9 4010 67.04400000 3185260973 3185260973 0.33300000
21.26333618 24.02537918 -0.18646944 5 10 4011 32.08400000 3185260976 3185260976 -0.33300000
11.28907490 14.08603001 -1.94445395 4 11 4011 18.15600000 3185260976 3185260976 -6.14800000
13.86272907 14.19575024 -1.85218942 2 12 4012 19.92800000 3185260978 3185260978 -5.33300000
40.83257675 50.93094254 1.51899004 20 13 4012 65.29600000 3185260978 3185260978 1.33300000
40.81774521 41.78370667 0.68002552 26 14 4013 58.41600000 3185260980 3185260980 0.66700000
14.66199493 18.28153610 -1.63871908 2 15 4013 23.49200000 3185260980 3185260980 -4.00000000
14.23673439 16.06908226 -1.75259078 2 16 4014 21.54000000 3185260982 3185260982 -4.66700000
40.28913116 55.57552338 1.99770510 28 17 4014 68.67200000 3185260982 3185260982 1.66700000
40.99985123 46.27676010 1.07918704 28 18 4014 61.83600000 3185260985 3185260985 1.00000000
14.51688194 20.02483940 -1.58512366 3 19 4014 24.78400000 3185260985 3185260985 -3.66700000
17.59716606 18.00103188 -1.46603358 3 20 4015 25.21600000 3185260987 3185260987 -3.33300000
40.51622772 50.48217392 3.76973414 46 21 4015 64.84000000 3185260987 3185260987 3.33300000
40.04964447 45.17248154 2.45953393 28 22 4016 60.42000000 3185260989 3185260989 2.33300000
17.44314003 21.72593307 -1.29784608 2 23 4016 27.89200000 3185260989 3185260989 -2.66700000
17.92798805 20.21408653 -1.41600168 4 24 4017 27.05600000 3185260992 3185260992 -3.00000000
17.77014351 24.47646713 -1.23229074 4 27 4018 30.27200000 3185260994 3185260994 -2.33300000
20.86151695 21.31051826 -1.04140103 8 28 4019 29.84000000 3185260996 3185260996 -2.00000000
21.00854874 26.13870430 -0.78033876 13 31 4019 33.54400000 3185260999 3185260999 -1.33300000
3.67554927 4.12969732 -2.57797146 15 0 4027 6.10000000 3185261019 3185261019 -25.00000000
21.01129341 28.84538841 -0.62291127 13 1 4027 35.69200000 3185261019 3185261019 -1.00000000
20.91641045 23.49256897 -0.91542095 15 2 4028 31.46800000 3185261022 3185261022 -1.66700000
5.75198221 7.13360357 -2.56527925 6 3 4028 9.51600000 3185261022 3185261022 -15.63900000
7.87316608 8.83975410 -2.36752796 3 4 4029 12.07200000 3185261024 3185261024 -11.31000000
36.36877441 45.08841705 0.00000000 18 5 4029 57.92800000 3185261024 3185261024 0.00000000
20.95765114 21.33410645 -0.34816152 15 6 4029 29.90800000 3185261026 3185261026 -0.66700000
8.86376667 10.98891068 -2.19645786 1 7 4029 14.28800000 3185261026 3185261026 -8.84300000
10.84093475 12.16759872 -2.07433438 2 8 4030 16.42800000 3185261029 3185261029 -7.25400000
39.40243149 54.03421783 0.38867754 28 9 4030 66.87600000 3185261029 3185261029 0.33300000
21.32311821 23.92413521 -0.18626021 5 10 4031 32.04800000 3185261031 3185261031 -0.33300000
11.25324535 13.94132042 -1.92988884 4 11 4031 18.02000000 3185261031 3185261031 -6.14800000
13.90661240 14.14159393 -1.85144579 2 12 4032 19.92000000 3185261033 3185261033 -5.33300000
40.83927536 50.57653427 1.51266241 19 13 4032 65.02400000 3185261033 3185261033 1.33300000
40.74456406 41.41856766 0.67639351 26 14 4033 58.10400000 3185261035 3185261035 0.66700000
14.71318340 18.21472549 -1.63732398 4 15 4033 23.47200000 3185261035 3185261035 -4.00000000
14.29539394 16.02226448 -1.75291622 2 16 4034 21.54400000 3185261038 3185261038 -4.66700000
40.10559082 54.91791916 1.97908723 28 17 4034 68.03200000 3185261038 3185261038 1.66700000
40.62861633 45.53651428 1.06522512 28 18 4034 61.03600000 3185261040 3185261040 1.00000000
14.57963085 19.96437263 -1.58435619 3 19 4034 24.77200000 3185261040 3185261040 -3.66700000
17.48900986 17.76590729 -1.45184767 3 20 4035 24.97200000 3185261042 3185261042 -3.33300000
40.36836624 49.93982697 3.73973441 67 21 4035 64.32400000 3185261042 3185261042 3.33300000
40.07132721 44.88035965 2.45122957 57 22 4036 60.21600000 3185261045 3185261045 2.33300000
17.50882149 21.65248489 -1.29710162 2 23 4036 27.87600000 3185261045 3185261045 -2.66700000
17.99045563 20.14244652 -1.41537356 4 24 4037 27.04400000 3185261047 3185261047 -3.00000000
17.81772423 24.36267281 -1.22968554 4 27 4038 30.20800000 3185261049 3185261049 -2.33300000
20.86842346 21.16924477 -1.03805065 8 28 4039 29.74400000 3185261052 3185261052 -2.00000000
50.06609726 61.84855270 21.32151222 28 29 4039 82.38000000 3185261052 3185261052 15.00000000
20.99398613 25.93466949 -0.77643055 13 31 4039 33.37600000 3185261054 3185261054 -1.33300000
3.60525489 4.02235746 -2.51880479 11 0 4047 5.96000000 3185261075 3185261075 -25.00000000
21.00538445 28.62676811 -0.61976987 19 1 4047 35.51200000 3185261075 3185261075 -1.00000000
20.91287422 23.32415199 -0.91169733 15 2 4048 31.34000000 3185261077 3185261077 -1.66700000
5.76713514 7.10152149 -2.56096601 7 3 4048 9.50000000 3185261077 3185261077 -15.63900000
7.91706944 8.82681656 -2.37145019 3 4 4049 12.09200000 3185261079 3185261079 -11.31000000
36.39983368 44.80596161 0.00000000 18 5 4049 57.72800000 3185261079 3185261079 0.00000000
20.96448326 21.19257736 -0.34704396 15 6 4049 29.81200000 3185261082 3185261082 -0.66700000
8.90705585 10.96403885 -2.19768763 2 7 4049 14.29600000 3185261082 3185261082 -8.84300000
10.87804127 12.12377548 -2.07332420 2 8 4050 16.42000000 3185261084 3185261084 -7.25400000
39.53160477 53.81575775 0.38809636 56 9 4050 66.77600000 3185261084 3185261084 0.33300000
21.32100105 23.75430298 -0.18551628 4 10 4051 31.92000000 3185261086 3185261086 -0.33300000
11.29180622 13.88961029 -1.92817521 4 11 4051 18.00400000 3185261086 3185261086 -6.14800000
13.89984322 14.03636646 -1.84401035 2 12 4052 19.84000000 3185261088 3185261088 -5.33300000
40.50590515 49.80697250 1.49386585 19 13 4052 64.21600000 3185261088 3185261088 1.33300000
40.70592880 41.09139252 0.67336684 26 14 4053 57.84400000 3185261091 3185261091 0.66700000
14.76912022 18.15396881 -1.63648689 2 15 4053 23.46000000 3185261091 3185261091 -4.00000000
14.34590626 15.96633530 -1.75226533 2 16 4054 21.53600000 3185261093 3185261093 -4.66700000
40.09802628 54.50704956 1.96931279 28 17 4054 67.69600000 3185261093 3185261093 1.66700000
41.02516556 45.64310074 1.07122874 28 18 4055 61.38000000 3185261095 3185261095 1.00000000
14.63614368 19.88829613 -1.58256531 3 19 4055 24.74400000 3185261095 3185261095 -3.66700000
17.66899300 17.82386017 -1.46161497 3 20 4055 25.14000000 3185261098 3185261098 -3.33300000
40.38613129 49.60661316 3.72531581 44 21 4055 64.07600000 3185261098 3185261098 3.33300000
40.22507477 44.73723984 2.45106673 28 22 4056 60.21200000 3185261100 3185261100 2.33300000
17.55654144 21.55715561 -1.29505420 2 23 4056 27.83200000 3185261100 3185261100 -2.66700000
18.05531502 20.07358551 -1.41495490 4 24 4057 27.03600000 3185261102 3185261102 -3.00000000
17.90739822 24.30676460 -1.23001122 4 27 4058 30.21600000 3185261105 3185261105 -2.33300000
20.87459946 21.02818108 -1.03470027 8 28 4059 29.64800000 3185261107 3185261107 -2.00000000
20.99341965 25.74965096 -0.77308065 13 31 4059 33.23200000 3185261109 3185261109 -1.33300000
3.68485785 4.08240795 -2.56444764 14 0 4067 6.06800000 3185261130 3185261130 -25.00000000
21.00771523 28.42140770 -0.61690766 19 1 4067 35.34800000 3185261130 3185261130 -1.00000000
20.91109657 23.15901566 -0.90809011 15 2 4068 31.21600000 3185261132 3185261132 -1.66700000
5.79432774 7.08432865 -2.56204414 6 3 4068 9.50400000 3185261132 3185261132 -15.63900000
8.01356030 8.87189579 -2.39106202 1 4 4069 12.19200000 3185261134 3185261134 -11.31000000
36.80931091 44.98820877 0.00000000 18 5 4069 58.12800000 3185261134 3185261134 0.00000000
20.96296501 21.03626823 -0.34574017 15 6 4070 29.70000000 3185261137 3185261137 -0.66700000
8.93967056 10.92214298 -2.19584298 2 7 4070 14.28400000 3185261137 3185261137 -8.84300000
10.91763496 12.08278656 -2.07281923 2 8 4070 16.41600000 3185261139 3185261139 -7.25400000
39.46463394 53.33339310 0.38560885 28 9 4070 66.34800000 3185261139 3185261139 0.33300000
34.73421860 38.42763901 -0.30105713 12 10 4071 51.80000000 3185261141 3185261141 -0.33300000
11.33770180 13.84703255 -1.92774689 4 11 4071 18.00000000 3185261141 3185261141 -6.14800000
13.95719147 13.99622154 -1.84512568 2 12 4072 19.85200000 3185261144 3185261144 -5.33300000
40.55282211 49.51059723 1.48921323 19 13 4072 64.01600000 3185261144 3185261144 1.33300000
40.60053635 40.69986343 0.66926914 25 14 4073 57.49200000 3185261146 3185261146 0.66700000
14.84251499 18.11465073 -1.63760293 2 15 4073 23.47600000 3185261146 3185261146 -4.00000000
14.33467960 15.84225655 -1.74412882 2 16 4074 21.43600000 3185261148 3185261148 -4.66700000
40.29994965 54.38281250 1.96989465 28 17 4074 67.71600000 3185261148 3185261148 1.66700000
40.73085785 45.01451874 1.05964029 28 18 4074 60.71600000 3185261151 3185261151 1.00000000
14.69013214 19.82361603 -1.58128619 3 19 4074 24.72400000 3185261151 3185261151 -3.66700000
17.74802780 17.77903175 -1.46301031 3 20 4075 25.16400000 3185261153 3185261153 -3.33300000
40.42232132 49.29858780 3.71275783 43 21 4075 63.86000000 3185261153 3185261153 3.33300000
40.13955688 44.32991791 2.43641210 28 22 4076 59.85200000 3185261155 3185261155 2.33300000
17.61901283 21.48029327 -1.29412365 2 23 4076 27.81200000 3185261155 3185261155 -2.66700000
18.10918427 19.99267387 -1.41369879 4 24 4077 27.01200000 3185261158 3185261158 -3.00000000
17.98499107 24.23447990 -1.22952271 4 27 4078 30.20400000 3185261160 3185261160 -2.33300000
20.86874008 20.87602615 -1.03079152 12 28 4079 29.53600000 3185261162 3185261162 -2.00000000
20.99627876 25.56128883 -0.76973081 13 31 4080 33.08800000 3185261164 3185261164 -1.33300000
3.69664717 4.06683779 -2.56275725 13 0 4087 6.06400000 3185261185 3185261185 -25.00000000
21.00648117 28.21317482 -0.61397564 12 1 4087 35.18000000 3185261185 3185261185 -1.00000000
20.91380310 23.00009346 -0.90471560 15 2 4088 31.10000000 3185261187 3185261187 -1.66700000
5.81657219 7.06108665 -2.56096601 7 3 4088 9.50000000 3185261187 3185261187 -15.63900000
8.03920174 8.83806610 -2.38949299 1 4 4089 12.18400000 3185261190 3185261190 -11.31000000
37.22050476 45.16814041 0.00000000 19 5 4089 58.52800000 3185261190 3185261190 0.00000000
20.96260452 20.88955879 -0.34452951 15 6 4090 29.59600000 3185261192 3185261192 -0.66700000
8.97019958 10.88172245 -2.19399810 1 7 4090 14.27200000 3185261192 3185261192 -8.84300000
10.95440388 12.03873348 -2.07180905 2 8 4090 16.40800000 3185261194 3185261194 -7.25400000
39.42346954 52.89064407 0.38340032 28 9 4090 65.96800000 3185261194 3185261194 0.33300000
34.97315216 38.42152023 -0.30196378 13 10 4091 51.95600000 3185261197 3185261197 -0.33300000
11.38343716 13.80430412 -1.92731845 3 11 4091 17.99600000 3185261197 3185261197 -6.14800000
13.98902988 13.93055534 -1.84289503 2 12 4092 19.82800000 3185261199 3185261199 -5.33300000
40.47347260 49.06334686 1.48000097 19 13 4092 63.62000000 3185261199 3185261199 1.33300000
40.70267105 40.51838684 0.66861725 51 14 4093 57.43600000 3185261201 3185261201 0.66700000
14.89549828 18.05041885 -1.63648689 2 15 4093 23.46000000 3185261201 3185261201 -4.00000000
14.37378025 15.77444077 -1.74217606 2 16 4094 21.41200000 3185261204 3185261204 -4.66700000
40.26949692 53.94703293 1.95918930 28 17 4094 67.34800000 3185261204 3185261204 1.66700000
40.76921844 44.74199677 1.05656874 28 18 4094 60.54000000 3185261206 3185261206 1.00000000
14.74730110 19.75622177 -1.58000708 3 19 4094 24.70400000 3185261206 3185261206 -3.66700000
17.71655655 17.62403488 -1.45533597 3 20 4095 25.03200000 3185261208 3185261208 -3.33300000
40.33734894 48.84620285 3.68926978 42 21 4095 63.45600000 3185261208 3185261208 3.33300000
40.01129913 43.87944412 2.41931510 54 22 4096 59.43200000 3185261211 3185261211 2.33300000
17.69133949 21.41558075 -1.29393744 2 23 4096 27.80800000 3185261211 3185261211 -2.66700000
18.11156273 19.85556030 -1.40846527 4 24 4097 26.91200000 3185261213 3185261213 -3.00000000
17.98332787 24.05631256 -1.22366083 4 27 4098 30.06000000 3185261215 3185261215 -2.33300000
20.87058258 20.73262024 -1.02730155 12 28 4099 29.43600000 3185261217 3185261217 -2.00000000
49.83443832 60.26090240 20.95295525 28 29 4099 80.95600000 3185261217 3185261217 15.00000000
20.99173164 25.38366508 -0.76647395 12 31 4099 32.94800000 3185261220 3185261220 -1.33300000
3.67655182 4.01647234 -2.53909063 13 0 4107 6.00800000 3185261240 3185261240 -25.00000000
21.00405121 28.00529671 -0.61104363 19 1 4107 35.01200000 3185261240 3185261240 -1.00000000
20.90485573 22.82963943 -0.90087569 15 2 4108 30.96800000 3185261243 3185261243 -1.66700000
5.83872509 7.03777552 -2.55988765 6 3 4108 9.49600000 3185261243 3185261243 -15.63900000
8.07000351 8.80994987 -2.38949299 1 4 4109 12.18400000 3185261245 3185261245 -11.31000000
37.25021744 44.88404083 0.00000000 19 5 4109 58.32800000 3185261245 3185261245 0.00000000
20.95785713 20.74676895 -0.34331882 15 6 4109 29.49200000 3185261247 3185261247 -0.66700000
9.00623512 10.85191631 -2.19399810 1 7 4109 14.27200000 3185261247 3185261247 -8.84300000
10.98831844 11.99164486 -2.07029390 4 8 4110 16.39600000 3185261250 3185261250 -7.25400000
39.46855545 52.56718445 0.38205194 28 9 4110 65.73600000 3185261250 3185261250 0.33300000
35.03678513 38.22254562 -0.30135936 12 10 4111 51.85200000 3185261252 3185261252 -0.33300000
11.42139053 13.75224686 -1.92560494 2 11 4111 17.98000000 3185261252 3185261252 -6.14800000
14.10270405 13.94604874 -1.85144579 2 12 4112 19.92000000 3185261254 3185261254 -5.33300000
40.50138474 48.74951935 1.47478998 19 13 4112 63.39600000 3185261254 3185261254 1.33300000
40.73292542 40.26639557 0.66680127 25 14 4113 57.28000000 3185261257 3185261257 0.66700000
14.94566250 17.98297119 -1.63509178 2 15 4113 23.44000000 3185261257 3185261257 -4.00000000
14.42066956 15.71535873 -1.74119973 2 16 4114 21.40000000 3185261259 3185261259 -4.66700000
40.28215027 53.57284927 1.95069480 28 17 4114 67.05600000 3185261259 3185261259 1.66700000
40.89810944 44.56994247 1.05587053 28 18 4114 60.50000000 3185261261 3185261261 1.00000000
14.76339531 19.63443375 -1.57437885 3 19 4114 24.61600000 3185261261 3185261261 -3.66700000
17.76660538 17.55085945 -1.45440578 3 20 4115 25.01600000 3185261264 3185261264 -3.33300000
40.27524567 48.42571640 3.66810703 62 21 4115 63.09200000 3185261264 3185261264 3.33300000
39.54788971 43.06831741 2.38218999 51 22 4116 58.52000000 3185261266 3185261266 2.33300000
17.77109718 21.35983849 -1.29430974 2 23 4116 27.81600000 3185261266 3185261266 -2.66700000
18.16454697 19.77456856 -1.40720916 4 24 4117 26.88800000 3185261268 3185261268 -3.00000000
50.64781952 60.85416412 9.72127342 28 25 4117 79.76800000 3185261268 3185261268 7.00000000
112.52631378 122.45720673 13.57647610 28 26 4118 166.86000000 3185261270 3185261270 4.66700000
18.04314804 23.96146584 -1.22203255 4 27 4118 30.02000000 3185261270 3185261270 -2.33300000
20.87452507 20.59226418 -1.02395129 12 28 4119 29.34000000 3185261273 3185261273 -2.00000000
50.03706741 60.07767105 20.94984818 28 29 4119 80.94400000 3185261273 3185261273 15.00000000
20.98735619 25.18980789 -0.76293796 12 31 4120 32.79600000 3185261275 3185261275 -1.33300000
3.58980894 3.89432788 -2.46978116 13 0 4127 5.84400000 3185261296 3185261296 -25.00000000
21.00042534 27.79778099 -0.60811168 18 1 4127 34.84400000 3185261296 3185261296 -1.00000000
20.90581512 22.67128754 -0.89750117 15 2 4128 30.85200000 3185261298 3185261298 -1.66700000
5.86325598 7.01735163 -2.55988765 6 3 4128 9.49600000 3185261298 3185261298 -15.63900000
8.10070705 8.78172684 -2.38949299 1 4 4129 12.18400000 3185261300 3185261300 -11.31000000
37.49388123 44.85808945 0.00000000 19 5 4129 58.46400000 3185261300 3185261300 0.00000000
20.95884132 20.60338783 -0.34215471 15 6 4129 29.39200000 3185261303 3185261303 -0.66700000
9.03899097 10.81434727 -2.19276834 1 7 4129 14.26400000 3185261303 3185261303 -8.84300000
11.01396465 11.93571949 -2.06726336 4 8 4130 16.37200000 3185261305 3185261305 -7.25400000
39.67593765 52.46099472 0.38228443 56 9 4130 65.77600000 3185261305 3185261305 0.33300000
35.14286041 38.07061768 -0.30112687 12 10 4131 51.81200000 3185261307 3185261307 -0.33300000
11.46422195 13.70619392 -1.92474818 2 11 4131 17.97200000 3185261307 3185261307 -6.14800000
14.07173347 13.81860161 -1.84103608 2 12 4132 19.80800000 3185261310 3185261310 -5.33300000
40.56609344 48.48210144 1.47097492 18 13 4132 63.23200000 3185261310 3185261310 1.33300000
40.69055939 39.94464111 0.66382110 25 14 4133 57.02400000 3185261312 3185261312 0.66700000
15.00578308 17.92763138 -1.63481271 4 15 4133 23.43600000 3185261312 3185261312 -4.00000000
14.47273350 15.66199780 -1.74087429 2 16 4134 21.39600000 3185261314 3185261314 -4.66700000
40.20819092 53.08768463 1.93812776 28 17 4134 66.62400000 3185261314 3185261314 1.66700000
40.99915314 44.36816406 1.05447435 28 18 4134 60.42000000 3185261317 3185261317 1.00000000
14.83184242 19.58277893 -1.57437885 3 19 4134 24.61600000 3185261317 3185261317 -3.66700000
17.82776070 17.48873711 -1.45440578 3 20 4135 25.01600000 3185261319 3185261319 -3.33300000
40.30300903 48.11646652 3.65531659 41 21 4135 62.87200000 3185261319 3185261319 3.33300000
39.55146027 42.77154922 2.37339735 25 22 4136 58.30400000 3185261321 3185261321 2.33300000
17.78652573 21.22723389 -1.29002893 2 23 4136 27.72400000 3185261321 3185261321 -2.66700000
18.24973869 19.72863579 -1.40846527 4 24 4137 26.91200000 3185261323 3185261323 -3.00000000
50.88033295 60.70133972 9.72517395 28 25 4137 79.80000000 3185261323 3185261323 7.00000000
113.02077484 122.13682556 13.58461285 28 26 4138 166.96000000 3185261326 3185261326 4.66700000
18.13875580 23.91425896 -1.22284675 4 27 4138 30.04000000 3185261326 3185261326 -2.33300000
20.86346245 20.43814659 -1.01990294 12 28 4139 29.22400000 3185261328 3185261328 -2.00000000
20.98776245 25.01224136 -0.75977415 12 31 4140 32.66000000 3185261330 3185261330 -1.33300000
3.64530921 3.92694116 -2.49851918 16 0 4147 5.91200000 3185261351 3185261351 -25.00000000
20.99560928 27.59063339 -0.60517967 18 1 4147 34.67600000 3185261351 3185261351 -1.00000000
20.90320396 22.51027870 -0.89401031 15 2 4148 30.73200000 3185261353 3185261353 -1.66700000
5.88275528 6.99094772 -2.55773115 6 3 4148 9.48800000 3185261353 3185261353 -15.63900000
8.12864208 8.75052261 -2.38870859 3 4 4149 12.18000000 3185261356 3185261356 -11.31000000
37.69145203 44.77589798 0.00000000 19 5 4149 58.52800000 3185261356 3185261356 0.00000000
20.95621872 20.45745850 -0.34094405 15 6 4149 29.28800000 3185261358 3185261358 -0.66700000
9.07668495 10.78272915 -2.19276834 1 7 4149 14.26400000 3185261358 3185261358 -8.84300000
11.04475689 11.88557339 -2.06524301 4 8 4150 16.35600000 3185261360 3185261360 -7.25400000
39.73277664 52.15672302 0.38107556 28 9 4150 65.56800000 3185261360 3185261360 0.33300000
35.15571213 37.81880951 -0.30010396 12 10 4151 51.63600000 3185261363 3185261363 -0.33300000
11.51199532 13.66609287 -1.92474818 2 11 4151 17.97200000 3185261363 3185261363 -6.14800000
14.12273502 13.77217865 -1.84140790 2 12 4152 19.81200000 3185261365 3185261365 -5.33300000
40.72477341 48.32797241 1.47060263 18 13 4152 63.21600000 3185261365 3185261365 1.33300000
40.88988876 39.86099243 0.66479897 25 14 4153 57.10800000 3185261367 3185261367 0.66700000
15.06055546 17.86598969 -1.63397563 2 15 4153 23.42400000 3185261367 3185261367 -4.00000000
14.52188396 15.60554600 -1.74022341 2 16 4154 21.38800000 3185261370 3185261370 -4.66700000
40.16286850 52.64501572 1.92707336 28 17 4154 66.24400000 3185261370 3185261370 1.66700000
41.02572250 44.08717346 1.05119336 28 18 4154 60.23200000 3185261372 3185261372 1.00000000
14.89284515 19.52136612 -1.57361126 3 19 4154 24.60400000 3185261372 3185261372 -3.66700000
17.88869858 17.42639923 -1.45440578 3 20 4155 25.01600000 3185261374 3185261374 -3.33300000
40.32910919 47.80761719 3.64252591 40 21 4155 62.65200000 3185261374 3185261374 3.33300000
39.41453171 42.32611465 2.35630012 24 22 4156 57.88400000 3185261376 3185261376 2.33300000
17.85536003 21.15891075 -1.28965664 2 23 4156 27.71600000 3185261376 3185261376 -2.66700000
18.29398727 19.63850594 -1.40658116 4 24 4157 26.87600000 3185261379 3185261379 -3.00000000
113.48447418 121.78240204 13.58916855 28 26 4158 167.01600000 3185261381 3185261381 4.66700000
18.21484375 23.84126854 -1.22235823 4 27 4158 30.02800000 3185261381 3185261381 -2.33300000
20.88023567 20.31223488 -1.01725054 12 28 4159 29.14800000 3185261383 3185261383 -2.00000000
20.98718452 24.83498001 -0.75661039 12 31 4160 32.52400000 3185261386 3185261386 -1.33300000
3.62928677 3.88241315 -2.47823358 12 0 4167 5.86400000 3185261406 3185261406 -25.00000000
20.99690437 27.39338303 -0.60245705 18 1 4167 34.52000000 3185261406 3185261406 -1.00000000
20.89972496 22.34956551 -0.89051944 14 2 4168 30.61200000 3185261409 3185261409 -1.66700000
5.90463161 6.96743202 -2.55665278 6 3 4168 9.48400000 3185261409 3185261409 -15.63900000
8.15377808 8.71636677 -2.38713956 3 4 4169 12.17200000 3185261411 3185261411 -11.31000000
37.76733398 44.54947281 0.00000000 19 5 4169 58.40400000 3185261411 3185261411 0.00000000
20.96432114 20.32293510 -0.33991963 15 6 4169 29.20000000 3185261413 3185261413 -0.66700000
9.09126568 10.72384644 -2.18723416 1 7 4169 14.22800000 3185261413 3185261413 -8.84300000
39.82450104 51.90029907 0.38021541 28 9 4170 65.42000000 3185261416 3185261416 0.33300000
35.23830414 37.64330292 -0.29968551 12 10 4171 51.56400000 3185261418 3185261418 -0.33300000
11.54933739 13.61369419 -1.92303455 1 11 4171 17.95600000 3185261418 3185261418 -6.14800000
14.16213989 13.71448612 -1.84029257 2 12 4172 19.80000000 3185261420 3185261420 -5.33300000
40.30844116 47.49645996 1.44957280 18 13 4172 62.31200000 3185261420 3185261420 1.33300000
40.86784744 39.56222916 0.66219139 24 14 4173 56.88400000 3185261422 3185261422 0.66700000
15.12024498 17.81026840 -1.63369656 2 15 4173 23.42000000 3185261422 3185261422 -4.00000000
14.56536484 15.54312325 -1.73892152 2 16 4174 21.37200000 3185261425 3185261425 -4.66700000
40.12469482 52.21599960 1.91648436 28 17 4174 65.88000000 3185261425 3185261425 1.66700000
41.05356979 43.80945587 1.04798210 28 18 4174 60.04800000 3185261427 3185261427 1.00000000
14.94873524 19.45343590 -1.57233214 3 19 4174 24.58400000 3185261427 3185261427 -3.66700000
17.94941902 17.36384964 -1.45440578 3 20 4175 25.01600000 3185261429 3185261429 -3.33300000
40.41042328 47.56612396 3.63485169 40 21 4175 62.52000000 3185261429 3185261429 3.33300000
39.42260742 42.03958893 2.34799600 48 22 4176 57.68000000 3185261432 3185261432 2.33300000
17.91617203 21.08123207 -1.28872597 2 23 4176 27.69600000 3185261432 3185261432 -2.66700000
18.35149574 19.56287575 -1.40574384 4 24 4177 26.86000000 3185261434 3185261434 -3.00000000
113.28960419 120.72560120 13.51529026 28 26 4178 166.10800000 3185261436 3185261436 4.66700000
18.29795456 23.77754211 -1.22235823 4 27 4178 30.02800000 3185261436 3185261436 -2.33300000
20.86763382 20.15867805 -1.01320219 12 28 4179 29.03200000 3185261439 3185261439 -2.00000000
20.98821831 24.66107368 -0.75353962 17 31 4180 32.39200000 3185261441 3185261441 -1.33300000
3.65140176 3.88155437 -2.48499537 11 0 4185 5.88000000 3185261462 3185261462 -25.00000000
20.99246788 27.21012306 -0.59987414 18 1 4185 34.37200000 3185261462 3185261462 -1.00000000
20.89859200 22.20808983 -0.88749403 14 2 4186 30.50800000 3185261464 3185261464 -1.66700000
5.92399168 6.94591665 -2.55557442 6 3 4186 9.48000000 3185261464 3185261464 -15.63900000
8.17843342 8.68785191 -2.38635516 3 4 4187 12.16800000 3185261466 3185261466 -11.31000000
38.98452759 45.69344330 0.00000000 21 5 4187 60.06400000 3185261466 3185261466 0.00000000
20.95604897 20.18760109 -0.33875552 15 6 4187 29.10000000 3185261469 3185261469 -0.66700000
9.11977959 10.68921852 -2.18600440 1 7 4187 14.22000000 3185261469 3185261469 -8.84300000
