# .PCD v0.7 - Point Cloud Data file format
VERSION 0.7
FIELDS x y z intensity laser_id azimuth distance_m adjustedtime timestamp vertical_angle
SIZE 4 4 4 1 1 2 8 8 4 8
TYPE F F F U U U F U U F
COUNT 1 1 1 1 1 1 1 1 1 1
WIDTH 522
HEIGHT 1
VIEWPOINT 0 0 0 1 0 0 0
POINTS 522
DATA ascii
16.40430069 19.67508316 -1.49184728 4 20 3562 25.66000000 3178559720 3178559720 -3.33300000
40.71423721 59.86421967 4.21624184 32 21 3562 72.52000000 3178559720 3178559720 3.33300000
40.20545197 53.29635620 2.71989775 28 22 3563 66.81600000 3178559722 3178559722 2.33300000
16.08177948 23.63698959 -1.33172071 2 23 3563 28.62000000 3178559722 3178559722 -2.66700000
16.63878632 22.04837418 -1.44761252 4 24 3564 27.66000000 3178559724 3178559724 -3.00000000
43.17936325 57.19702911 5.85043097 28 26 3565 71.90400000 3178559726 3178559726 4.66700000
16.20685196 26.49905968 -1.26550794 4 27 3565 31.08800000 3178559726 3178559726 -2.33300000
20.06375694 24.03005600 -1.09319186 4 28 3566 31.32400000 3178559729 3178559729 -2.00000000
20.85358810 30.60462761 -0.86175978 4 31 3567 37.04400000 3178559731 3178559731 -1.33300000
3.39996862 4.48741961 -2.62530470 13 0 3575 6.21200000 3178559752 3178559752 -25.00000000
21.18181229 34.49796677 -0.70661300 8 1 3575 40.48800000 3178559752 3178559752 -1.00000000
20.97798347 27.67757607 -1.01072156 13 2 3576 34.74400000 3178559754 3178559754 -1.66700000
5.21539402 7.62830973 -2.58684516 6 3 3576 9.59600000 3178559754 3178559754 -15.63900000
7.23261786 9.53898907 -2.39419985 3 4 3577 12.20800000 3178559756 3178559756 -11.31000000
21.16554260 30.94624138 0.00000000 17 5 3577 37.49200000 3178559756 3178559756 0.00000000
21.02259827 25.08041382 -0.38098937 19 6 3577 32.72800000 3178559759 3178559759 -0.66700000
8.07506657 11.80659389 -2.22535849 2 7 3577 14.47600000 3178559759 3178559759 -8.84300000
10.05214977 13.25282192 -2.11726546 4 8 3578 16.76800000 3178559761 3178559761 -7.25400000
21.48134232 34.94474792 0.23840471 8 9 3578 41.02000000 3178559761 3178559761 0.33300000
21.05419731 27.74793625 -0.20244057 11 10 3579 34.83200000 3178559763 3178559763 -0.33300000
10.34420109 15.11298275 -1.97272766 1 11 3579 18.42000000 3178559763 3178559763 -6.14800000
12.86410427 15.33084297 -1.86817575 2 12 3580 20.10000000 3178559766 3178559766 -5.33300000
40.20572662 58.71898270 1.65596342 23 13 3580 71.18400000 3178559766 3178559766 1.33300000
28.80092239 34.31143951 0.52152056 12 14 3581 44.80000000 3178559768 3178559768 0.66700000
13.46197796 19.65336418 -1.66578460 2 15 3581 23.88000000 3178559768 3178559768 -4.00000000
13.14260101 17.30219269 -1.77374554 2 16 3582 21.80000000 3178559770 3178559770 -4.66700000
40.09278488 65.11894989 2.22554231 28 17 3582 76.50400000 3178559770 3178559770 1.66700000
13.23929977 21.50335312 -1.61838162 3 19 3582 25.30400000 3178559773 3178559773 -3.66700000
16.45832443 19.59342384 -1.49021935 4 20 3583 25.63200000 3178559775 3178559775 -3.33300000
40.78436279 59.49720764 4.20089293 32 21 3583 72.25600000 3178559775 3178559775 3.33300000
40.16350174 52.83682251 2.70394039 28 22 3584 66.42400000 3178559777 3178559777 2.33300000
16.13215065 23.52516365 -1.32874274 2 23 3584 28.55600000 3178559777 3178559777 -2.66700000
16.70256233 21.96498299 -1.44614708 4 24 3585 27.63200000 3178559779 3178559779 -3.00000000
44.15626907 58.04740906 5.95392656 28 26 3586 73.17600000 3178559782 3178559782 4.66700000
16.27240181 26.38845253 -1.26306546 4 27 3586 31.02800000 3178559782 3178559782 -2.33300000
20.07449722 23.86458206 -1.08900392 4 28 3587 31.20400000 3178559784 3178559784 -2.00000000
20.95882797 30.51809883 -0.86148059 4 31 3588 37.03200000 3178559786 3178559786 -1.33300000
3.43540621 4.50146055 -2.64051890 17 0 3595 6.24800000 3178559807 3178559807 -25.00000000
21.18214607 34.22996521 -0.70263386 17 1 3595 40.26000000 3178559807 3178559807 -1.00000000
20.97741890 27.47706032 -1.00606704 12 2 3596 34.58400000 3178559809 3178559809 -1.66700000
5.24636030 7.61640263 -2.58900189 6 3 3596 9.60400000 3178559809 3178559809 -15.63900000
7.26110935 9.50745010 -2.39263105 3 4 3597 12.20000000 3178559812 3178559812 -11.31000000
21.16449356 30.71407318 0.00000000 17 5 3597 37.30000000 3178559812 3178559812 0.00000000
21.00423431 24.88156891 -0.37908024 19 6 3597 32.56400000 3178559814 3178559814 -0.66700000
8.11174488 11.77182579 -2.22412872 2 7 3597 14.46800000 3178559814 3178559814 -8.84300000
10.00921822 13.10098934 -2.09857798 2 8 3598 16.62000000 3178559816 3178559816 -7.25400000
21.56737900 34.81174850 0.23800948 8 9 3598 40.95200000 3178559816 3178559816 0.33300000
21.05620003 27.55033112 -0.20153391 11 10 3599 34.67600000 3178559819 3178559819 -0.33300000
10.38786125 15.06368637 -1.97101402 1 11 3599 18.40400000 3178559819 3178559819 -6.14800000
12.93039417 15.30105495 -1.87003469 2 12 3600 20.12000000 3178559821 3178559821 -5.33300000
40.49446869 58.70007324 1.65940630 23 13 3600 71.33200000 3178559821 3178559821 1.33300000
28.82755852 34.10073471 0.51984423 12 14 3601 44.65600000 3178559823 3178559823 0.66700000
13.52369976 19.59640121 -1.66494751 2 15 3601 23.86800000 3178559823 3178559823 -4.00000000
13.18111324 17.22771454 -1.77081645 2 16 3602 21.76400000 3178559826 3178559826 -4.66700000
40.18914413 64.76796722 2.21832776 28 17 3602 76.25600000 3178559826 3178559826 1.66700000
13.31849003 21.46379280 -1.61889327 3 19 3602 25.31200000 3178559828 3178559828 -3.66700000
16.50082779 19.50536728 -1.48789382 4 20 3603 25.59200000 3178559830 3178559830 -3.33300000
40.81933594 59.10476303 4.18321896 32 21 3603 71.95200000 3178559830 3178559830 3.33300000
40.09986115 52.37262344 2.68733191 28 22 3604 66.01600000 3178559832 3178559832 2.33300000
16.19600105 23.44240952 -1.32725382 2 23 3604 28.52400000 3178559832 3178559832 -2.66700000
16.69897652 21.80189896 -1.43923879 4 24 3605 27.50000000 3178559835 3178559835 -3.00000000
44.33437347 57.86127472 5.95067215 28 26 3606 73.13600000 3178559837 3178559837 4.66700000
16.35597610 26.31791115 -1.26241422 4 27 3606 31.01200000 3178559837 3178559837 -2.33300000
20.12667084 23.75776100 -1.08732867 4 28 3607 31.15600000 3178559839 3178559839 -2.00000000
21.05612755 30.43160057 -0.86110842 4 31 3608 37.01600000 3178559842 3178559842 -1.33300000
3.46435475 4.50668621 -2.65066171 14 0 3615 6.27200000 3178559862 3178559862 -25.00000000
21.18933296 33.97595978 -0.69893396 17 1 3615 40.04800000 3178559862 3178559862 -1.00000000
20.97570992 27.27688599 -1.00141251 12 2 3616 34.42400000 3178559865 3178559865 -1.66700000
5.26632595 7.58854961 -2.58576679 6 3 3616 9.59200000 3178559865 3178559865 -15.63900000
7.28468609 9.46961021 -2.38949299 3 4 3617 12.18400000 3178559867 3178559867 -11.31000000
21.15979958 30.47900391 0.00000000 11 5 3617 37.10400000 3178559867 3178559867 0.00000000
21.00287628 24.70449066 -0.37749705 19 6 3617 32.42800000 3178559869 3178559869 -0.66700000
8.15053272 11.74019146 -2.22351384 2 7 3617 14.46400000 3178559869 3178559869 -8.84300000
10.05488873 13.06597042 -2.09857798 2 8 3618 16.62000000 3178559872 3178559872 -7.25400000
35.35280991 56.62029266 0.38795686 28 9 3618 66.75200000 3178559872 3178559872 0.33300000
21.05464172 27.34988213 -0.20060401 11 10 3619 34.51600000 3178559874 3178559874 -0.33300000
10.43811131 15.02406788 -1.97058570 3 11 3619 18.40000000 3178559874 3178559874 -6.14800000
12.98114491 15.25279331 -1.86966288 2 12 3620 20.11600000 3178559876 3178559876 -5.33300000
40.55077744 58.34492111 1.65335786 23 13 3620 71.07200000 3178559876 3178559876 1.33300000
28.92826653 33.97858047 0.51951826 24 14 3621 44.62800000 3178559878 3178559878 0.66700000
13.59202194 19.54907417 -1.66494751 2 15 3621 23.86800000 3178559878 3178559878 -4.00000000
13.24360275 17.18475723 -1.77114189 2 16 3622 21.76800000 3178559881 3178559881 -4.66700000
40.23478699 64.33913422 2.20843697 28 17 3622 75.91600000 3178559881 3178559881 1.66700000
13.35735035 21.35963440 -1.61454415 3 19 3622 25.24400000 3178559883 3178559883 -3.66700000
16.57399178 19.45372963 -1.48835897 4 20 3623 25.60000000 3178559885 3178559885 -3.33300000
40.76083755 58.58168411 4.15624237 31 21 3623 71.48800000 3178559885 3178559885 3.33300000
40.19700241 52.12155914 2.68163276 28 22 3624 65.87600000 3178559888 3178559888 2.33300000
16.25262260 23.34965706 -1.32520640 2 23 3624 28.48000000 3178559888 3178559888 -2.66700000
16.77009773 21.73715019 -1.43882012 4 24 3625 27.49200000 3178559890 3178559890 -3.00000000
43.66893387 56.58259583 5.83480930 28 26 3626 71.71200000 3178559892 3178559892 4.66700000
16.44350052 26.25388336 -1.26208854 4 27 3626 31.00400000 3178559892 3178559892 -2.33300000
20.20428848 23.68127823 -1.08704948 4 28 3627 31.14800000 3178559895 3178559895 -2.00000000
21.14850426 30.33823204 -0.86055011 14 31 3628 36.99200000 3178559897 3178559897 -1.33300000
3.48450375 4.50029898 -2.65404272 21 0 3635 6.28000000 3178559918 3178559918 -25.00000000
21.07582474 33.53270340 -0.69132471 16 1 3635 39.61200000 3178559918 3178559918 -1.00000000
20.97775841 27.08338356 -0.99699080 18 2 3636 34.27200000 3178559920 3178559920 -1.66700000
5.29278326 7.57012033 -2.58576679 6 3 3636 9.59200000 3178559920 3178559920 -15.63900000
7.31529474 9.44102383 -2.38870859 3 4 3637 12.18000000 3178559922 3178559922 -11.31000000
21.16060448 30.25417709 0.00000000 16 5 3637 36.92000000 3178559922 3178559922 0.00000000
21.01094246 24.53988075 -0.37610012 18 6 3637 32.30800000 3178559925 3178559925 -0.66700000
8.18919849 11.70843029 -2.22289896 2 7 3637 14.46000000 3178559925 3178559925 -8.84300000
10.09314346 13.02138424 -2.09706259 2 8 3638 16.60800000 3178559927 3178559927 -7.25400000
35.42454910 56.29680252 0.38658527 28 9 3638 66.51600000 3178559927 3178559927 0.33300000
21.04703903 27.14345932 -0.19962761 11 10 3639 34.34800000 3178559929 3178559929 -0.33300000
10.48364925 14.97776604 -1.96930051 3 11 3639 18.38800000 3178559929 3178559929 -6.14800000
12.97987938 15.14388466 -1.86185563 2 12 3640 20.03200000 3178559931 3178559931 -5.33300000
40.75189972 58.19974136 1.65326488 23 13 3640 71.06800000 3178559931 3178559931 1.33300000
28.88788605 33.69217300 0.51667786 12 14 3641 44.38400000 3178559934 3178559934 0.66700000
13.66704559 19.51131439 -1.66578460 2 15 3641 23.88000000 3178559934 3178559934 -4.00000000
13.30106354 17.13527298 -1.77081645 2 16 3642 21.76400000 3178559936 3178559936 -4.66700000
40.20757675 63.79914856 2.19470620 28 17 3642 75.44400000 3178559936 3178559936 1.66700000
13.42118645 21.29599190 -1.61326492 3 19 3642 25.22400000 3178559938 3178559938 -3.66700000
16.60279274 19.35029793 -1.48487055 4 20 3643 25.54000000 3178559941 3178559941 -3.33300000
40.71752930 58.08589935 4.13112640 30 21 3643 71.05600000 3178559941 3178559941 3.33300000
40.27817535 51.85152054 2.67495680 28 22 3644 65.71200000 3178559943 3178559943 2.33300000
16.32026291 23.27315521 -1.32408965 2 23 3644 28.45600000 3178559943 3178559943 -2.66700000
16.83606911 21.66586113 -1.43798268 4 24 3645 27.47600000 3178559945 3178559945 -3.00000000
44.40447235 57.12228394 5.90640974 28 26 3646 72.59200000 3178559948 3178559948 4.66700000
16.53717613 26.19970512 -1.26225138 4 27 3646 31.00800000 3178559948 3178559948 -2.33300000
20.29724884 23.62273598 -1.08760786 4 28 3647 31.16400000 3178559950 3178559950 -2.00000000
21.04679680 29.97991753 -0.85236144 14 31 3647 36.64000000 3178559952 3178559952 -1.33300000
3.45783257 4.43379354 -2.62192369 14 0 3655 6.20400000 3178559973 3178559973 -25.00000000
21.07932663 33.27986145 -0.68762481 16 1 3655 39.40000000 3178559973 3178559973 -1.00000000
20.95657730 26.86182785 -0.99152178 12 2 3656 34.08400000 3178559975 3178559975 -1.66700000
5.31030273 7.53900242 -2.58145356 6 3 3656 9.57600000 3178559975 3178559975 -15.63900000
7.37475061 9.44944477 -2.39733768 3 4 3657 12.22400000 3178559978 3178559978 -11.31000000
21.15779305 30.02644920 0.00000000 16 5 3657 36.73200000 3178559978 3178559978 0.00000000
21.00930977 24.35670280 -0.37447035 18 6 3658 32.16800000 3178559980 3178559980 -0.66700000
8.22978020 11.67510700 -2.22228408 2 7 3658 14.45600000 3178559980 3178559980 -8.84300000
10.12876701 12.97356319 -2.09504247 2 8 3658 16.59200000 3178559982 3178559982 -7.25400000
35.27811432 55.63232422 0.38286564 28 9 3658 65.87600000 3178559982 3178559982 0.33300000
21.04071426 26.94057655 -0.19867446 11 10 3659 34.18400000 3178559984 3178559984 -0.33300000
10.52211666 14.92157936 -1.96673024 3 11 3659 18.36400000 3178559984 3178559984 -6.14800000
13.02745724 15.09245491 -1.86111200 2 12 3660 20.02400000 3178559987 3178559987 -5.33300000
40.83263397 57.88394928 1.64833307 23 13 3660 70.85600000 3178559987 3178559987 1.33300000
29.28763390 33.91807938 0.52170676 12 14 3661 44.81600000 3178559989 3178559989 0.66700000
13.74427223 19.47653008 -1.66690075 2 15 3661 23.89600000 3178559989 3178559989 -4.00000000
13.36570740 17.09502220 -1.77146733 2 16 3662 21.77200000 3178559991 3178559991 -4.66700000
40.10420609 63.14538956 2.17701912 28 17 3662 74.83600000 3178559991 3178559991 1.66700000
34.17950821 43.70059204 0.96839911 21 18 3663 55.48800000 3178559994 3178559994 1.00000000
13.48630619 21.22644234 -1.61172998 3 19 3663 25.20000000 3178559994 3178559994 -3.66700000
16.66762733 19.28920364 -1.48463809 4 20 3663 25.53600000 3178559996 3178559996 -3.33300000
40.74496841 57.69551468 4.11345196 30 21 3663 70.75200000 3178559996 3178559996 3.33300000
40.33085632 51.54692841 2.66648960 28 22 3664 65.50400000 3178559998 3178559998 2.33300000
16.39448547 23.20625305 -1.32353127 2 23 3664 28.44400000 3178559998 3178559998 -2.66700000
16.91405678 21.61010742 -1.43819213 4 24 3665 27.48000000 3178560001 3178560001 -3.00000000
44.56181717 56.91357422 5.90087700 28 26 3666 72.52400000 3178560003 3178560003 4.66700000
16.54701805 26.01367378 -1.25606382 4 27 3666 30.85600000 3178560003 3178560003 -2.33300000
20.35604286 23.52453613 -1.08635151 4 28 3667 31.12800000 3178560005 3178560005 -2.00000000
21.04971695 29.76261330 -0.84826714 14 31 3667 36.46400000 3178560008 3178560008 -1.33300000
3.44788861 4.39093876 -2.60332847 14 0 3674 6.16000000 3178560028 3178560028 -25.00000000
21.08200836 33.04119873 -0.68413430 16 1 3674 39.20000000 3178560028 3178560028 -1.00000000
20.94921494 26.66955948 -0.98698366 12 2 3675 33.92800000 3178560031 3178560031 -1.66700000
5.33527374 7.52135134 -2.58145356 6 3 3675 9.57600000 3178560031 3178560031 -15.63900000
7.42300987 9.44652557 -2.40282893 3 4 3676 12.25200000 3178560033 3178560033 -11.31000000
21.14150620 29.79301453 0.00000000 16 5 3676 36.53200000 3178560033 3178560033 0.00000000
21.00342178 24.18723869 -0.37293375 12 6 3677 32.03600000 3178560035 3178560035 -0.66700000
8.26158714 11.63808250 -2.22043920 2 7 3677 14.44400000 3178560035 3178560035 -8.84300000
10.16192436 12.92742538 -2.09302211 2 8 3677 16.57600000 3178560037 3178560037 -7.25400000
21.03351021 26.74802971 -0.19776779 11 10 3678 34.02800000 3178560040 3178560040 -0.33300000
10.57844830 14.89633274 -1.96801531 3 11 3678 18.37600000 3178560040 3178560040 -6.14800000
13.06437206 15.03413963 -1.85925317 2 12 3679 20.00400000 3178560042 3178560042 -5.33300000
40.57970047 57.12229919 1.63046694 22 13 3679 70.08800000 3178560042 3178560042 1.33300000
13.79722595 19.41458321 -1.66550553 2 15 3680 23.87600000 3178560044 3178560044 -4.00000000
13.40752697 17.03181076 -1.76951456 2 16 3681 21.74800000 3178560047 3178560047 -4.66700000
40.09790802 62.67525101 2.16538310 28 17 3681 74.43600000 3178560047 3178560047 1.66700000
13.54862118 21.17724419 -1.61121833 3 19 3681 25.19200000 3178560049 3178560049 -3.66700000
16.66073799 19.15247917 -1.47835898 3 20 3682 25.42800000 3178560051 3178560051 -3.33300000
40.68380737 57.20537567 4.08810329 30 21 3682 70.31600000 3178560051 3178560051 3.33300000
40.32102585 51.18371582 2.65460324 28 22 3683 65.21200000 3178560054 3178560054 2.33300000
16.45745277 23.13222504 -1.32241452 2 23 3683 28.42000000 3178560054 3178560054 -2.66700000
16.95595551 21.51625061 -1.43567991 4 24 3684 27.43200000 3178560056 3178560056 -3.00000000
44.73796082 56.74983215 5.89924955 28 26 3685 72.50400000 3178560058 3178560058 4.66700000
16.60300446 25.91154671 -1.25378430 4 27 3685 30.80000000 3178560058 3178560058 -2.33300000
20.42868805 23.45087433 -1.08607233 4 28 3686 31.12000000 3178560061 3178560061 -2.00000000
21.03926277 29.53955841 -0.84389365 14 31 3686 36.27600000 3178560063 3178560063 -1.33300000
3.44596457 4.35552788 -2.58980465 12 0 3695 6.12800000 3178560084 3178560084 -25.00000000
21.09046364 32.78879929 -0.68050420 16 1 3695 38.99200000 3178560084 3178560084 -1.00000000
20.95501328 26.47659683 -0.98267823 12 2 3696 33.78000000 3178560086 3178560086 -1.66700000
5.36056519 7.49861240 -2.58037543 6 3 3696 9.57200000 3178560086 3178560086 -15.63900000
7.43080091 9.38542843 -2.39419985 4 4 3697 12.20800000 3178560089 3178560089 -11.31000000
21.14352798 29.56566048 0.00000000 16 5 3697 36.34800000 3178560089 3178560089 0.00000000
20.99820137 24.01140785 -0.37135056 12 6 3697 31.90000000 3178560091 3178560091 -0.66700000
8.29526329 11.59952831 -2.21859455 2 7 3697 14.43200000 3178560091 3178560091 -8.84300000
10.20431042 12.88387203 -2.09201193 2 8 3698 16.56800000 3178560093 3178560093 -7.25400000
21.03949738 26.55475807 -0.19690764 11 10 3699 33.88000000 3178560096 3178560096 -0.33300000
10.62603188 14.84775829 -1.96673024 3 11 3699 18.36400000 3178560096 3178560096 -6.14800000
13.11676407 14.98315907 -1.85888135 2 12 3700 20.00000000 3178560098 3178560098 -5.33300000
40.39538574 56.42367554 1.61474109 22 13 3700 69.41200000 3178560098 3178560098 1.33300000
13.87061501 19.36712646 -1.66578460 2 15 3701 23.88000000 3178560100 3178560100 -4.00000000
13.46986103 16.98255348 -1.76951456 2 16 3702 21.74800000 3178560102 3178560102 -4.66700000
40.14315414 62.24225616 2.15549231 28 17 3702 74.09600000 3178560102 3178560102 1.66700000
13.61316776 21.10731697 -1.60968339 3 19 3702 25.16800000 3178560105 3178560105 -3.66700000
16.73082352 19.09128571 -1.47835898 3 20 3703 25.42800000 3178560107 3178560107 -3.33300000
40.77688980 56.89359665 4.07647562 29 21 3703 70.11600000 3178560107 3178560107 3.33300000
40.30957413 50.78515244 2.64157677 28 22 3704 64.89200000 3178560109 3178560109 2.33300000
16.54911041 23.08149338 -1.32297289 2 23 3704 28.43200000 3178560109 3178560109 -2.66700000
17.04215431 21.46334457 -1.43630803 4 24 3705 27.44400000 3178560112 3178560112 -3.00000000
45.02996826 56.69161987 5.91031551 28 26 3706 72.64000000 3178560114 3178560114 4.66700000
16.69352531 25.84380531 -1.25345862 4 27 3706 30.79200000 3178560114 3178560114 -2.33300000
20.50659180 23.36682892 -1.08565354 4 28 3707 31.10800000 3178560116 3178560116 -2.00000000
21.04945183 29.32580185 -0.83998549 14 31 3707 36.10800000 3178560119 3178560119 -1.33300000
3.47922111 4.36615419 -2.60332847 14 0 3715 6.16000000 3178560139 3178560139 -25.00000000
21.09167480 32.54046249 -0.67687416 15 1 3715 38.78400000 3178560139 3178560139 -1.00000000
20.95010757 26.28135490 -0.97814012 12 2 3716 33.62400000 3178560142 3178560142 -1.66700000
5.38445616 7.47672939 -2.57929707 6 3 3716 9.56800000 3178560142 3178560142 -15.63900000
7.42194414 9.30729961 -2.38086390 21 4 3717 12.14000000 3178560144 3178560144 -11.31000000
21.13904953 29.34238434 0.00000000 16 5 3717 36.16400000 3178560144 3178560144 0.00000000
20.99465179 23.83890915 -0.36981392 18 6 3717 31.76800000 3178560146 3178560146 -0.66700000
8.32877254 11.56088161 -2.21674991 2 7 3717 14.42000000 3178560146 3178560146 -8.84300000
10.24674702 12.84507179 -2.09150696 2 8 3718 16.56400000 3178560149 3178560149 -7.25400000
21.04723549 26.37485504 -0.19611722 11 10 3719 33.74400000 3178560151 3178560151 -0.33300000
10.67546940 14.80735016 -1.96630180 3 11 3719 18.36000000 3178560151 3178560151 -6.14800000
13.15845013 14.92533207 -1.85739422 2 12 3720 19.98400000 3178560153 3178560153 -5.33300000
40.39326096 56.00663757 1.60683167 22 13 3720 69.07200000 3178560153 3178560153 1.33300000
40.88233185 46.35559082 0.71955866 28 14 3721 61.81200000 3178560155 3178560155 0.66700000
13.92646027 19.30241203 -1.66438949 2 15 3721 23.86000000 3178560155 3178560155 -4.00000000
13.52657127 16.93231773 -1.76918912 2 16 3722 21.74400000 3178560158 3178560158 -4.66700000
40.04206848 61.61228561 2.13850331 28 17 3722 73.51200000 3178560158 3178560158 1.66700000
13.68241215 21.05297470 -1.60917175 3 19 3722 25.16000000 3178560160 3178560160 -3.66700000
16.78943443 19.02378654 -1.47766137 3 20 3723 25.41600000 3178560162 3178560162 -3.33300000
40.82796860 56.54694366 4.06182480 29 21 3723 69.86400000 3178560162 3178560162 3.33300000
40.23204803 50.32571793 2.62496829 28 22 3724 64.48400000 3178560165 3178560165 2.33300000
16.55705261 22.92317200 -1.31720304 2 23 3724 28.30800000 3178560165 3178560165 -2.66700000
17.11946678 21.40684509 -1.43651736 4 24 3725 27.44800000 3178560167 3178560167 -3.00000000
45.01589203 56.26947784 5.88265133 28 26 3726 72.30000000 3178560169 3178560169 4.66700000
16.80107880 25.81217384 -1.25476122 4 27 3726 30.82400000 3178560169 3178560169 -2.33300000
20.51655579 23.21422958 -1.08188438 4 28 3727 31.00000000 3178560172 3178560172 -2.00000000
21.06264877 29.12900734 -0.83644944 9 31 3727 35.95600000 3178560174 3178560174 -1.33300000
3.53301549 4.40204620 -2.63206649 15 0 3735 6.22800000 3178560195 3178560195 -25.00000000
21.09359550 32.29587173 -0.67331386 23 1 3735 38.58000000 3178560195 3178560195 -1.00000000
20.95410728 26.09894371 -0.97406745 18 2 3736 33.48400000 3178560197 3178560197 -1.66700000
5.41052198 7.45788860 -2.57929707 6 3 3736 9.56800000 3178560197 3178560197 -15.63900000
7.46421194 9.29356766 -2.38400173 25 4 3737 12.15600000 3178560199 3178560199 -11.31000000
21.14736557 29.13892365 0.00000000 10 5 3737 36.00400000 3178560199 3178560199 0.00000000
20.99015808 23.66673088 -0.36827731 12 6 3737 31.63600000 3178560202 3178560202 -0.66700000
8.36443329 11.52534008 -2.21551991 1 7 3737 14.41200000 3178560202 3178560202 -8.84300000
10.30891895 12.83087826 -2.09504247 2 8 3738 16.59200000 3178560204 3178560204 -7.25400000
36.81758881 56.30606079 0.39100230 28 9 3738 67.27600000 3178560204 3178560204 0.33300000
21.03893852 26.17651749 -0.19518732 11 10 3739 33.58400000 3178560206 3178560206 -0.33300000
10.66866493 14.68954849 -1.95559216 3 11 3739 18.26000000 3178560206 3178560206 -6.14800000
13.21046925 14.87930965 -1.85739422 2 12 3740 19.98400000 3178560208 3178560208 -5.33300000
40.68958664 56.00441360 1.61083293 22 13 3740 69.24400000 3178560208 3178560208 1.33300000
40.83140945 45.97335815 0.71583349 28 14 3741 61.49200000 3178560211 3178560211 0.66700000
14.00079155 19.26336479 -1.66522658 2 15 3741 23.87200000 3178560211 3178560211 -4.00000000
13.51311684 16.79491997 -1.75975084 2 16 3742 21.62800000 3178560213 3178560213 -4.66700000
40.10794067 61.24468613 2.13059068 28 17 3742 73.24000000 3178560213 3178560213 1.66700000
13.74854565 20.98599052 -1.60789251 3 19 3743 25.14000000 3178560215 3178560215 -3.66700000
16.83716774 18.94417191 -1.47603345 3 20 3743 25.38800000 3178560218 3178560218 -3.33300000
40.68922043 55.94228363 4.02856922 57 21 3743 69.29200000 3178560218 3178560218 3.33300000
40.12423706 49.83320618 2.60656857 28 22 3744 64.03200000 3178560220 3178560220 2.33300000
16.64167023 22.87170029 -1.31757534 2 23 3744 28.31600000 3178560220 3178560220 -2.66700000
17.16652298 21.31273651 -1.43421459 4 24 3745 27.40400000 3178560222 3178560222 -3.00000000
45.17451096 56.06543350 5.87776947 28 26 3746 72.24000000 3178560225 3178560225 4.66700000
16.80778313 25.62637520 -1.24857366 4 27 3746 30.67200000 3178560225 3178560225 -2.33300000
20.58151817 23.12455559 -1.08104682 4 28 3747 30.97600000 3178560227 3178560227 -2.00000000
21.04647827 28.89369202 -0.83179682 9 31 3747 35.75600000 3178560229 3178560229 -1.33300000
3.51645446 4.35021639 -2.60839987 15 0 3755 6.17200000 3178560250 3178560250 -25.00000000
21.04789734 31.98150635 -0.66828758 23 1 3755 38.29200000 3178560250 3178560250 -1.00000000
20.94954872 25.90749741 -0.96964568 17 2 3756 33.33200000 3178560252 3178560252 -1.66700000
5.43424940 7.43584681 -2.57821870 6 3 3756 9.56400000 3178560252 3178560252 -15.63900000
7.49167395 9.26135731 -2.38243294 19 4 3757 12.14800000 3178560254 3178560254 -11.31000000
21.16396523 28.94868279 0.00000000 10 5 3757 35.86000000 3178560254 3178560254 0.00000000
20.99947739 23.50314331 -0.36692694 12 6 3758 31.52000000 3178560257 3178560257 -0.66700000
8.40195274 11.48822498 -2.21429014 2 7 3758 14.40400000 3178560257 3178560257 -8.84300000
10.33866787 12.77630806 -2.09201193 2 8 3758 16.56800000 3178560259 3178560259 -7.25400000
21.03454971 25.98477745 -0.19430390 16 10 3759 33.43200000 3178560261 3178560261 -0.33300000
10.71752834 14.64900875 -1.95516372 3 11 3759 18.25600000 3178560261 3178560261 -6.14800000
13.26763630 14.83904362 -1.85813785 2 12 3760 19.99200000 3178560264 3178560264 -5.33300000
40.16685104 54.88103867 1.58254492 21 13 3760 68.02800000 3178560264 3178560264 1.33300000
41.08496475 45.93489456 0.71746325 28 14 3761 61.63200000 3178560266 3178560266 0.66700000
14.04437542 19.18218040 -1.66243625 2 15 3761 23.83200000 3178560266 3178560266 -4.00000000
13.64696026 16.84057045 -1.76951456 2 16 3762 21.74800000 3178560268 3178560268 -4.66700000
40.22458267 60.95746994 2.12547088 28 17 3762 73.06400000 3178560268 3178560268 1.66700000
13.81586361 20.93695068 -1.60763669 3 19 3762 25.13600000 3178560271 3178560271 -3.66700000
16.90319443 18.88528252 -1.47603345 3 20 3763 25.38800000 3178560273 3178560273 -3.33300000
40.85120392 55.75481796 4.02531338 28 21 3763 69.23600000 3178560273 3178560273 3.33300000
40.06634521 49.40724945 2.59158826 28 22 3764 63.66400000 3178560275 3178560275 2.33300000
16.69069862 22.77157402 -1.31515563 2 23 3764 28.26400000 3178560275 3178560275 -2.66700000
17.17538452 21.17202950 -1.42877162 4 24 3765 27.30000000 3178560278 3178560278 -3.00000000
45.36491776 55.90121078 5.87711859 28 26 3766 72.23200000 3178560280 3178560280 4.66700000
16.89713287 25.56754875 -1.24857366 4 27 3766 30.67200000 3178560280 3178560280 -2.33300000
20.65143967 23.04066467 -1.08048844 4 28 3767 30.96000000 3178560282 3178560282 -2.00000000
21.04575348 28.67129326 -0.82760948 13 31 3768 35.57600000 3178560284 3178560284 -1.33300000
3.49041963 4.28731060 -2.57797146 23 0 3775 6.10000000 3178560305 3178560305 -25.00000000
21.04667854 31.73785210 -0.66472727 22 1 3775 38.08800000 3178560305 3178560305 -1.00000000
20.94138336 25.71330452 -0.96510756 17 2 3776 33.17600000 3178560307 3178560307 -1.66700000
5.45788860 7.41373062 -2.57714057 6 3 3776 9.56000000 3178560307 3178560307 -15.63900000
7.51652384 9.22602749 -2.38007951 3 4 3777 12.13600000 3178560310 3178560310 -11.31000000
21.20084190 28.78766823 0.00000000 10 5 3777 35.75200000 3178560310 3178560310 0.00000000
21.00113106 23.34049797 -0.36553001 17 6 3778 31.40000000 3178560312 3178560312 -0.66700000
8.43731499 11.45246220 -2.21306038 1 7 3778 14.39600000 3178560312 3178560312 -8.84300000
10.38320255 12.74014187 -2.09201193 2 8 3778 16.56800000 3178560314 3178560314 -7.25400000
21.03413391 25.79958725 -0.19346698 10 10 3779 33.28800000 3178560317 3178560317 -0.33300000
10.75915909 14.59870243 -1.95345020 3 11 3779 18.24000000 3178560317 3178560317 -6.14800000
13.30602837 14.77784157 -1.85627890 2 12 3780 19.97200000 3178560319 3178560319 -5.33300000
33.05635071 44.83654404 1.29622221 13 13 3780 55.72000000 3178560319 3178560319 1.33300000
41.14868927 45.68421173 0.71578693 28 14 3781 61.48800000 3178560321 3178560321 0.66700000
14.11598492 19.13946152 -1.66299438 2 15 3781 23.84000000 3178560321 3178560321 -4.00000000
13.63507938 16.70634842 -1.76040173 2 16 3782 21.63600000 3178560324 3178560324 -4.66700000
40.46590042 60.85997391 2.12698340 28 17 3782 73.11600000 3178560324 3178560324 1.66700000
28.78801727 35.27244949 0.79471278 11 18 3782 45.53600000 3178560326 3178560326 1.00000000
13.87560177 20.86865234 -1.60610175 3 19 3782 25.11200000 3178560326 3178560326 -3.66700000
16.95831871 18.81430054 -1.47510326 3 20 3783 25.37200000 3178560328 3178560328 -3.33300000
40.60924911 55.02070999 3.98252296 27 21 3783 68.50000000 3178560328 3178560328 3.33300000
40.08687592 49.08136368 2.58181858 28 22 3784 63.42400000 3178560331 3178560331 2.33300000
16.76059151 22.70031738 -1.31441116 2 23 3784 28.24800000 3178560331 3178560331 -2.66700000
17.24918365 21.11194611 -1.42877162 4 24 3785 27.30000000 3178560333 3178560333 -3.00000000
45.79693222 56.03268433 5.90771151 28 26 3786 72.60800000 3178560335 3178560335 4.66700000
16.97741699 25.49510384 -1.24792242 4 27 3786 30.65600000 3178560335 3178560335 -2.33300000
20.71834755 22.95359993 -1.07979047 4 28 3787 30.94000000 3178560337 3178560337 -2.00000000
21.04326057 28.46949768 -0.82379431 9 31 3787 35.41200000 3178560340 3178560340 -1.33300000
3.50002146 4.27010489 -2.57459044 21 0 3794 6.09200000 3178560360 3178560360 -25.00000000
21.03852081 31.49827003 -0.66116697 22 1 3794 37.88400000 3178560360 3178560360 -1.00000000
20.94034195 25.53859520 -0.96115124 17 2 3795 33.04000000 3178560363 3178560363 -1.66700000
5.47785568 7.38940191 -2.57498384 7 3 3795 9.55200000 3178560363 3178560363 -15.63900000
21.28665733 28.70435333 0.00000000 5 5 3796 35.73600000 3178560365 3178560365 0.00000000
20.98844528 23.17952919 -0.36403996 17 6 3796 31.27200000 3178560367 3178560367 -0.66700000
8.46618938 11.41637516 -2.21121573 2 7 3796 14.38400000 3178560367 3178560367 -8.84300000
10.42035961 12.69950485 -2.09100175 2 8 3797 16.56000000 3178560370 3178560370 -7.25400000
21.03582573 25.62766647 -0.19269980 10 10 3798 33.15600000 3178560372 3178560372 -0.33300000
10.80277157 14.55655670 -1.95259345 3 11 3798 18.23200000 3178560372 3178560372 -6.14800000
13.33356285 14.71002960 -1.85330474 2 12 3799 19.94000000 3178560374 3178560374 -5.33300000
33.26444626 44.80694962 1.29854846 13 13 3799 55.82000000 3178560374 3178560374 1.33300000
41.05009460 45.27194595 0.71145642 28 14 3800 61.11600000 3178560377 3178560377 0.66700000
14.17461872 19.08613968 -1.66243625 2 15 3800 23.83200000 3178560377 3178560377 -4.00000000
13.67521858 16.64256096 -1.75844896 2 16 3801 21.61200000 3178560379 3178560379 -4.66700000
40.39384079 60.31682587 2.11267090 28 17 3801 72.62400000 3178560379 3178560379 1.66700000
28.65091896 34.86779022 0.78773183 11 18 3801 45.13600000 3178560381 3178560381 1.00000000
13.94694996 20.82584190 -1.60635757 3 19 3801 25.11600000 3178560381 3178560381 -3.66700000
17.01524925 18.75204659 -1.47463810 3 20 3802 25.36400000 3178560384 3178560384 -3.33300000
40.56995773 54.58767319 3.96089530 27 21 3802 68.12800000 3178560384 3178560384 3.33300000
40.23672104 48.93272781 2.58100438 28 22 3803 63.40400000 3178560386 3178560386 2.33300000
16.81670380 22.61895943 -1.31292224 2 23 3803 28.21600000 3178560386 3178560386 -2.66700000
17.30133629 21.03303528 -1.42730618 4 24 3804 27.27200000 3178560388 3178560388 -3.00000000
45.64304352 55.46799088 5.86410046 28 26 3805 72.07200000 3178560390 3178560390 4.66700000
17.03960609 25.40547180 -1.24629414 4 27 3805 30.61600000 3178560390 3178560390 -2.33300000
20.78628540 22.87589264 -1.07937169 4 28 3806 30.92800000 3178560393 3178560393 -2.00000000
50.13673782 60.88565063 14.38036060 28 30 3807 80.17200000 3178560395 3178560395 10.33300000
21.03265381 28.24832535 -0.81951392 13 31 3807 35.22800000 3178560395 3178560395 -1.33300000
3.52800679 4.27525187 -2.58473325 13 0 3813 6.11600000 3178560416 3178560416 -25.00000000
21.03123665 31.26241112 -0.65767646 22 1 3813 37.68400000 3178560416 3178560416 -1.00000000
20.93073654 25.35492897 -0.95684582 17 2 3814 32.89200000 3178560418 3178560418 -1.66700000
5.50693798 7.37736940 -2.57714057 6 3 3814 9.56000000 3178560418 3178560418 -15.63900000
7.58004522 9.17899799 -2.38086390 3 4 3815 12.14000000 3178560420 3178560420 -11.31000000
21.42959404 28.69770622 0.00000000 5 5 3815 35.81600000 3178560420 3178560420 0.00000000
20.98166847 23.01816750 -0.36259645 17 6 3815 31.14800000 3178560423 3178560423 -0.66700000
8.49690628 11.37873650 -2.20937085 2 7 3815 14.37200000 3178560423 3178560423 -8.84300000
10.44977951 12.64958382 -2.08847642 2 8 3816 16.54000000 3178560425 3178560425 -7.25400000
21.01877213 25.43443489 -0.19176990 15 10 3817 32.99600000 3178560427 3178560427 -0.33300000
10.84384155 14.51109600 -1.95130825 3 11 3817 18.22000000 3178560427 3178560427 -6.14800000
13.38226986 14.66573334 -1.85330474 2 12 3818 19.94000000 3178560430 3178560430 -5.33300000
33.30989075 44.55867004 1.29454720 13 13 3818 55.64800000 3178560430 3178560430 1.33300000
41.05438232 44.97604752 0.70894194 28 14 3819 60.90000000 3178560432 3178560432 0.66700000
14.23305321 19.03263855 -1.66187823 2 15 3819 23.82400000 3178560432 3178560432 -4.00000000
13.72779083 16.59404755 -1.75812352 2 16 3820 21.60800000 3178560434 3178560434 -4.66700000
40.31192398 59.76488495 2.09800935 28 17 3820 72.12000000 3178560434 3178560434 1.66700000
13.96012974 20.69674301 -1.59996176 3 19 3820 25.01600000 3178560437 3178560437 -3.66700000
16.97769165 18.58642960 -1.46603358 3 20 3821 25.21600000 3178560439 3178560439 -3.33300000
40.39186478 53.97327805 3.92601180 26 21 3821 67.52800000 3178560439 3178560439 3.33300000
40.26878738 48.64202118 2.57270002 28 22 3822 63.20000000 3178560441 3178560441 2.33300000
16.84372711 22.49909592 -1.30919969 2 23 3822 28.13600000 3178560441 3178560441 -2.66700000
17.37608337 20.98169899 -1.42772484 4 24 3823 27.28000000 3178560443 3178560443 -3.00000000
45.99205017 55.51588058 5.88525486 28 26 3824 72.33200000 3178560446 3178560446 4.66700000
17.11481094 25.33558083 -1.24564278 4 27 3824 30.60000000 3178560446 3178560446 -2.33300000
20.86203003 22.80683708 -1.07937169 4 28 3825 30.92800000 3178560448 3178560448 -2.00000000
50.44636154 60.84932327 14.41121197 28 30 3826 80.34400000 3178560450 3178560450 10.33300000
21.02066612 28.03764343 -0.81541961 13 31 3826 35.05200000 3178560450 3178560450 -1.33300000
3.55292320 4.27344275 -2.59149528 14 0 3834 6.13200000 3178560471 3178560471 -25.00000000
21.03345299 31.01960945 -0.65418601 22 1 3834 37.48400000 3178560471 3178560471 -1.00000000
20.93148613 25.16737556 -0.95265681 17 2 3835 32.74800000 3178560473 3178560473 -1.66700000
5.53394032 7.35713625 -2.57714057 6 3 3835 9.56000000 3178560473 3178560473 -15.63900000
7.61112833 9.14813900 -2.38007951 3 4 3836 12.13600000 3178560476 3178560476 -11.31000000
21.43121529 28.48153305 0.00000000 5 5 3836 35.64400000 3178560476 3178560476 0.00000000
20.98203087 22.84978294 -0.36115298 17 6 3836 31.02400000 3178560478 3178560478 -0.66700000
8.53380108 11.34120178 -2.20814109 2 7 3836 14.36400000 3178560478 3178560478 -8.84300000
10.48338032 12.59594917 -2.08595109 4 8 3837 16.52000000 3178560480 3178560480 -7.25400000
21.02227592 25.24963760 -0.19095623 15 10 3838 32.85600000 3178560483 3178560483 -0.33300000
10.88738537 14.45854568 -1.94959462 3 11 3838 18.20400000 3178560483 3178560483 -6.14800000
13.43862724 14.61951828 -1.85367656 2 12 3839 19.94400000 3178560485 3178560485 -5.33300000
33.55960083 44.55127335 1.29789710 13 13 3839 55.79200000 3178560485 3178560485 1.33300000
41.04568481 44.63684845 0.70596182 28 14 3840 60.64400000 3178560487 3178560487 0.66700000
14.22106743 18.87199402 -1.65239131 2 15 3840 23.68800000 3178560487 3178560487 -4.00000000
13.78596592 16.54055977 -1.75779808 2 16 3841 21.60400000 3178560490 3178560490 -4.66700000
40.26993942 59.23317719 2.08451128 28 17 3841 71.65600000 3178560490 3178560490 1.66700000
14.03364849 20.64213562 -1.59970593 3 19 3841 25.01200000 3178560492 3178560492 -3.66700000
17.06733322 18.54758644 -1.46789396 3 20 3842 25.24800000 3178560494 3178560494 -3.33300000
40.24559784 53.36894226 3.89275622 51 21 3842 66.95600000 3178560494 3178560494 3.33300000
40.12936783 48.11351395 2.55250931 28 22 3843 62.70400000 3178560496 3178560496 2.33300000
16.91885757 22.42764091 -1.30864131 2 23 3843 28.12400000 3178560496 3178560496 -2.66700000
17.42471886 20.88413429 -1.42542207 4 24 3844 27.23600000 3178560499 3178560499 -3.00000000
46.38936996 55.57955551 5.90998983 28 26 3845 72.63600000 3178560501 3178560501 4.66700000
17.20305634 25.26607323 -1.24531710 4 27 3845 30.59200000 3178560501 3178560501 -2.33300000
20.92922783 22.71258163 -1.07853401 9 28 3846 30.90400000 3178560503 3178560503 -2.00000000
21.02686691 27.83278084 -0.81169748 13 31 3847 34.89200000 3178560506 3178560506 -1.33300000
3.52127171 4.20542431 -2.55768561 14 0 3854 6.05200000 3178560526 3178560526 -25.00000000
21.09196854 30.87335014 -0.65265018 22 1 3854 37.39600000 3178560526 3178560526 -1.00000000
20.93705177 24.99607468 -0.94893324 16 2 3855 32.62000000 3178560529 3178560529 -1.66700000
5.55260944 7.32856369 -2.57390547 7 3 3855 9.54800000 3178560529 3178560529 -15.63900000
7.63797665 9.11550236 -2.37851048 3 4 3856 12.12800000 3178560531 3178560531 -11.31000000
21.50151062 28.36829758 0.00000000 5 5 3856 35.59600000 3178560531 3178560531 0.00000000
20.98291206 22.69124031 -0.35980260 17 6 3856 30.90800000 3178560533 3178560533 -0.66700000
8.56617451 11.30189419 -2.20629644 1 7 3856 14.35200000 3178560533 3178560533 -8.84300000
10.49669743 12.52278709 -2.07989025 2 8 3857 16.47200000 3178560536 3178560536 -7.25400000
38.92063522 56.90605164 0.40069658 28 9 3857 68.94400000 3178560536 3178560536 0.33300000
21.02547455 25.07495499 -0.19018906 15 10 3858 32.72400000 3178560538 3178560538 -0.33300000
10.93538475 14.41728497 -1.94916630 3 11 3858 18.20000000 3178560538 3178560538 -6.14800000
13.49228287 14.57544231 -1.85404825 2 12 3859 19.94800000 3178560540 3178560540 -5.33300000
40.27032089 53.07341766 1.55025566 20 13 3859 66.64000000 3178560540 3178560540 1.33300000
40.99470901 44.27025986 0.70242298 28 14 3860 60.34000000 3178560542 3178560542 0.66700000
14.27479458 18.80634689 -1.65099621 2 15 3860 23.66800000 3178560542 3178560542 -4.00000000
13.82824039 16.47401428 -1.75584531 2 16 3861 21.58000000 3178560545 3178560545 -4.66700000
40.24147034 58.74918747 2.07240963 28 17 3861 71.24000000 3178560545 3178560545 1.66700000
14.08305931 20.56009102 -1.59714770 3 19 3861 24.97200000 3178560547 3178560547 -3.66700000
17.14282799 18.49961281 -1.46882427 3 20 3862 25.26400000 3178560549 3178560549 -3.33300000
40.29155350 53.04370117 3.87926793 25 21 3862 66.72400000 3178560549 3178560549 3.33300000
40.17367935 47.82624817 2.54469347 28 22 3863 62.51200000 3178560552 3178560552 2.33300000
16.97528458 22.33981323 -1.30696619 2 23 3863 28.08800000 3178560552 3178560552 -2.66700000
17.49494171 20.82012367 -1.42521274 4 24 3864 27.23200000 3178560554 3178560554 -3.00000000
105.25640106 125.21761322 13.35386276 28 26 3865 164.12400000 3178560556 3178560556 4.66700000
17.21427727 25.09381485 -1.23978090 4 27 3865 30.45600000 3178560556 3178560556 -2.33300000
20.90233421 22.52510643 -1.07308972 13 28 3866 30.74800000 3178560559 3178560559 -2.00000000
21.02218437 27.62555695 -0.80778927 9 31 3867 34.72400000 3178560561 3178560561 -1.33300000
3.55930042 4.22082090 -2.57459044 15 0 3874 6.09200000 3178560582 3178560582 -25.00000000
21.02954102 30.55245399 -0.64741445 14 1 3874 37.09600000 3178560582 3178560582 -1.00000000
20.93136787 24.81281662 -0.94474417 16 2 3875 32.47600000 3178560584 3178560584 -1.66700000
5.57348299 7.30301285 -2.57174897 7 3 3875 9.54000000 3178560584 3178560584 -15.63900000
7.68998575 9.11276627 -2.38478637 3 4 3876 12.16000000 3178560586 3178560586 -11.31000000
28.55214500 37.39873886 0.00000000 8 5 3876 47.05200000 3178560586 3178560586 0.00000000
20.98839569 22.53882599 -0.35854536 16 6 3876 30.80000000 3178560589 3178560589 -0.66700000
8.60557365 11.27192402 -2.20629644 1 7 3876 14.35200000 3178560589 3178560589 -8.84300000
10.53522682 12.48000622 -2.07888007 2 8 3877 16.46400000 3178560591 3178560591 -7.25400000
32.55986023 47.25111389 0.33351085 23 9 3877 57.38400000 3178560591 3178560591 0.33300000
21.01996803 24.89139366 -0.18935215 15 10 3878 32.58000000 3178560593 3178560593 -0.33300000
10.98081493 14.37270546 -1.94830954 3 11 3878 18.19200000 3178560593 3178560593 -6.14800000
13.54036236 14.52534294 -1.85367656 2 12 3879 19.94400000 3178560595 3178560595 -5.33300000
39.98910141 52.32249832 1.53238952 20 13 3879 65.87200000 3178560595 3178560595 1.33300000
41.07534027 44.04791260 0.70116574 28 14 3880 60.23200000 3178560598 3178560598 0.66700000
14.33792973 18.75323486 -1.65071714 2 15 3880 23.66400000 3178560598 3178560598 -4.00000000
13.88051319 16.41955566 -1.75519443 2 16 3881 21.57200000 3178560600 3178560600 -4.66700000
40.15788269 58.19043350 2.05763173 28 17 3881 70.73200000 3178560600 3178560600 1.66700000
29.39315414 34.76979065 0.79471278 11 18 3881 45.53600000 3178560602 3178560602 1.00000000
14.15247440 20.50752068 -1.59689188 3 19 3881 24.96800000 3178560602 3178560602 -3.66700000
17.17460632 18.40462685 -1.46603358 3 20 3882 25.21600000 3178560605 3178560605 -3.33300000
40.34785843 52.73464966 3.86694264 50 21 3882 66.51200000 3178560605 3178560605 3.33300000
40.29649734 47.63385391 2.54192543 28 22 3883 62.44400000 3178560607 3178560607 2.33300000
17.04587746 22.27090454 -1.30640781 2 23 3883 28.07600000 3178560607 3178560607 -2.66700000
17.55718994 20.74673271 -1.42437541 4 24 3884 27.21600000 3178560609 3178560609 -3.00000000
105.91180420 125.10807800 13.38152695 28 26 3885 164.46400000 3178560612 3178560612 4.66700000
17.28586006 25.01055717 -1.23864114 4 27 3885 30.42800000 3178560612 3178560612 -2.33300000
20.86347008 22.32641220 -1.06708705 9 28 3886 30.57600000 3178560614 3178560614 -2.00000000
21.02125549 27.43507195 -0.80425328 13 31 3886 34.57200000 3178560616 3178560616 -1.33300000
3.52238488 4.14758015 -2.53740001 16 0 3894 6.00400000 3178560637 3178560637 -25.00000000
21.03350258 30.33097076 -0.64427304 14 1 3894 36.91600000 3178560637 3178560637 -1.00000000
20.92724800 24.63295364 -0.94067150 16 2 3895 32.33600000 3178560639 3178560639 -1.66700000
5.59894133 7.28351307 -2.57174897 8 3 3895 9.54000000 3178560639 3178560639 -15.63900000
7.71666861 9.07989025 -2.38321733 3 4 3896 12.15200000 3178560642 3178560642 -11.31000000
28.52890015 37.09908295 0.00000000 8 5 3896 46.80000000 3178560642 3178560642 0.00000000
20.97782326 22.36256599 -0.35696217 16 6 3897 30.66400000 3178560644 3178560644 -0.66700000
8.63718987 11.22777557 -2.20383668 1 7 3897 14.33600000 3178560644 3178560644 -8.84300000
10.56587505 12.42803955 -2.07635474 2 8 3897 16.44400000 3178560646 3178560646 -7.25400000
32.61054230 46.97288513 0.33234847 22 9 3897 57.18400000 3178560646 3178560646 0.33300000
21.02380371 24.72036362 -0.18860823 10 10 3898 32.45200000 3178560648 3178560648 -0.33300000
11.02606773 14.32798386 -1.94745278 3 11 3898 18.18400000 3178560648 3178560648 -6.14800000
13.59370899 14.48089409 -1.85404825 2 12 3899 19.94800000 3178560651 3178560651 -5.33300000
40.19345093 52.21110916 1.53322709 20 13 3899 65.90800000 3178560651 3178560651 1.33300000
41.00706863 43.66809464 0.69739401 28 14 3900 59.90800000 3178560653 3178560653 0.66700000
14.40330410 18.70307159 -1.65071714 4 15 3900 23.66400000 3178560653 3178560653 -4.00000000
13.95066643 16.38618279 -1.75682175 2 16 3901 21.59200000 3178560655 3178560655 -4.66700000
40.33565140 58.01379013 2.05635166 28 17 3901 70.68800000 3178560655 3178560655 1.66700000
29.65005112 34.81406403 0.79820329 11 18 3902 45.73600000 3178560658 3178560658 1.00000000
14.22298431 20.44895744 -1.59638023 3 19 3902 24.96000000 3178560658 3178560658 -3.66700000
17.25515366 18.36202431 -1.46742892 3 20 3902 25.24000000 3178560660 3178560660 -3.33300000
40.38543701 52.40370941 3.85298920 24 21 3902 66.27200000 3178560660 3178560660 3.33300000
40.36144257 47.37425232 2.53557515 28 22 3903 62.28800000 3178560662 3178560662 2.33300000
17.11863327 22.20493889 -1.30603564 2 23 3903 28.06800000 3178560662 3178560662 -2.66700000
17.64245796 20.70051956 -1.42542207 4 24 3904 27.23600000 3178560665 3178560665 -3.00000000
106.80051422 125.26853180 13.43848228 28 26 3905 165.16400000 3178560667 3178560667 4.66700000
17.37534142 24.95334625 -1.23880398 4 27 3905 30.43200000 3178560667 3178560667 -2.33300000
20.86456871 22.17193413 -1.06317830 9 28 3906 30.46400000 3178560669 3178560669 -2.00000000
48.02690125 62.22928619 21.06269455 28 29 3906 81.38000000 3178560669 3178560669 15.00000000
21.01672173 27.23173141 -0.80043811 13 31 3906 34.40800000 3178560672 3178560672 -1.33300000
3.52270317 4.11872959 -2.52725720 10 0 3914 5.98000000 3178560692 3178560692 -25.00000000
21.03388405 30.10655403 -0.64106178 14 1 3914 36.73200000 3178560692 3178560692 -1.00000000
20.91952896 24.45038223 -0.93648249 16 2 3915 32.19200000 3178560695 3178560695 -1.66700000
5.61961508 7.25783348 -2.56959224 6 3 3915 9.53200000 3178560695 3178560695 -15.63900000
7.78912354 9.10057735 -2.39576888 1 4 3916 12.21600000 3178560697 3178560697 -11.31000000
28.51616096 36.81585693 0.00000000 8 5 3916 46.56800000 3178560697 3178560697 0.00000000
20.97884941 22.20779228 -0.35565838 16 6 3917 30.55200000 3178560699 3178560699 -0.66700000
8.67390823 11.19443417 -2.20322180 1 7 3917 14.33200000 3178560699 3178560699 -8.84300000
10.60403156 12.38505363 -2.07534456 2 8 3917 16.43600000 3178560701 3178560701 -7.25400000
32.63217163 46.65554428 0.33090711 22 9 3917 56.93600000 3178560701 3178560701 0.33300000
21.03190613 24.55568886 -0.18791080 10 10 3918 32.33200000 3178560704 3178560704 -0.33300000
11.06870461 14.27997875 -1.94616759 3 11 3918 18.17200000 3178560704 3178560704 -6.14800000
13.64417362 14.43335438 -1.85404825 2 12 3919 19.94800000 3178560706 3178560706 -5.33300000
40.20392990 51.84927750 1.52671337 20 13 3919 65.62800000 3178560706 3178560706 1.33300000
40.96138000 43.31544495 0.69404137 28 14 3920 59.62000000 3178560708 3178560708 0.66700000
14.46850204 18.65267944 -1.65071714 2 15 3920 23.66400000 3178560708 3178560708 -4.00000000
14.01037407 16.34041214 -1.75714719 2 16 3921 21.59600000 3178560711 3178560711 -4.66700000
40.60443497 57.96760941 2.05972624 28 17 3921 70.80400000 3178560711 3178560711 1.66700000
40.26156235 46.95737839 1.07967567 28 18 3921 61.86400000 3178560713 3178560713 1.00000000
14.27239609 20.37552452 -1.59433353 3 19 3921 24.92800000 3178560713 3178560713 -3.66700000
17.31090927 18.29297829 -1.46673119 3 20 3922 25.22800000 3178560715 3178560715 -3.33300000
40.47751617 52.14570618 3.84438467 49 21 3922 66.12400000 3178560715 3178560715 3.33300000
40.33657837 47.01165390 2.52368855 28 22 3923 61.99600000 3178560718 3178560718 2.33300000
17.18378639 22.12926865 -1.30510497 2 23 3923 28.04800000 3178560718 3178560718 -2.66700000
17.63395691 20.54484558 -1.41893244 4 24 3924 27.11200000 3178560720 3178560720 -3.00000000
17.45774841 24.88599968 -1.23847830 4 27 3925 30.42400000 3178560722 3178560722 -2.33300000
20.86209488 22.01482201 -1.05912995 9 28 3926 30.34800000 3178560725 3178560725 -2.00000000
21.01102448 27.02875710 -0.79662299 13 31 3926 34.24400000 3178560727 3178560727 -1.33300000
3.51505303 4.08230066 -2.51204300 14 0 3933 5.94400000 3178560747 3178560747 -25.00000000
21.02544022 29.88290405 -0.63778073 14 1 3933 36.54400000 3178560747 3178560747 -1.00000000
20.92743111 24.29605293 -0.93322432 16 2 3934 32.08000000 3178560749 3178560749 -1.66700000
5.64838839 7.24523401 -2.57174897 6 3 3934 9.54000000 3178560749 3178560749 -15.63900000
7.80901814 9.06281185 -2.39263105 1 4 3935 12.20000000 3178560752 3178560752 -11.31000000
28.51263428 36.56022644 0.00000000 8 5 3935 46.36400000 3178560752 3178560752 0.00000000
20.96584129 22.05480957 -0.35426146 16 6 3935 30.43200000 3178560754 3178560754 -0.66700000
8.69931126 11.15466213 -2.20076227 1 7 3935 14.31600000 3178560754 3178560754 -8.84300000
10.63727093 12.34080505 -2.07382941 2 8 3936 16.42400000 3178560756 3178560756 -7.25400000
32.59091949 46.26911545 0.32893106 43 9 3936 56.59600000 3178560756 3178560756 0.33300000
21.04008293 24.40098953 -0.18725985 10 10 3937 32.22000000 3178560759 3178560759 -0.33300000
11.11599827 14.24319458 -1.94616759 3 11 3937 18.17200000 3178560759 3178560759 -6.14800000
