# .PCD v0.7 - Point Cloud Data file format
VERSION 0.7
FIELDS x y z intensity laser_id azimuth distance_m adjustedtime timestamp vertical_angle
SIZE 4 4 4 1 1 2 8 8 4 8
TYPE F F F U U U F U U F
COUNT 1 1 1 1 1 1 1 1 1 1
WIDTH 509
HEIGHT 1
VIEWPOINT 0 0 0 1 0 0 0
POINTS 509
DATA ascii
40.31064606 -46.53588104 1.43263721 36 13 14050 61.58400000 3186088869 3186088869 1.33300000
38.74588776 -54.74303436 0.78079075 28 14 14051 67.07200000 3186088871 3186088871 0.66700000
19.98746109 -23.08229637 -2.13510609 24 15 14051 30.60800000 3186088871 3186088871 -4.00000000
19.28979492 -24.61888123 -2.55321717 5 16 14052 31.38000000 3186088874 3186088874 -4.66700000
42.94453049 -44.97029877 1.80966389 28 17 14052 62.20800000 3186088874 3186088874 1.66700000
40.99110413 -52.31549072 1.16009641 28 18 14052 66.47200000 3186088876 3186088876 1.00000000
20.10029602 -21.04846382 -1.86525762 13 19 14052 29.16400000 3186088876 3186088876 -3.66700000
20.07211113 -28.38035583 -2.02440071 21 20 14053 34.82000000 3186088878 3186088878 -3.33300000
39.32232285 -45.44298935 3.49973655 34 21 14053 60.19600000 3186088878 3186088878 3.33300000
40.77756882 -52.08039856 2.69482207 57 22 14054 66.20000000 3186088881 3186088881 2.33300000
26.93483543 -31.13832474 -1.91782677 5 23 14054 41.21600000 3186088881 3186088881 -2.66700000
20.01619720 -25.57353210 -1.70196533 12 24 14055 32.52000000 3186088883 3186088883 -3.00000000
38.21778107 -40.07656097 -2.25616026 21 27 14056 55.42400000 3186088885 3186088885 -2.33300000
39.03424835 -55.27311325 -2.36297512 24 28 14057 67.70800000 3186088888 3186088888 -2.00000000
3.67267871 -4.70758486 -2.78420901 20 0 14064 6.58800000 3186088911 3186088911 -25.00000000
38.84080887 -40.84392548 -0.98382705 21 1 14064 56.37200000 3186088911 3186088911 -1.00000000
6.73350048 -7.81461191 -2.88769126 6 3 14065 10.71200000 3186088913 3186088913 -15.63900000
8.83363342 -11.33097363 -2.87351060 1 4 14066 14.65200000 3186088916 3186088916 -11.31000000
38.50763321 -44.70608521 0.00000000 59 5 14066 59.00400000 3186088916 3186088916 0.00000000
38.10287094 -54.13452530 -0.77068627 29 6 14066 66.20400000 3186088918 3186088918 -0.66700000
11.34971046 -13.17663765 -2.70560312 2 7 14066 17.60000000 3186088918 3186088918 -8.84300000
13.32487583 -17.09807968 -2.75921321 4 8 14067 21.85200000 3186088920 3186088920 -7.25400000
38.55194092 -40.58269119 0.32532769 41 9 14067 55.97600000 3186088920 3186088920 0.33300000
38.26435471 -49.11734772 -0.36187300 56 10 14068 62.26400000 3186088923 3186088923 -0.33300000
15.54331398 -18.05801582 -2.56647372 2 11 14068 23.96400000 3186088923 3186088923 -6.14800000
16.83844757 -23.94980240 -2.73292732 4 12 14069 29.40400000 3186088925 3186088925 -5.33300000
40.08829117 -46.59048843 1.43021786 53 13 14069 61.48000000 3186088925 3186088925 1.33300000
38.77802658 -55.17555237 0.78512120 57 14 14070 67.44400000 3186088927 3186088927 0.66700000
19.99147034 -23.24222946 -2.14375591 24 15 14070 30.73200000 3186088927 3186088927 -4.00000000
19.29864311 -24.79912567 -2.56525922 5 16 14071 31.52800000 3186088929 3186088929 -4.66700000
41.19364929 -43.42422485 1.74194121 27 17 14071 59.88000000 3186088929 3186088929 1.66700000
40.93529129 -52.60263443 1.16344726 28 18 14071 66.66400000 3186088932 3186088932 1.00000000
20.09906769 -21.18740273 -1.87165344 13 19 14071 29.26400000 3186088932 3186088932 -3.66700000
20.01231194 -28.49577904 -2.02788901 14 20 14072 34.88000000 3186088934 3186088934 -3.33300000
39.25210190 -45.66701508 3.50694585 34 21 14072 60.32000000 3186088934 3186088934 3.33300000
40.97756195 -52.69489670 2.71957207 57 22 14073 66.80800000 3186088936 3186088936 2.33300000
26.89652824 -31.30323792 -1.92247987 5 23 14073 41.31600000 3186088936 3186088936 -2.66700000
20.01463509 -25.74699402 -1.70908296 12 24 14074 32.65600000 3186088939 3186088939 -3.00000000
38.21385574 -40.33944702 -2.26381326 21 27 14075 55.61200000 3186088941 3186088941 -2.33300000
39.08026123 -55.72955322 -2.37693501 24 28 14076 68.10800000 3186088943 3186088943 -2.00000000
3.68286300 -4.75476885 -2.80449486 22 0 14084 6.63600000 3186088966 3186088966 -25.00000000
38.77213669 -41.05776596 -0.98571193 43 1 14084 56.48000000 3186088966 3186088966 -1.00000000
6.71619797 -7.84977579 -2.89200449 6 3 14085 10.72800000 3186088969 3186088969 -15.63900000
8.80603123 -11.37724876 -2.87743282 1 4 14086 14.67200000 3186088971 3186088971 -11.31000000
38.49434280 -45.00741959 0.00000000 40 5 14086 59.22400000 3186088971 3186088971 0.00000000
38.05569839 -54.47048569 -0.77357328 29 6 14086 66.45200000 3186088973 3186088973 -0.66700000
11.31135368 -13.22518635 -2.70744777 2 7 14086 17.61200000 3186088973 3186088973 -8.84300000
13.29182148 -17.17900848 -2.76476908 4 8 14087 21.89600000 3186088976 3186088976 -7.25400000
38.50611115 -40.81885147 0.32614136 42 9 14087 56.11600000 3186088976 3186088976 0.33300000
38.40101242 -49.64927673 -0.36480221 56 10 14088 62.76800000 3186088978 3186088978 -0.33300000
15.50085640 -18.13634682 -2.56990075 2 11 14088 23.99600000 3186088978 3186088978 -6.14800000
16.81856346 -24.09988022 -2.74333715 4 12 14089 29.51600000 3186088980 3186088980 -5.33300000
40.04490662 -46.86999512 1.43449831 18 13 14089 61.66400000 3186088980 3186088980 1.33300000
38.60807419 -55.34337997 0.78558683 28 14 14090 67.48400000 3186088982 3186088982 0.66700000
19.98278046 -23.39682961 -2.15156865 24 15 14090 30.84400000 3186088982 3186088982 -4.00000000
19.22658348 -24.88526917 -2.56721187 5 16 14091 31.55200000 3186088985 3186088985 -4.66700000
43.35847473 -46.02698898 1.84026718 28 17 14091 63.26000000 3186088985 3186088985 1.66700000
40.83700562 -52.85597610 1.16589057 28 18 14091 66.80400000 3186088987 3186088987 1.00000000
20.09615326 -21.33297920 -1.87830508 13 19 14091 29.36800000 3186088987 3186088987 -3.66700000
20.02005005 -28.71942711 -2.03881907 14 20 14092 35.06800000 3186088989 3186088989 -3.33300000
40.49231720 -47.44393921 3.63252592 20 21 14092 62.48000000 3186088989 3186088989 3.33300000
40.94724655 -53.03691864 2.72983027 57 22 14093 67.06000000 3186088992 3186088992 2.33300000
26.91676521 -31.54891777 -1.93178618 5 23 14093 41.51600000 3186088992 3186088992 -2.66700000
20.00761795 -25.92421913 -1.71620071 13 24 14094 32.79200000 3186088994 3186088994 -3.00000000
38.19878006 -40.60649872 -2.27130342 21 27 14095 55.79600000 3186088996 3186088996 -2.33300000
39.00653076 -56.03952026 -2.38433361 24 28 14096 68.32000000 3186088999 3186088999 -2.00000000
3.71486115 -4.83081865 -2.84168530 23 0 14104 6.72400000 3186089022 3186089022 -25.00000000
38.74895477 -41.32121658 -0.98878354 22 1 14104 56.65600000 3186089022 3186089022 -1.00000000
38.49385071 -50.07562256 -1.83817267 28 2 14105 63.18800000 3186089024 3186089024 -1.66700000
6.69374418 -7.87904310 -2.89416099 5 3 14105 10.73600000 3186089024 3186089024 -15.63900000
8.81645203 -11.47323036 -2.89390683 1 4 14106 14.75600000 3186089026 3186089026 -11.31000000
38.53120041 -45.37018204 0.00000000 41 5 14106 59.52400000 3186089026 3186089026 0.00000000
38.07501984 -54.90537262 -0.77785718 29 6 14106 66.82000000 3186089029 3186089029 -0.66700000
11.28047085 -13.28266525 -2.71113729 2 7 14106 17.63600000 3186089029 3186089029 -8.84300000
13.24386024 -17.24103546 -2.76729441 2 8 14107 21.91600000 3186089031 3186089031 -7.25400000
38.54113770 -41.14275742 0.32765245 43 9 14107 56.37600000 3186089031 3186089031 0.33300000
38.34440613 -49.93530273 -0.36591810 56 10 14108 62.96000000 3186089033 3186089033 -0.33300000
15.44774723 -18.20247459 -2.57161427 2 11 14108 24.01200000 3186089033 3186089033 -6.14800000
16.74794388 -24.17808533 -2.74556780 4 12 14109 29.54000000 3186089035 3186089035 -5.33300000
39.95866776 -47.10097504 1.43728983 54 13 14109 61.78400000 3186089035 3186089035 1.33300000
38.98389816 -56.29989624 0.79722792 28 14 14110 68.48400000 3186089038 3186089038 0.66700000
19.98357582 -23.56382370 -2.16049743 24 15 14110 30.97200000 3186089038 3186089038 -4.00000000
19.18085098 -25.00600624 -2.57274461 5 16 14111 31.62000000 3186089040 3186089040 -4.66700000
42.27432251 -45.19113541 1.80093682 28 17 14111 61.90800000 3186089040 3186089040 1.66700000
40.66733932 -53.03703308 1.16658866 28 18 14112 66.84400000 3186089042 3186089042 1.00000000
20.08326530 -21.47646713 -1.88444495 13 19 14112 29.46400000 3186089042 3186089042 -3.66700000
20.03782845 -28.95989227 -2.05091214 14 20 14112 35.27600000 3186089045 3186089045 -3.33300000
40.61819458 -47.92923737 3.65880489 41 21 14112 62.93200000 3186089045 3186089045 3.33300000
40.89072800 -53.34764481 2.73846006 57 22 14113 67.27200000 3186089047 3186089047 2.33300000
26.86071205 -31.70670509 -1.93569469 15 23 14113 41.60000000 3186089047 3186089047 -2.66700000
20.00446701 -26.10804749 -1.72373700 19 24 14114 32.93600000 3186089049 3186089049 -3.00000000
38.18503571 -40.87686157 -2.27895641 21 27 14115 55.98400000 3186089052 3186089052 -2.33300000
38.95837784 -56.38911819 -2.39340758 24 28 14116 68.58000000 3186089054 3186089054 -2.00000000
3.64077950 -4.76883793 -2.79773283 20 0 14124 6.62000000 3186089077 3186089077 -25.00000000
38.60720825 -41.45915222 -0.98885334 44 1 14124 56.66000000 3186089077 3186089077 -1.00000000
38.34550476 -50.24464798 -1.83945262 28 2 14125 63.23200000 3186089079 3186089079 -1.66700000
6.66620016 -7.90236044 -2.89416099 5 3 14125 10.73600000 3186089079 3186089079 -15.63900000
8.78586578 -11.51640892 -2.89704466 1 4 14126 14.77200000 3186089081 3186089081 -11.31000000
38.45252991 -45.59919739 0.00000000 41 5 14126 59.64800000 3186089081 3186089081 0.00000000
38.08664322 -55.35429764 -0.78223425 29 6 14127 67.19600000 3186089084 3186089084 -0.66700000
11.24699688 -13.34205341 -2.71482682 2 7 14127 17.66000000 3186089084 3186089084 -8.84300000
13.21006489 -17.32186699 -2.77285028 4 8 14127 21.96000000 3186089086 3186089086 -7.25400000
38.58254623 -41.47619247 0.32923329 44 9 14127 56.64800000 3186089086 3186089086 0.33300000
38.29354095 -50.23107529 -0.36710373 56 10 14128 63.16400000 3186089088 3186089088 -0.33300000
15.40461636 -18.28061485 -2.57504153 2 11 14128 24.04400000 3186089088 3186089088 -6.14800000
16.70857239 -24.30203629 -2.75300336 4 12 14129 29.62000000 3186089091 3186089091 -5.33300000
40.65450287 -48.26167679 1.46836936 18 13 14129 63.12000000 3186089091 3186089091 1.33300000
38.92306519 -56.63341141 0.80002183 28 14 14130 68.72400000 3186089093 3186089093 0.66700000
19.98087692 -23.72805405 -2.16914725 24 15 14130 31.09600000 3186089093 3186089093 -4.00000000
19.17073822 -25.17430496 -2.58315921 5 16 14131 31.74800000 3186089095 3186089095 -4.66700000
40.85095215 -43.97624969 1.74682844 56 17 14131 60.04800000 3186089095 3186089095 1.66700000
40.60027695 -53.31478119 1.16973007 56 18 14131 67.02400000 3186089098 3186089098 1.00000000
20.09072304 -21.62776184 -1.89186406 13 19 14131 29.58000000 3186089098 3186089098 -3.66700000
20.03834534 -29.17778778 -2.06137705 14 20 14132 35.45600000 3186089100 3186089100 -3.33300000
40.79516602 -48.48015594 3.68996739 64 21 14132 63.46800000 3186089100 3186089100 3.33300000
40.82043457 -53.64271927 2.74627590 28 22 14133 67.46400000 3186089102 3186089102 2.33300000
26.85532761 -31.92564011 -1.94332588 5 23 14133 41.76400000 3186089102 3186089102 -2.66700000
20.00510979 -26.29852676 -1.73169208 19 24 14134 33.08800000 3186089105 3186089105 -3.00000000
39.05068588 -56.94676590 -2.41127610 24 28 14136 69.09200000 3186089109 3186089109 -2.00000000
3.65476799 -4.82196569 -2.82139945 22 0 14144 6.67600000 3186089132 3186089132 -25.00000000
38.63331604 -41.77865601 -0.99325138 45 1 14144 56.91200000 3186089132 3186089132 -1.00000000
38.37029266 -50.64270401 -1.84911072 57 2 14145 63.56400000 3186089134 3186089134 -1.66700000
6.64352179 -7.93148756 -2.89631772 6 3 14145 10.74400000 3186089134 3186089134 -15.63900000
8.74798012 -11.55013466 -2.89782906 1 4 14146 14.77600000 3186089137 3186089137 -11.31000000
38.44976807 -45.92022324 0.00000000 42 5 14146 59.89200000 3186089137 3186089137 0.00000000
38.15484619 -55.87005234 -0.78763568 29 6 14147 67.66000000 3186089139 3186089139 -0.66700000
11.21304035 -13.39638519 -2.71790123 2 7 14147 17.68000000 3186089139 3186089139 -8.84300000
13.16389179 -17.38685417 -2.77588058 4 8 14147 21.98400000 3186089141 3186089141 -7.25400000
38.48367310 -41.66056824 0.32962850 66 9 14147 56.71600000 3186089141 3186089141 0.33300000
38.21693802 -50.49520493 -0.36805686 56 10 14148 63.32800000 3186089144 3186089144 -0.33300000
15.41217041 -18.41967964 -2.58703637 2 11 14148 24.15600000 3186089144 3186089144 -6.14800000
16.67078400 -24.42929649 -2.76081061 4 12 14149 29.70400000 3186089146 3186089146 -5.33300000
40.71926498 -48.68242645 1.47683716 57 13 14149 63.48400000 3186089146 3186089146 1.33300000
38.91447067 -57.04648209 0.80393320 57 14 14150 69.06000000 3186089148 3186089148 0.66700000
19.96959686 -23.88336945 -2.17695999 24 15 14150 31.20800000 3186089148 3186089148 -4.00000000
19.09476852 -25.25696945 -2.58478665 5 16 14151 31.76800000 3186089151 3186089151 -4.66700000
40.72972870 -44.15384674 1.74822474 28 17 14151 60.09600000 3186089151 3186089151 1.66700000
40.52246094 -53.59973907 1.17287147 56 18 14151 67.20400000 3186089153 3186089153 1.00000000
20.08547783 -21.77404594 -1.89851558 13 19 14151 29.68400000 3186089153 3186089153 -3.66700000
20.03983498 -29.39933968 -2.07207465 14 20 14152 35.64000000 3186089155 3186089155 -3.33300000
40.78955841 -48.81838226 3.70485091 43 21 14152 63.72400000 3186089155 3186089155 3.33300000
40.71966553 -53.89968491 2.75213790 28 22 14153 67.60800000 3186089158 3186089158 2.33300000
20.49899673 -24.54262733 -1.48955429 3 23 14153 32.01200000 3186089158 3186089158 -2.66700000
19.99503708 -26.47657776 -1.73880982 19 24 14154 33.22400000 3186089160 3186089160 -3.00000000
28.18034554 -30.59226990 -1.69456267 8 27 14155 41.62800000 3186089162 3186089162 -2.33300000
39.00011826 -57.30084229 -2.42048955 24 28 14156 69.35600000 3186089164 3186089164 -2.00000000
3.64009356 -4.83759022 -2.82309008 26 0 14164 6.68000000 3186089187 3186089187 -25.00000000
38.56298828 -41.99573898 -0.99520600 45 1 14164 57.02400000 3186089187 3186089187 -1.00000000
38.32066727 -50.94568253 -1.85527790 28 2 14165 63.77600000 3186089190 3186089190 -1.66700000
6.61579561 -7.95462942 -2.89631772 6 3 14165 10.74400000 3186089190 3186089190 -15.63900000
8.70289516 -11.57433033 -2.89626026 1 4 14166 14.76800000 3186089192 3186089192 -11.31000000
38.42733383 -46.22025299 0.00000000 42 5 14166 60.10800000 3186089192 3186089192 0.00000000
38.27240372 -56.44318390 -0.79392189 29 6 14166 68.20000000 3186089194 3186089194 -0.66700000
11.17360783 -13.43957424 -2.71913123 2 7 14166 17.68800000 3186089194 3186089194 -8.84300000
13.12934494 -17.46759033 -2.78143644 4 8 14167 22.02800000 3186089197 3186089197 -7.25400000
38.54621124 -42.02161407 0.33141857 45 9 14167 57.02400000 3186089197 3186089197 0.33300000
38.18941498 -50.82656479 -0.36949822 56 10 14168 63.57600000 3186089199 3186089199 -0.33300000
15.36557007 -18.49477768 -2.59003496 2 11 14168 24.18400000 3186089199 3186089199 -6.14800000
16.61890984 -24.53680229 -2.76638722 4 12 14169 29.76400000 3186089201 3186089201 -5.33300000
40.62828827 -48.91963196 1.47972178 57 13 14169 63.60800000 3186089201 3186089201 1.33300000
38.90122604 -57.45687103 0.80779803 28 14 14170 69.39200000 3186089204 3186089204 0.66700000
19.95747375 -24.03889275 -2.18477273 12 15 14170 31.32000000 3186089204 3186089204 -4.00000000
19.03999329 -25.36810875 -2.58934307 5 16 14171 31.82400000 3186089206 3186089206 -4.66700000
43.63795090 -47.63916016 1.88017941 28 17 14171 64.63200000 3186089206 3186089206 1.66700000
40.21747971 -53.58412933 1.16945088 56 18 14171 67.00800000 3186089208 3186089208 1.00000000
20.09293556 -21.93527603 -1.90644634 13 19 14171 29.80800000 3186089208 3186089208 -3.66700000
20.03106880 -29.60802269 -2.08184195 14 20 14172 35.80800000 3186089211 3186089211 -3.33300000
40.48631668 -48.80065536 3.69275808 64 21 14172 63.51600000 3186089211 3186089211 3.33300000
41.60318756 -55.47070694 2.82492232 28 22 14173 69.39600000 3186089213 3186089213 2.33300000
20.42340469 -24.62633514 -1.49029887 3 23 14173 32.02800000 3186089213 3186089213 -2.66700000
19.98636055 -26.65807343 -1.74613678 20 24 14174 33.36400000 3186089215 3186089215 -3.00000000
27.84948921 -30.44568253 -1.68104780 8 27 14175 41.29600000 3186089217 3186089217 -2.33300000
38.94531631 -57.65194702 -2.42956328 24 28 14176 69.61600000 3186089220 3186089220 -2.00000000
3.65138960 -4.88802385 -2.84506607 17 0 14184 6.73200000 3186089243 3186089243 -25.00000000
38.66946411 -42.40788651 -1.00176811 23 1 14184 57.40000000 3186089243 3186089243 -1.00000000
38.27417755 -51.25533676 -1.86167777 28 2 14185 63.99600000 3186089245 3186089245 -1.66700000
6.59534645 -7.98658466 -2.89955258 6 3 14185 10.75600000 3186089245 3186089245 -15.63900000
8.66947937 -11.61406803 -2.89861345 1 4 14186 14.78000000 3186089247 3186089247 -11.31000000
38.56369781 -46.71501923 0.00000000 42 5 14186 60.57600000 3186089247 3186089247 0.00000000
38.28729630 -56.89167023 -0.79834551 29 6 14186 68.58000000 3186089250 3186089250 -0.66700000
11.13920784 -13.49373531 -2.72220564 2 7 14186 17.70800000 3186089250 3186089250 -8.84300000
13.08490276 -17.53557396 -2.78497195 4 8 14187 22.05600000 3186089252 3186089252 -7.25400000
38.39121628 -42.14704132 0.33134884 45 9 14187 57.01200000 3186089252 3186089252 0.33300000
38.13373566 -51.12307739 -0.37068385 56 10 14188 63.78000000 3186089254 3186089254 -0.33300000
15.31863308 -18.56977654 -2.59303379 2 11 14188 24.21200000 3186089254 3186089254 -6.14800000
16.57093239 -24.65085220 -2.77270746 4 12 14189 29.83200000 3186089257 3186089257 -5.33300000
40.55904388 -49.18456268 1.48344398 57 13 14189 63.76800000 3186089257 3186089257 1.33300000
38.92797089 -57.93093109 0.81254762 28 14 14190 69.80000000 3186089259 3186089259 0.66700000
19.95466042 -24.20693970 -2.19370151 12 15 14190 31.44800000 3186089259 3186089259 -4.00000000
19.03469658 -25.54630852 -2.60073400 5 16 14191 31.96400000 3186089261 3186089261 -4.66700000
41.26527023 -45.36584473 1.78476250 28 17 14191 61.35200000 3186089261 3186089261 1.66700000
39.89398575 -53.54138565 1.16547167 56 18 14191 66.78000000 3186089264 3186089264 1.00000000
20.07802200 -22.07319641 -1.91233039 13 19 14191 29.90000000 3186089264 3186089264 -3.66700000
19.97434425 -29.74738312 -2.08672571 15 20 14192 35.89200000 3186089266 3186089266 -3.33300000
40.25732803 -48.87079239 3.68740916 42 21 14192 63.42400000 3186089266 3186089266 3.33300000
42.42609787 -56.98122025 2.89428759 28 22 14193 71.10000000 3186089268 3186089268 2.33300000
20.39573669 -24.76841927 -1.49457967 3 23 14193 32.12000000 3186089268 3186089268 -2.66700000
19.99573898 -26.86546516 -1.75513864 20 24 14194 33.53600000 3186089270 3186089270 -3.00000000
27.92577744 -30.74388313 -1.69212019 8 27 14195 41.56800000 3186089273 3186089273 -2.33300000
38.48115158 -57.39573669 -2.41309071 24 28 14196 69.14400000 3186089275 3186089275 -2.00000000
3.61271071 -4.87162066 -2.82816148 17 0 14204 6.69200000 3186089298 3186089298 -25.00000000
38.55609512 -42.58115005 -1.00267565 23 1 14204 57.45200000 3186089298 3186089298 -1.00000000
38.34742355 -51.72909927 -1.87401223 28 2 14205 64.42000000 3186089300 3186089300 -1.66700000
6.57475471 -8.01849365 -2.90278745 6 3 14205 10.76800000 3186089300 3186089300 -15.63900000
8.64056206 -11.66001606 -2.90253592 1 4 14206 14.80000000 3186089303 3186089303 -11.31000000
38.54746628 -47.02877426 0.00000000 43 5 14206 60.80800000 3186089303 3186089303 0.00000000
38.14845276 -57.11477280 -0.79960275 29 6 14206 68.68800000 3186089305 3186089305 -0.66700000
11.10957718 -13.55393410 -2.72651005 2 7 14206 17.73600000 3186089305 3186089305 -8.84300000
13.04487038 -17.60983849 -2.78951764 2 8 14207 22.09200000 3186089307 3186089307 -7.25400000
38.44510269 -42.50327682 0.33309239 46 9 14207 57.31200000 3186089307 3186089307 0.33300000
38.11215591 -51.46804047 -0.37221819 56 10 14208 64.04400000 3186089310 3186089310 -0.33300000
15.26127911 -18.63236618 -2.59431887 2 11 14208 24.22400000 3186089310 3186089310 -6.14800000
16.54004097 -24.79137230 -2.78200197 4 12 14209 29.93200000 3186089312 3186089312 -5.33300000
40.18697357 -49.08140945 1.47609282 57 13 14209 63.45200000 3186089312 3186089312 1.33300000
42.05435944 -63.05784988 0.88239408 28 14 14210 75.80000000 3186089314 3186089314 0.66700000
19.95597076 -24.38143158 -2.20318842 12 15 14210 31.58400000 3186089314 3186089314 -4.00000000
18.97148514 -25.64785194 -2.60431409 5 16 14211 32.00800000 3186089317 3186089317 -4.66700000
42.22692490 -46.74986649 1.83340180 28 17 14211 63.02400000 3186089317 3186089317 1.66700000
40.24435806 -54.40698624 1.18124866 28 18 14211 67.68400000 3186089319 3186089319 1.00000000
20.07576942 -22.22609138 -1.91949368 13 19 14211 30.01200000 3186089319 3186089319 -3.66700000
19.97224998 -29.96978188 -2.09742332 15 20 14212 36.07600000 3186089321 3186089321 -3.33300000
40.33172226 -49.31084442 3.70996714 43 21 14212 63.81200000 3186089321 3186089321 3.33300000
45.11808777 -61.04041290 3.09245062 28 22 14213 75.96800000 3186089323 3186089323 2.33300000
20.38755798 -24.93535614 -1.50034952 3 23 14213 32.24400000 3186089323 3186089323 -2.66700000
19.98966980 -27.05396843 -1.76288438 13 24 14214 33.68400000 3186089326 3186089326 -3.00000000
27.93071938 -30.96582222 -1.69895911 8 27 14215 41.73600000 3186089328 3186089328 -2.33300000
39.11323547 -58.78108215 -2.46557975 25 28 14216 70.64800000 3186089330 3186089330 -2.00000000
3.60428047 -4.89587927 -2.83492327 17 0 14224 6.70800000 3186089353 3186089353 -25.00000000
38.65323639 -42.98908615 -1.00909817 24 1 14224 57.82000000 3186089353 3186089353 -1.00000000
38.27089691 -52.00433350 -1.87913215 28 2 14225 64.59600000 3186089356 3186089356 -1.66700000
6.54915714 -8.04438210 -2.90386581 6 3 14225 10.77200000 3186089356 3186089356 -15.63900000
8.59980774 -11.69010639 -2.90253592 1 4 14226 14.80000000 3186089358 3186089358 -11.31000000
38.54213715 -47.35849762 0.00000000 43 5 14226 61.06000000 3186089358 3186089358 0.00000000
38.25824356 -57.71431732 -0.80612171 29 6 14226 69.24800000 3186089360 3186089360 -0.66700000
11.06718731 -13.59876251 -2.72773981 2 7 14226 17.74400000 3186089360 3186089360 -8.84300000
13.00212669 -17.68083954 -2.79355812 4 8 14227 22.12400000 3186089363 3186089363 -7.25400000
38.44618225 -42.80385971 0.33439428 47 9 14227 57.53600000 3186089363 3186089363 0.33300000
38.19287109 -51.95527267 -0.37477544 56 10 14228 64.48400000 3186089365 3186089365 -0.33300000
15.22625828 -18.72254944 -2.59945965 2 11 14228 24.27200000 3186089365 3186089365 -6.14800000
16.49737930 -24.91537094 -2.78943729 4 12 14229 30.01200000 3186089367 3186089367 -5.33300000
40.05324173 -49.26793289 1.47748852 38 13 14229 63.51200000 3186089367 3186089367 1.33300000
39.57340622 -59.78889847 0.83471221 28 14 14230 71.70400000 3186089369 3186089369 0.66700000
19.95630455 -24.55622864 -2.21267533 12 15 14230 31.72000000 3186089369 3186089369 -4.00000000
18.95263100 -25.81032181 -2.61407781 5 16 14231 32.12800000 3186089372 3186089372 -4.66700000
41.39072037 -46.14691544 1.80407858 56 17 14231 62.01600000 3186089372 3186089372 1.66700000
40.14651489 -54.67285538 1.18397129 28 18 14231 67.84000000 3186089374 3186089374 1.00000000
20.06736374 -22.37329674 -1.92614532 13 19 14231 30.11600000 3186089374 3186089374 -3.66700000
19.97324944 -30.19918823 -2.10858607 15 20 14232 36.26800000 3186089376 3186089376 -3.33300000
40.17445374 -49.46992874 3.71136260 43 21 14232 63.83600000 3186089376 3186089376 3.33300000
44.70140457 -60.92041779 3.07844734 28 22 14233 75.62400000 3186089379 3186089379 2.33300000
20.36838913 -25.09012794 -1.50537491 3 23 14233 32.35200000 3186089379 3186089379 -2.66700000
19.98488998 -27.24597549 -1.77083945 13 24 14234 33.83600000 3186089381 3186089381 -3.00000000
27.59847069 -30.81305313 -1.68528140 8 27 14235 41.40000000 3186089383 3186089383 -2.33300000
39.02897263 -59.10072327 -2.47325754 25 28 14236 70.86800000 3186089386 3186089386 -2.00000000
3.56363940 -4.87623501 -2.81632805 16 0 14244 6.66400000 3186089409 3186089409 -25.00000000
38.64677811 -43.28484726 -1.01286781 49 1 14244 58.03600000 3186089409 3186089409 -1.00000000
38.32971191 -52.46691513 -1.89100111 28 2 14245 65.00400000 3186089411 3186089411 -1.66700000
6.52103710 -8.06719398 -2.90386581 5 3 14245 10.77200000 3186089411 3186089411 -15.63900000
8.56357574 -11.72638893 -2.90410495 1 4 14246 14.80800000 3186089413 3186089413 -11.31000000
38.50732040 -47.65452957 0.00000000 64 5 14246 61.26800000 3186089413 3186089413 0.00000000
38.17086029 -58.02126694 -0.80854309 29 6 14246 69.45600000 3186089416 3186089416 -0.66700000
11.03703976 -13.65883064 -2.73204422 2 7 14246 17.77200000 3186089416 3186089416 -8.84300000
12.95202827 -17.74214172 -2.79608345 4 8 14247 22.14400000 3186089418 3186089418 -7.25400000
38.40835571 -43.06317902 0.33537066 47 9 14247 57.70400000 3186089418 3186089418 0.33300000
38.24235153 -52.40491867 -0.37705371 28 10 14248 64.87600000 3186089420 3186089420 -0.33300000
15.21577835 -18.84365654 -2.60888410 2 11 14248 24.36000000 3186089420 3186089420 -6.14800000
16.46279907 -25.05268669 -2.79836011 4 12 14249 30.10800000 3186089422 3186089422 -5.33300000
40.02418900 -49.58480835 1.48279250 57 13 14249 63.74000000 3186089422 3186089422 1.33300000
39.31835175 -59.85646820 0.83373439 28 14 14250 71.62000000 3186089425 3186089425 0.66700000
19.94062614 -24.71269035 -2.22048807 12 15 14250 31.83200000 3186089425 3186089425 -4.00000000
18.88590622 -25.90853882 -2.61733246 5 16 14251 32.16800000 3186089427 3186089427 -4.66700000
40.18429184 -45.11771393 1.75834823 28 17 14251 60.44400000 3186089427 3186089427 1.66700000
40.29938126 -55.28451538 1.19416344 28 18 14251 68.42400000 3186089429 3186089429 1.00000000
20.06879234 -22.53263474 -1.93382013 13 19 14251 30.23600000 3186089429 3186089429 -3.66700000
19.97727394 -30.43564034 -2.12021375 15 20 14252 36.46800000 3186089432 3186089432 -3.33300000
40.09426880 -49.72488022 3.71996713 44 21 14252 63.98400000 3186089432 3186089432 3.33300000
44.40847397 -60.96624374 3.07291126 28 22 14253 75.48800000 3186089434 3186089434 2.33300000
20.35590935 -25.25440025 -1.51095867 3 23 14253 32.47200000 3186089434 3186089434 -2.66700000
19.96960640 -27.42536163 -1.77795708 21 24 14254 33.97200000 3186089436 3186089436 -3.00000000
27.38184547 -30.78675842 -1.67860544 8 27 14255 41.23600000 3186089439 3186089439 -2.33300000
39.04594421 -59.57763672 -2.48749661 25 28 14256 71.27600000 3186089441 3186089441 -2.00000000
3.63600636 -5.01188755 -2.88732791 21 0 14264 6.83200000 3186089464 3186089464 -25.00000000
38.64668274 -43.59006500 -1.01684701 50 1 14264 58.26400000 3186089464 3186089464 -1.00000000
38.27543640 -52.77841568 -1.89740098 28 2 14265 65.22400000 3186089466 3186089466 -1.66700000
6.50248146 -8.10192394 -2.90817904 5 3 14265 10.78800000 3186089466 3186089466 -15.63900000
8.53640461 -11.77526379 -2.90881157 1 4 14266 14.83200000 3186089469 3186089469 -11.31000000
38.47090149 -47.95089340 0.00000000 43 5 14266 61.47600000 3186089469 3186089469 0.00000000
38.15687180 -58.46558762 -0.81278044 29 6 14267 69.82000000 3186089471 3186089471 -0.66700000
10.99679565 -13.71152496 -2.73450398 2 7 14267 17.78800000 3186089471 3186089471 -8.84300000
12.91097260 -17.81616211 -2.80062914 2 8 14267 22.18000000 3186089473 3186089473 -7.25400000
38.41692352 -43.37664795 0.33676553 48 9 14267 57.94400000 3186089473 3186089473 0.33300000
38.28681183 -52.85230255 -0.37930873 84 10 14268 65.26400000 3186089475 3186089475 -0.33300000
15.16483498 -18.91527367 -2.61145449 2 11 14268 24.38400000 3186089475 3186089475 -6.14800000
16.39700317 -25.14336014 -2.80207777 4 12 14269 30.14800000 3186089478 3186089478 -5.33300000
39.89587784 -49.78038406 1.48446751 38 13 14269 63.81200000 3186089478 3186089478 1.33300000
39.02835464 -59.86937332 0.83201152 28 14 14270 71.47200000 3186089480 3186089480 0.66700000
19.94405746 -24.89425278 -2.23053312 12 15 14270 31.97600000 3186089480 3186089480 -4.00000000
18.88650131 -26.10026741 -2.63002515 5 16 14271 32.32400000 3186089482 3186089482 -4.66700000
40.09807587 -45.33857346 1.76148999 56 17 14271 60.55200000 3186089482 3186089482 1.66700000
43.98752594 -60.81106186 1.31004739 28 18 14272 75.06400000 3186089485 3186089485 1.00000000
20.05481529 -22.68379593 -1.94047177 14 19 14272 30.34000000 3186089485 3186089485 -3.66700000
19.96681213 -30.65241241 -2.13044620 15 20 14272 36.64400000 3186089487 3186089487 -3.33300000
39.96786880 -49.92375946 3.72438574 44 21 14272 64.06000000 3186089487 3186089487 3.33300000
43.56309128 -60.24643707 3.02894735 28 22 14273 74.40800000 3186089489 3186089489 2.33300000
20.36499977 -25.44696808 -1.51821744 3 23 14273 32.62800000 3186089489 3186089489 -2.66700000
19.96735191 -27.62439728 -1.78633082 14 24 14274 34.13200000 3186089492 3186089492 -3.00000000
39.01646423 -59.98836136 -2.49894357 25 28 14276 71.60400000 3186089496 3186089496 -2.00000000
3.59518528 -4.99218988 -2.86873269 17 0 14284 6.78800000 3186089519 3186089519 -25.00000000
38.59207153 -43.83576584 -1.01942992 50 1 14284 58.41200000 3186089519 3186089519 -1.00000000
38.31523132 -53.22320938 -1.90857172 28 2 14285 65.60800000 3186089522 3186089522 -1.66700000
6.48136234 -8.13360977 -2.91141391 5 3 14285 10.80000000 3186089522 3186089522 -15.63900000
8.49066639 -11.79862213 -2.90724277 1 4 14286 14.82400000 3186089524 3186089524 -11.31000000
38.42540741 -48.23819733 0.00000000 65 5 14286 61.67200000 3186089524 3186089524 0.00000000
38.15042114 -58.90391922 -0.81701779 29 6 14287 70.18400000 3186089526 3186089526 -0.66700000
10.96363831 -13.76837921 -2.73819327 2 7 14287 17.81200000 3186089526 3186089526 -8.84300000
12.89273071 -17.92232323 -2.81022549 2 8 14287 22.25600000 3186089528 3186089528 -7.25400000
38.60603714 -43.89795303 0.33976448 50 9 14287 58.46000000 3186089528 3186089528 0.33300000
38.14645767 -53.04732895 -0.37975043 56 10 14288 65.34000000 3186089531 3186089531 -0.33300000
15.12843800 -19.00543213 -2.61659503 2 11 14288 24.43200000 3186089531 3186089531 -6.14800000
16.34808731 -25.26062584 -2.80876970 4 12 14289 30.22000000 3186089533 3186089533 -5.33300000
39.78411484 -49.99757385 1.48679376 19 13 14289 63.91200000 3186089533 3186089533 1.33300000
40.44420242 -62.51721573 0.86684161 28 14 14290 74.46400000 3186089535 3186089535 0.66700000
19.93652725 -25.06365013 -2.23946190 12 15 14290 32.10400000 3186089535 3186089535 -4.00000000
18.81853867 -26.19841576 -2.63327980 5 16 14291 32.36400000 3186089538 3186089538 -4.66700000
40.53583908 -46.15722275 1.78778791 56 17 14291 61.45600000 3186089538 3186089538 1.66700000
43.77162933 -60.93710709 1.30962861 28 18 14291 75.04000000 3186089540 3186089540 1.00000000
20.05587006 -22.83715630 -1.94789088 14 19 14291 30.45600000 3186089540 3186089540 -3.66700000
19.97675705 -30.90301323 -2.14300442 15 20 14292 36.86000000 3186089542 3186089542 -3.33300000
39.92256927 -50.22552109 3.73647857 22 21 14292 64.26800000 3186089542 3186089542 3.33300000
43.52964783 -60.64489365 3.04132223 28 22 14293 74.71200000 3186089545 3186089545 2.33300000
20.33570671 -25.59298134 -1.52268445 6 23 14293 32.72400000 3186089545 3186089545 -2.66700000
19.95929337 -27.81725693 -1.79428589 14 24 14294 34.28400000 3186089547 3186089547 -3.00000000
38.98242569 -60.39624405 -2.51025105 25 28 14296 71.92800000 3186089552 3186089552 -2.00000000
3.56930447 -4.99291229 -2.86197090 16 0 14304 6.77200000 3186089574 3186089574 -25.00000000
38.72837067 -44.30142593 -1.02710903 52 1 14304 58.85200000 3186089574 3186089574 -1.00000000
38.24079514 -53.51277924 -1.91415715 28 2 14305 65.80000000 3186089576 3186089576 -1.66700000
6.46488142 -8.17128849 -2.91680551 6 3 14305 10.82000000 3186089576 3186089576 -15.63900000
8.46766949 -11.85372162 -2.91351843 1 4 14306 14.85600000 3186089579 3186089579 -11.31000000
38.35852432 -48.50066376 0.00000000 43 5 14306 61.83600000 3186089579 3186089579 0.00000000
38.18633652 -59.39008713 -0.82200015 29 6 14306 70.61200000 3186089581 3186089581 -0.66700000
10.93263149 -13.82326031 -2.74188280 2 7 14306 17.83600000 3186089581 3186089581 -8.84300000
12.83700943 -17.97690582 -2.81174088 2 8 14307 22.26800000 3186089583 3186089583 -7.25400000
38.58148956 -44.18007278 0.34090361 51 9 14307 58.65600000 3186089583 3186089583 0.33300000
38.16091156 -53.46014404 -0.38174975 56 10 14308 65.68400000 3186089586 3186089586 -0.33300000
15.06940174 -19.06748390 -2.61788034 2 11 14308 24.44400000 3186089586 3186089586 -6.14800000
16.31576920 -25.40466690 -2.81843591 4 12 14309 30.32400000 3186089588 3186089588 -5.33300000
41.05459976 -51.96549225 1.54104340 20 13 14309 66.24400000 3186089588 3186089588 1.33300000
40.01181030 -62.32479858 0.86223173 28 14 14310 74.06800000 3186089590 3186089590 0.66700000
19.92558289 -25.23016357 -2.24811172 12 15 14310 32.22800000 3186089590 3186089590 -4.00000000
18.75474930 -26.30289650 -2.63718534 5 16 14311 32.41200000 3186089592 3186089592 -4.66700000
40.50323868 -46.44609833 1.79348958 56 17 14311 61.65200000 3186089592 3186089592 1.66700000
43.65616989 -61.22629547 1.31256056 28 18 14311 75.20800000 3186089595 3186089595 1.00000000
20.05473900 -22.99728203 -1.95556569 14 19 14311 30.57600000 3186089595 3186089595 -3.66700000
19.96578979 -31.12380791 -2.15346932 24 20 14312 37.04000000 3186089597 3186089597 -3.33300000
39.84843063 -50.49309540 3.74601340 22 21 14312 64.43200000 3186089597 3186089597 3.33300000
43.26203156 -60.71835327 3.03741455 28 22 14313 74.61600000 3186089599 3186089599 2.33300000
20.33038902 -25.77046776 -1.52901268 6 23 14313 32.86000000 3186089599 3186089599 -2.66700000
19.95708275 -28.02015686 -1.80286896 14 24 14314 34.44800000 3186089602 3186089602 -3.00000000
26.97658539 -30.97837257 -1.67355776 8 27 14315 41.11200000 3186089604 3186089604 -2.33300000
38.91798401 -60.76085663 -2.51974368 25 28 14316 72.20000000 3186089606 3186089606 -2.00000000
26.91733742 -34.15673828 -1.01194656 6 31 14316 43.50000000 3186089609 3186089609 -1.33300000
3.61778069 -5.09636116 -2.91437554 19 0 14323 6.89600000 3186089629 3186089629 -25.00000000
38.26675034 -53.92624283 -1.92439699 28 2 14324 66.15200000 3186089632 3186089632 -1.66700000
6.43536854 -8.18965340 -2.91572714 6 3 14324 10.81600000 3186089632 3186089632 -15.63900000
8.43285370 -11.88813496 -2.91508746 1 4 14325 14.86400000 3186089634 3186089634 -11.31000000
38.33337784 -48.80060577 0.00000000 43 5 14325 62.05600000 3186089634 3186089634 0.00000000
38.20438004 -59.85353851 -0.82665658 29 6 14325 71.01200000 3186089636 3186089636 -0.66700000
10.90138149 -13.87808800 -2.74557233 2 7 14325 17.86000000 3186089636 3186089636 -8.84300000
12.83929539 -18.10676956 -2.82537770 2 8 14326 22.37600000 3186089639 3186089639 -7.25400000
38.63658905 -44.54042816 0.34269369 78 9 14326 58.96400000 3186089639 3186089639 0.33300000
38.27256012 -53.99430466 -0.38465568 56 10 14327 66.18400000 3186089641 3186089641 -0.33300000
15.07238960 -19.20181656 -2.62944674 2 11 14327 24.55200000 3186089641 3186089641 -6.14800000
16.24213982 -25.47542381 -2.82029486 4 12 14328 30.34400000 3186089643 3186089643 -5.33300000
40.85983658 -52.07303619 1.54020596 20 13 14328 66.20800000 3186089643 3186089643 1.33300000
39.36208725 -61.76231003 0.85263950 28 14 14329 73.24400000 3186089645 3186089645 0.66700000
19.93538857 -25.41540718 -2.25871468 13 15 14329 32.38000000 3186089645 3186089645 -4.00000000
18.75266075 -26.48533249 -2.64922714 5 16 14330 32.56000000 3186089648 3186089648 -4.66700000
41.83593750 -48.29673004 1.85958326 28 17 14330 63.92400000 3186089648 3186089648 1.66700000
43.38818741 -61.27933502 1.31060588 28 18 14330 75.09600000 3186089650 3186089650 1.00000000
20.04893494 -23.14512444 -1.96247315 14 19 14330 30.68400000 3186089650 3186089650 -3.66700000
19.86461639 -31.19321251 -2.15370178 16 20 14331 37.04400000 3186089652 3186089652 -3.33300000
41.41994476 -52.84380722 3.91019797 26 21 14331 67.25600000 3186089652 3186089652 3.33300000
43.41362381 -61.36066437 3.06232738 28 22 14332 75.22800000 3186089655 3186089655 2.33300000
20.33600044 -25.95411682 -1.53589928 6 23 14332 33.00800000 3186089655 3186089655 -2.66700000
19.95631790 -28.21663475 -1.81124282 14 24 14333 34.60800000 3186089657 3186089657 -3.00000000
27.04104996 -31.26111412 -1.68397880 8 27 14334 41.36800000 3186089659 3186089659 -2.33300000
38.89216232 -61.16619492 -2.53119063 25 28 14335 72.52800000 3186089662 3186089662 -2.00000000
3.50809026 -4.97856712 -2.83999467 21 0 14343 6.72000000 3186089685 3186089685 -25.00000000
38.21412659 -54.25234985 -1.93126237 28 2 14344 66.38800000 3186089687 3186089687 -1.66700000
6.41621971 -8.22421455 -2.92004037 6 3 14344 10.83200000 3186089687 3186089687 -15.63900000
8.38678837 -11.91108418 -2.91351843 1 4 14345 14.85600000 3186089689 3186089689 -11.31000000
38.27841568 -49.08236313 0.00000000 44 5 14345 62.24400000 3186089689 3186089689 0.00000000
38.28200912 -60.43931198 -0.83289623 29 6 14345 71.54800000 3186089692 3186089692 -0.66700000
10.86502457 -13.93163967 -2.74864674 2 7 14345 17.88000000 3186089692 3186089692 -8.84300000
12.77829647 -18.15472221 -2.82588291 2 8 14346 22.38000000 3186089694 3186089694 -7.25400000
38.61662292 -44.83261871 0.34390256 52 9 14346 59.17200000 3186089694 3186089694 0.33300000
38.20814133 -54.30422592 -0.38591108 56 10 14347 66.40000000 3186089696 3186089696 -0.33300000
15.02238369 -19.27626991 -2.63244534 2 11 14347 24.58000000 3186089696 3186089696 -6.14800000
16.18718338 -25.58581352 -2.82624316 4 12 14348 30.40800000 3186089698 3186089698 -5.33300000
40.79823685 -52.36992264 1.54476559 41 13 14348 66.40400000 3186089698 3186089698 1.33300000
39.15480804 -61.91285324 0.85282576 28 14 14349 73.26000000 3186089701 3186089701 0.66700000
19.93481255 -25.59817505 -2.26875949 13 15 14349 32.52400000 3186089701 3186089701 -4.00000000
18.68531227 -26.58650970 -2.65280724 5 16 14350 32.60400000 3186089703 3186089703 -4.66700000
40.22005081 -46.76012421 1.79500234 56 17 14350 61.70400000 3186089703 3186089703 1.66700000
43.14260483 -61.40849686 1.30997765 28 18 14351 75.06000000 3186089705 3186089705 1.00000000
20.04985237 -23.31833458 -1.97091556 14 19 14351 30.81600000 3186089705 3186089705 -3.66700000
19.85373688 -31.41764641 -2.16439939 16 20 14351 37.22800000 3186089708 3186089708 -3.33300000
44.23281097 -62.98364258 3.13560033 28 22 14352 77.02800000 3186089710 3186089710 2.33300000
20.29680061 -26.09117317 -1.53980792 10 23 14352 33.09200000 3186089710 3186089710 -2.66700000
19.95180321 -28.42016411 -1.81982589 21 24 14353 34.77200000 3186089712 3186089712 -3.00000000
26.94999123 -31.37653732 -1.68511856 8 27 14354 41.39600000 3186089715 3186089715 -2.33300000
38.83413696 -61.54838181 -2.54138136 26 28 14355 72.82000000 3186089717 3186089717 -2.00000000
3.53016853 -5.04722595 -2.87211370 22 0 14363 6.79600000 3186089740 3186089740 -25.00000000
38.16656113 -54.58857346 -1.93847680 28 2 14364 66.63600000 3186089742 3186089742 -1.66700000
6.39219046 -8.25265217 -2.92219687 6 3 14364 10.84000000 3186089742 3186089742 -15.63900000
8.40582752 -12.02709007 -2.93469906 1 4 14365 14.96400000 3186089744 3186089744 -11.31000000
38.23419189 -49.38014603 0.00000000 44 5 14365 62.45200000 3186089744 3186089744 0.00000000
38.18790054 -60.78242111 -0.83569008 58 6 14366 71.78800000 3186089747 3186089747 -0.66700000
10.82840443 -13.99012184 -2.75233626 2 7 14366 17.90400000 3186089747 3186089747 -8.84300000
12.73075485 -18.22198486 -2.82941842 2 8 14366 22.40800000 3186089749 3186089749 -7.25400000
38.62108612 -45.15560913 0.34534392 53 9 14366 59.42000000 3186089749 3186089749 0.33300000
38.06644821 -54.50613403 -0.38639927 56 10 14367 66.48400000 3186089751 3186089751 -0.33300000
14.96717358 -19.34431839 -2.63458729 2 11 14367 24.60000000 3186089751 3186089751 -6.14800000
16.16765404 -25.75347328 -2.83851194 4 12 14368 30.54000000 3186089754 3186089754 -5.33300000
40.78644180 -52.73343658 1.55127919 41 13 14368 66.68400000 3186089754 3186089754 1.33300000
38.94695663 -62.06270218 0.85301203 28 14 14369 73.27600000 3186089756 3186089756 0.66700000
19.92099762 -25.76546478 -2.27740932 13 15 14369 32.64800000 3186089756 3186089756 -4.00000000
18.66310501 -26.75293350 -2.66289639 5 16 14370 32.72800000 3186089758 3186089758 -4.66700000
39.90597534 -46.72389221 1.78825331 84 17 14370 61.47200000 3186089758 3186089758 1.66700000
42.94787979 -61.56434250 1.31025684 28 18 14370 75.07600000 3186089761 3186089761 1.00000000
20.03722763 -23.46057892 -1.97731125 14 19 14370 30.91600000 3186089761 3186089761 -3.66700000
19.85001945 -31.65591240 -2.17602730 16 20 14371 37.42800000 3186089763 3186089763 -3.33300000
42.41477203 -54.89810562 4.04019690 29 21 14371 69.49200000 3186089763 3186089763 3.33300000
44.11325073 -63.28192520 3.14276481 28 22 14372 77.20400000 3186089765 3186089765 2.33300000
20.29108429 -26.27254486 -1.54632235 10 23 14372 33.23200000 3186089765 3186089765 -2.66700000
19.94154167 -28.61745071 -1.82799029 14 24 14373 34.92800000 3186089768 3186089768 -3.00000000
27.19561577 -31.88702393 -1.70742619 8 27 14374 41.94400000 3186089770 3186089770 -2.33300000
38.87361908 -62.09015656 -2.55813313 26 28 14375 73.30000000 3186089772 3186089772 -2.00000000
38.55881500 -49.99739456 -1.46920693 14 31 14376 63.15600000 3186089774 3186089774 -1.33300000
3.44223714 -4.95826769 -2.81463766 18 0 14383 6.66000000 3186089795 3186089795 -25.00000000
38.28808594 -55.17148209 -1.95441842 28 2 14384 67.18400000 3186089797 3186089797 -1.66700000
6.36804056 -8.28102207 -2.92435360 6 3 14384 10.84800000 3186089797 3186089797 -15.63900000
8.37050056 -12.06602764 -2.93705249 1 4 14385 14.97600000 3186089800 3186089800 -11.31000000
38.12985229 -49.60210419 0.00000000 44 5 14385 62.56400000 3186089800 3186089800 0.00000000
38.10880280 -61.12918472 -0.83862364 29 6 14386 72.04000000 3186089802 3186089802 -0.66700000
10.78432083 -14.03410339 -2.75356603 2 7 14386 17.91200000 3186089802 3186089802 -8.84300000
12.68063736 -18.28587723 -2.83244872 2 8 14386 22.43200000 3186089804 3186089804 -7.25400000
38.56420898 -45.40904999 0.34625056 81 9 14386 59.57600000 3186089804 3186089804 0.33300000
38.09244156 -54.95097351 -0.38860780 56 10 14387 66.86400000 3186089807 3186089807 -0.33300000
14.91409492 -19.41536903 -2.63715768 2 11 14387 24.62400000 3186089807 3186089807 -6.14800000
16.08187103 -25.81651306 -2.83925533 4 12 14388 30.54800000 3186089809 3186089809 -5.33300000
40.61429977 -52.89134598 1.55174446 62 13 14388 66.70400000 3186089809 3186089809 1.33300000
38.80196381 -62.31371689 0.85459518 28 14 14389 73.41200000 3186089811 3186089811 0.66700000
19.92083549 -25.95195961 -2.28773332 13 15 14389 32.79600000 3186089811 3186089811 -4.00000000
18.59230232 -26.85069466 -2.66615105 5 16 14390 32.76800000 3186089814 3186089814 -4.66700000
41.28134155 -48.67728806 1.85748875 28 17 14390 63.85200000 3186089814 3186089814 1.66700000
42.83517456 -61.86184692 1.31339824 28 18 14390 75.25600000 3186089816 3186089816 1.00000000
20.03783226 -23.62780190 -1.98549783 15 19 14390 31.04400000 3186089816 3186089816 -3.66700000
19.85331535 -31.90809822 -2.18858528 16 20 14391 37.64400000 3186089818 3186089818 -3.33300000
42.14997482 -54.95077133 4.03322029 28 21 14391 69.37200000 3186089818 3186089818 3.33300000
44.41967392 -64.19802094 3.18054128 28 22 14392 78.13200000 3186089821 3186089821 2.33300000
20.21140862 -26.35906792 -1.54725289 7 23 14392 33.25200000 3186089821 3186089821 -2.66700000
19.93923569 -28.82815170 -1.83699203 14 24 14393 35.10000000 3186089823 3186089823 -3.00000000
27.01440430 -31.89941216 -1.70302975 8 27 14394 41.83600000 3186089825 3186089825 -2.33300000
38.80853271 -62.46996307 -2.56818414 26 28 14395 73.58800000 3186089827 3186089827 -2.00000000
38.39766693 -50.13133621 -1.46939301 43 31 14395 63.16400000 3186089830 3186089830 -1.33300000
3.43930745 -4.99114895 -2.82647085 18 0 14403 6.68800000 3186089850 3186089850 -25.00000000
38.23588943 -55.50894928 -1.96163285 28 2 14404 67.43200000 3186089853 3186089853 -1.66700000
6.34610748 -8.31238461 -2.92758846 6 3 14404 10.86000000 3186089853 3186089853 -15.63900000
8.33055592 -12.09840298 -2.93783712 1 4 14405 14.98000000 3186089855 3186089855 -11.31000000
38.21370697 -50.07195663 0.00000000 66 5 14405 62.98800000 3186089855 3186089855 0.00000000
38.08478165 -61.54432297 -0.84258163 29 6 14405 72.38000000 3186089857 3186089857 -0.66700000
10.75210953 -14.08864021 -2.75725555 2 7 14405 17.93600000 3186089857 3186089857 -8.84300000
12.62347984 -18.33983421 -2.83396411 2 8 14406 22.44400000 3186089860 3186089860 -7.25400000
38.60659409 -45.78189850 0.34806389 55 9 14406 59.88800000 3186089860 3186089860 0.33300000
38.35158920 -55.73936462 -0.39323407 56 10 14407 67.66000000 3186089862 3186089862 -0.33300000
14.87758350 -19.50842094 -2.64272666 2 11 14407 24.67600000 3186089862 3186089862 -6.14800000
16.06285095 -25.98767662 -2.85189581 4 12 14408 30.68400000 3186089864 3186089864 -5.33300000
40.57004166 -53.21724319 1.55714154 21 13 14408 66.93600000 3186089864 3186089864 1.33300000
38.70824814 -62.64953613 0.85734248 28 14 14409 73.64800000 3186089867 3186089867 0.66700000
19.91477585 -26.13241768 -2.29749918 13 15 14409 32.93600000 3186089867 3186089867 -4.00000000
18.53233337 -26.96471405 -2.67103291 5 16 14410 32.82800000 3186089869 3186089869 -4.66700000
41.10087585 -48.80885696 1.85702336 28 17 14410 63.83600000 3186089869 3186089869 1.66700000
43.04711533 -62.63393784 1.32659233 28 18 14410 76.01200000 3186089871 3186089871 1.00000000
20.03237152 -23.78920555 -1.99317276 15 19 14410 31.16400000 3186089871 3186089871 -3.66700000
19.83831024 -32.13350677 -2.19928288 16 20 14411 37.82800000 3186089874 3186089874 -3.33300000
106.85317993 -140.31564331 10.27130413 42 21 14411 176.66800000 3186089874 3186089874 3.33300000
44.23830032 -64.41528320 3.18363500 28 22 14412 78.20800000 3186089876 3186089876 2.33300000
20.19430351 -26.52801514 -1.55302274 7 23 14412 33.37600000 3186089876 3186089876 -2.66700000
19.92891693 -29.02930450 -1.84536576 15 24 14413 35.26000000 3186089878 3186089878 -3.00000000
26.89260101 -31.98127937 -1.70237851 8 27 14414 41.82000000 3186089880 3186089880 -2.33300000
38.75175095 -62.86708069 -2.57893324 26 28 14415 73.89600000 3186089883 3186089883 -2.00000000
38.09025192 -50.10937119 -1.46464729 28 31 14416 62.96000000 3186089885 3186089885 -1.33300000
3.55693769 -5.20061588 -2.93804216 34 0 14423 6.95200000 3186089906 3186089906 -25.00000000
38.23596191 -55.92593384 -1.97163999 28 2 14424 67.77600000 3186089908 3186089908 -1.66700000
6.32403374 -8.34369564 -2.93082333 5 3 14424 10.87200000 3186089908 3186089908 -15.63900000
8.29048729 -12.13064671 -2.93862152 1 4 14425 14.98400000 3186089910 3186089910 -11.31000000
38.24643326 -50.47922897 0.00000000 44 5 14425 63.33200000 3186089910 3186089910 0.00000000
37.96808243 -61.83708954 -0.84477013 29 6 14425 72.56800000 3186089913 3186089913 -0.66700000
10.71241379 -14.13868713 -2.75971508 2 7 14425 17.95200000 3186089913 3186089913 -8.84300000
12.57505322 -18.40672112 -2.83749962 2 8 14426 22.47200000 3186089915 3186089915 -7.25400000
38.66739273 -46.18012619 0.35006317 56 9 14426 60.23200000 3186089915 3186089915 0.33300000
38.16581345 -55.88610840 -0.39332706 28 10 14427 67.67600000 3186089917 3186089917 -0.33300000
14.86701012 -19.63633156 -2.65300798 2 11 14427 24.77200000 3186089917 3186089917 -6.14800000
15.99702454 -26.08432961 -2.85635710 4 12 14428 30.73200000 3186089920 3186089920 -5.33300000
40.30439377 -53.25331116 1.55407083 42 13 14428 66.80400000 3186089920 3186089920 1.33300000
38.90323257 -63.45944595 0.86656225 28 14 14429 74.44000000 3186089922 3186089922 0.66700000
19.91010666 -26.31633186 -2.30754423 13 15 14429 33.08000000 3186089922 3186089922 -4.00000000
18.51448250 -27.14121628 -2.68209839 5 16 14430 32.96400000 3186089924 3186089924 -4.66700000
