# .PCD v0.7 - Point Cloud Data file format
VERSION 0.7
FIELDS x y z intensity laser_id azimuth distance_m adjustedtime timestamp vertical_angle
SIZE 4 4 4 1 1 2 8 8 4 8
TYPE F F F U U U F U U F
COUNT 1 1 1 1 1 1 1 1 1 1
WIDTH 522
HEIGHT 1
VIEWPOINT 0 0 0 1 0 0 0
POINTS 522
DATA ascii
15.04383564 36.62602615 -1.15233421 8 2 2093 39.61200000 3185955705 3185955705 -1.66700000
2.91920996 8.22989750 -2.44450927 21 3 2093 9.06800000 3185955705 3185955705 -15.63900000
3.76745963 9.16777992 -1.98235357 13 4 2094 10.10800000 3185955707 3185955707 -11.31000000
21.34019661 60.12941360 0.00000000 22 5 2094 63.80400000 3185955707 3185955707 0.00000000
20.03264809 42.66815567 -0.54876065 13 6 2095 47.14000000 3185955710 3185955710 -0.66700000
4.00617599 11.28179359 -1.86256182 6 7 2095 12.11600000 3185955710 3185955710 -8.84300000
6.67528200 16.23564911 -2.23444247 3 8 2095 17.69600000 3185955712 3185955712 -7.25400000
21.53596687 71.55618286 0.43431267 28 9 2095 74.72800000 3185955712 3185955712 0.33300000
21.32929993 51.85147476 -0.32586238 20 10 2096 56.06800000 3185955714 3185955714 -0.33300000
6.56283092 18.47136688 -2.11152530 3 11 2096 19.71600000 3185955714 3185955714 -6.14800000
9.05536366 19.26981163 -1.98751593 2 12 2097 21.38400000 3185955717 3185955717 -5.33300000
8.70132637 24.46318054 -1.81562150 3 15 2098 26.02800000 3185955719 3185955719 -4.00000000
8.88371849 21.56419754 -1.90392864 3 16 2099 23.40000000 3185955721 3185955721 -4.66700000
42.78327560 103.85145569 1.96053350 28 18 2099 112.33600000 3185955724 3185955724 1.00000000
8.05320263 26.69032860 -1.78671777 4 19 2099 27.93600000 3185955724 3185955724 -3.66700000
11.73163033 24.93098450 -1.60463703 4 20 2100 27.60000000 3185955726 3185955726 -3.33300000
41.36135483 100.30047607 4.42015934 28 22 2101 108.58400000 3185955728 3185955728 2.33300000
10.61007023 29.78008842 -1.47261703 3 23 2101 31.64800000 3185955728 3185955728 -2.66700000
10.12872696 33.48458862 -1.42524326 6 27 2103 35.01200000 3185955733 3185955733 -2.33300000
14.74141979 31.27042580 -1.20724344 5 28 2104 34.59200000 3185955735 3185955735 -2.00000000
14.38054466 40.27400970 -0.99510407 6 31 2105 42.77600000 3185955737 3185955737 -1.33300000
2.20352554 5.31453371 -2.68278074 14 0 2112 6.34800000 3185955758 3185955758 -25.00000000
14.03279018 46.12945557 -0.84162486 10 1 2112 48.22400000 3185955758 3185955758 -1.00000000
2.99733353 8.35743713 -2.48548484 26 3 2113 9.22000000 3185955760 3185955760 -15.63900000
3.81146646 9.18355465 -1.98862934 13 4 2114 10.14000000 3185955763 3185955763 -11.31000000
21.49456596 59.90019226 0.00000000 22 5 2114 63.64000000 3185955763 3185955763 0.00000000
20.13694191 42.50399017 -0.54754996 13 6 2115 47.03600000 3185955765 3185955765 -0.66700000
4.03618336 11.24170113 -1.85825741 4 7 2115 12.08800000 3185955765 3185955765 -8.84300000
6.72430611 16.19392586 -2.23191714 3 8 2115 17.67600000 3185955767 3185955767 -7.25400000
21.67366600 71.11325836 0.43208092 28 9 2115 74.34400000 3185955767 3185955767 0.33300000
21.40427780 51.52183151 -0.32425830 20 10 2116 55.79200000 3185955770 3185955770 -0.33300000
6.61920071 18.42588806 -2.10895514 3 11 2116 19.69200000 3185955770 3185955770 -6.14800000
9.11916065 19.23088646 -1.98677242 2 12 2117 21.37600000 3185955772 3185955772 -5.33300000
8.79611778 24.45894241 -1.81757474 3 15 2118 26.05600000 3185955774 3185955774 -4.00000000
8.94974804 21.51097107 -1.90197587 3 16 2119 23.37600000 3185955777 3185955777 -4.66700000
42.38044739 101.86259460 1.92576838 28 18 2119 110.34400000 3185955779 3185955779 1.00000000
8.14165497 26.64678574 -1.78569448 4 19 2119 27.92000000 3185955779 3185955779 -3.66700000
11.83228779 24.91873932 -1.60649741 4 20 2120 27.63200000 3185955781 3185955781 -3.33300000
45.75642395 127.09335327 7.86667442 42 21 2120 135.30800000 3185955781 3185955781 3.33300000
41.60365677 99.89722443 4.40876150 28 22 2121 108.30400000 3185955784 3185955784 2.33300000
10.68687439 29.66768837 -1.46889448 3 23 2121 31.56800000 3185955784 3185955784 -2.66700000
48.43641663 116.18950653 10.27633286 28 26 2123 126.30000000 3185955788 3185955788 4.66700000
10.23735523 33.42227936 -1.42410350 6 27 2123 34.98400000 3185955788 3185955788 -2.33300000
14.84018040 31.19711876 -1.20640576 5 28 2124 34.56800000 3185955790 3185955790 -2.00000000
14.51673317 40.23362350 -0.99529016 6 31 2124 42.78400000 3185955793 3185955793 -1.33300000
2.22626376 5.31684113 -2.68785214 13 0 2132 6.36000000 3185955813 3185955813 -25.00000000
14.10542774 45.79352570 -0.83638912 10 1 2132 47.92400000 3185955813 3185955813 -1.00000000
15.14621925 36.15501785 -1.14081442 16 2 2133 39.21600000 3185955816 3185955816 -1.66700000
3.01598406 8.31795406 -2.47685838 25 3 2133 9.18800000 3185955816 3185955816 -15.63900000
3.85259676 9.19189930 -1.99333620 13 4 2134 10.16400000 3185955818 3185955818 -11.31000000
21.56847572 59.45253754 0.00000000 22 5 2134 63.24400000 3185955818 3185955818 0.00000000
20.26743317 42.41532516 -0.54727060 13 6 2134 47.01200000 3185955820 3185955820 -0.66700000
5.16660976 14.24152946 -2.35694933 2 7 2134 15.33200000 3185955820 3185955820 -8.84300000
6.77158594 16.14839935 -2.22888660 3 8 2135 17.65200000 3185955823 3185955823 -7.25400000
21.68704796 70.27658081 0.42745462 28 9 2135 73.54800000 3185955823 3185955823 0.33300000
21.37353897 50.94516754 -0.32109660 19 10 2136 55.24800000 3185955825 3185955825 -0.33300000
6.67397547 18.37650299 -2.10595632 3 11 2136 19.66400000 3185955825 3185955825 -6.14800000
9.18107605 19.18815994 -1.98565710 2 12 2137 21.36400000 3185955827 3185955827 -5.33300000
43.31179428 119.19232178 2.95097589 28 13 2137 126.85200000 3185955827 3185955827 1.33300000
8.87598801 24.41308975 -1.81645858 3 15 2138 26.04000000 3185955830 3185955830 -4.00000000
9.02941418 21.49062538 -1.90295231 3 16 2139 23.38800000 3185955832 3185955832 -4.66700000
41.79430771 135.09906006 4.11561251 28 17 2139 141.47600000 3185955832 3185955832 1.66700000
42.74660110 101.73984528 1.92625701 28 18 2139 110.37200000 3185955834 3185955834 1.00000000
8.20158672 26.51142502 -1.77853131 4 19 2139 27.80800000 3185955834 3185955834 -3.66700000
11.89159107 24.81966591 -1.60277653 4 20 2140 27.56800000 3185955837 3185955837 -3.33300000
45.49094772 124.98535919 7.74597788 42 21 2140 133.23200000 3185955837 3185955837 3.33300000
42.78724670 101.73712921 4.49652624 28 22 2141 110.46000000 3185955839 3185955839 2.33300000
10.76986027 29.57388496 -1.46610260 3 23 2141 31.50800000 3185955839 3185955839 -2.66700000
11.60833073 27.58816528 -1.56861329 5 24 2142 29.97200000 3185955841 3185955841 -3.00000000
49.40320206 117.35353088 10.39447403 28 26 2143 127.75200000 3185955843 3185955843 4.66700000
10.34093571 33.34434891 -1.42231238 6 27 2143 34.94000000 3185955843 3185955843 -2.33300000
14.90401363 31.05142593 -1.20277631 5 28 2144 34.46400000 3185955846 3185955846 -2.00000000
14.59692097 39.99607468 -0.99073064 6 31 2145 42.58800000 3185955848 3185955848 -1.33300000
2.24480963 5.30903769 -2.68785214 16 0 2152 6.36000000 3185955869 3185955869 -25.00000000
14.24376011 45.67528534 -0.83513254 10 1 2152 47.85200000 3185955869 3185955869 -1.00000000
15.25208092 36.05405426 -1.13930166 8 2 2153 39.16400000 3185955871 3185955871 -1.66700000
3.03572130 8.28205872 -2.46931028 18 3 2153 9.16000000 3185955871 3185955871 -15.63900000
3.89383173 9.20006752 -1.99804294 13 4 2154 10.18800000 3185955873 3185955873 -11.31000000
20.71400452 56.48146439 0.00000000 21 5 2154 60.16000000 3185955873 3185955873 0.00000000
20.38409996 42.27946854 -0.54643244 12 6 2154 46.94000000 3185955876 3185955876 -0.66700000
5.21629047 14.22340775 -2.35694933 4 7 2154 15.33200000 3185955876 3185955876 -8.84300000
6.82172394 16.11004829 -2.22686648 3 8 2155 17.63600000 3185955878 3185955878 -7.25400000
21.62925339 69.23069000 0.42154974 28 9 2155 72.53200000 3185955878 3185955878 0.33300000
21.38584518 50.47984695 -0.31863236 18 10 2156 54.82400000 3185955880 3185955880 -0.33300000
6.72711563 18.32322884 -2.10252929 3 11 2156 19.63200000 3185955880 3185955880 -6.14800000
9.23068428 19.12013054 -1.98193932 2 12 2157 21.32400000 3185955883 3185955883 -5.33300000
42.07434464 114.53974915 2.83940578 28 13 2157 122.05600000 3185955883 3185955883 1.33300000
8.90746784 24.23588943 -1.80557656 3 15 2158 25.88400000 3185955885 3185955885 -4.00000000
9.08569050 21.41493607 -1.89904678 3 16 2159 23.34000000 3185955887 3185955887 -4.66700000
42.34092331 135.19273376 4.12294340 28 17 2159 141.72800000 3185955887 3185955887 1.66700000
43.02337646 101.40592194 1.92276657 28 18 2159 110.17200000 3185955890 3185955890 1.00000000
8.28572750 26.45596886 -1.77674043 4 19 2159 27.78000000 3185955890 3185955890 -3.66700000
11.97641754 24.77441025 -1.60254395 4 20 2160 27.56400000 3185955892 3185955892 -3.33300000
46.45229721 126.25364685 7.83458185 42 21 2160 134.75600000 3185955892 3185955892 3.33300000
42.07352448 99.07093048 4.38515091 28 22 2161 107.72400000 3185955894 3185955894 2.33300000
10.85508156 29.48736572 -1.46368301 3 23 2161 31.45600000 3185955894 3185955894 -2.66700000
11.73892593 27.62835884 -1.57321882 5 24 2162 30.06000000 3185955896 3185955896 -3.00000000
10.41057682 33.15933609 -1.41596210 6 27 2163 34.78400000 3185955899 3185955899 -2.33300000
14.98094940 30.93445015 -1.20026350 5 28 2164 34.39200000 3185955901 3185955901 -2.00000000
14.68108082 39.79481125 -0.98700851 6 31 2165 42.42800000 3185955903 3185955903 -1.33300000
2.27471566 5.32784224 -2.70137596 12 0 2172 6.39200000 3185955924 3185955924 -25.00000000
14.39468193 45.59859085 -0.83464390 10 1 2172 47.82400000 3185955924 3185955924 -1.00000000
15.40768147 36.07045746 -1.14151251 8 2 2173 39.24000000 3185955926 3185955926 -1.66700000
3.01375890 8.13415718 -2.42833495 13 3 2173 9.00800000 3185955926 3185955926 -15.63900000
3.93362927 9.20445347 -2.00196528 12 4 2174 10.20800000 3185955929 3185955929 -11.31000000
21.56728554 58.17908859 0.00000000 21 5 2174 62.04800000 3185955929 3185955929 0.00000000
20.44932747 42.03900909 -0.54424393 12 6 2174 46.75200000 3185955931 3185955931 -0.66700000
5.26316023 14.19770050 -2.35571933 4 7 2174 15.32400000 3185955931 3185955931 -8.84300000
6.87011719 16.06789589 -2.22434092 3 8 2175 17.61600000 3185955933 3185955933 -7.25400000
21.63076210 68.39583588 0.41692343 28 9 2175 71.73600000 3185955933 3185955933 0.33300000
21.39516640 50.01506805 -0.31616810 17 10 2176 54.40000000 3185955936 3185955936 -0.33300000
6.78411627 18.28099251 -2.10038733 3 11 2176 19.61200000 3185955936 3185955936 -6.14800000
9.30085754 19.09495354 -1.98268282 2 12 2177 21.33200000 3185955938 3185955938 -5.33300000
8.99062252 24.20090866 -1.80529749 3 15 2178 25.88000000 3185955940 3185955940 -4.00000000
9.12270927 21.29513931 -1.89123583 3 16 2179 23.24400000 3185955943 3185955943 -4.66700000
42.65421295 99.56772614 1.89072394 28 18 2179 108.33600000 3185955945 3185955945 1.00000000
8.37199402 26.40785980 -1.77546132 4 19 2179 27.76000000 3185955945 3185955945 -3.66700000
12.05232048 24.71091843 -1.60114861 4 20 2180 27.54000000 3185955947 3185955947 -3.33300000
42.60337448 99.35323334 4.40420198 28 22 2181 108.19200000 3185955949 3185955949 2.33300000
10.93983078 29.40061188 -1.46126342 3 23 2181 31.40400000 3185955949 3185955949 -2.66700000
11.82269669 27.55784607 -1.57154405 5 24 2182 30.02800000 3185955952 3185955952 -3.00000000
10.52262974 33.11136627 -1.41547358 6 27 2183 34.77200000 3185955954 3185955954 -2.33300000
15.05900574 30.82090759 -1.19789028 5 28 2184 34.32400000 3185955956 3185955956 -2.00000000
14.80313492 39.69835663 -0.98589188 6 31 2185 42.38000000 3185955959 3185955959 -1.33300000
2.25168133 5.22332621 -2.65235209 15 0 2192 6.27600000 3185955979 3185955979 -25.00000000
14.49289894 45.35758591 -0.83115339 10 1 2192 47.62400000 3185955979 3185955979 -1.00000000
15.50974560 35.96138382 -1.13976717 8 2 2193 39.18000000 3185955982 3185955982 -1.66700000
3.02862549 8.08751488 -2.41755176 15 3 2193 8.96800000 3185955982 3185955982 -15.63900000
3.97816658 9.21947670 -2.00824118 10 4 2194 10.24000000 3185955984 3185955984 -11.31000000
21.57515717 57.58279800 0.00000000 21 5 2194 61.49200000 3185955984 3185955984 0.00000000
20.53427124 41.84169769 -0.54261416 12 6 2194 46.61200000 3185955986 3185955986 -0.66700000
5.30714035 14.16443729 -2.35325980 4 7 2194 15.30800000 3185955986 3185955986 -8.84300000
6.91987181 16.02924347 -2.22232080 3 8 2195 17.60000000 3185955989 3185955989 -7.25400000
21.61817169 67.53514862 0.41213441 28 9 2195 70.91200000 3185955989 3185955989 0.33300000
21.40467644 49.55818558 -0.31375036 16 10 2196 53.98400000 3185955991 3185955991 -0.33300000
6.83950758 18.23485756 -2.09781694 3 11 2196 19.58800000 3185955991 3185955991 -6.14800000
9.36745453 19.06237030 -1.98268282 2 12 2197 21.33200000 3185955993 3185955993 -5.33300000
9.06382370 24.13949394 -1.80306530 3 15 2198 25.84800000 3185955995 3185955995 -4.00000000
9.18907356 21.24486923 -1.88960850 3 16 2199 23.22400000 3185955998 3185955998 -4.66700000
43.75524139 136.36338806 4.16785908 28 17 2199 143.27200000 3185955998 3185955998 1.66700000
41.54558182 96.05216217 1.82670844 28 18 2199 104.66800000 3185956000 3185956000 1.00000000
8.45070744 26.33666420 -1.77264714 4 19 2199 27.71600000 3185956000 3185956000 -3.66700000
12.06798267 24.52537918 -1.59184635 4 20 2200 27.38000000 3185956002 3185956002 -3.33300000
46.61462784 124.01620483 7.71574593 42 21 2200 132.71200000 3185956002 3185956002 3.33300000
42.85941315 98.99485016 4.39492083 28 22 2201 107.96400000 3185956005 3185956005 2.33300000
11.01144886 29.27996826 -1.45716870 3 23 2201 31.31600000 3185956005 3185956005 -2.66700000
11.92040634 27.52007484 -1.57175338 5 24 2202 30.03200000 3185956007 3185956007 -3.00000000
10.59653759 32.94507599 -1.40993738 5 27 2203 34.63600000 3185956009 3185956009 -2.33300000
15.16296482 30.76098251 -1.19761109 5 28 2204 34.31600000 3185956012 3185956012 -2.00000000
14.88802814 39.50424957 -0.98235589 5 31 2205 42.22800000 3185956014 3185956014 -1.33300000
2.26845384 5.21211052 -2.65066171 14 0 2212 6.27200000 3185956035 3185956035 -25.00000000
14.62037373 45.21158218 -0.82940817 10 1 2212 47.52400000 3185956035 3185956035 -1.00000000
15.63517952 35.90702438 -1.13976717 8 2 2213 39.18000000 3185956037 3185956037 -1.66700000
3.05683756 8.07689381 -2.41755176 18 3 2213 8.96800000 3185956037 3185956037 -15.63900000
3.99622560 9.17317104 -2.00118089 12 4 2214 10.20400000 3185956039 3185956039 -11.31000000
21.55221939 56.91609192 0.00000000 21 5 2214 60.86000000 3185956039 3185956039 0.00000000
20.60388947 41.61563492 -0.54061192 12 6 2214 46.44000000 3185956042 3185956042 -0.66700000
5.35235214 14.13473701 -2.35141516 4 7 2214 15.29600000 3185956042 3185956042 -8.84300000
6.96468449 15.97952938 -2.21878529 3 8 2215 17.57200000 3185956044 3185956044 -7.25400000
21.60970116 66.70584106 0.40753138 28 9 2215 70.12000000 3185956044 3185956044 0.33300000
21.36489487 48.99552155 -0.31065843 15 10 2216 53.45200000 3185956046 3185956046 -0.33300000
6.89888811 18.19971657 -2.09653187 3 11 2216 19.57600000 3185956046 3185956046 -6.14800000
9.38617516 18.93321228 -1.97264493 2 12 2217 21.22400000 3185956048 3185956048 -5.33300000
9.15510941 24.12636185 -1.80446041 3 15 2218 25.86800000 3185956051 3185956051 -4.00000000
9.25041294 21.18343544 -1.88700485 3 16 2219 23.19200000 3185956053 3185956053 -4.66700000
44.12724304 135.89038086 4.15808439 28 17 2219 142.93600000 3185956053 3185956053 1.66700000
41.79738617 95.71596527 1.82307839 28 18 2219 104.46000000 3185956055 3185956055 1.00000000
8.51299953 26.21588707 -1.76650727 4 19 2219 27.62000000 3185956055 3185956055 -3.66700000
12.18547821 24.54748726 -1.59603238 4 20 2220 27.45200000 3185956058 3185956058 -3.33300000
45.41793060 119.56354523 7.44853878 42 21 2220 128.11600000 3185956058 3185956058 3.33300000
44.20354843 101.12981415 4.49652624 28 22 2221 110.46000000 3185956060 3185956060 2.33300000
11.09513378 29.19279671 -1.45474911 3 23 2221 31.26400000 3185956060 3185956060 -2.66700000
11.96678257 27.36484146 -1.56526375 5 24 2222 29.90800000 3185956062 3185956062 -3.00000000
10.69539165 32.85847855 -1.40782058 5 27 2223 34.58400000 3185956065 3185956065 -2.33300000
15.21328926 30.59332657 -1.19314396 5 28 2224 34.18800000 3185956067 3185956067 -2.00000000
14.99476147 39.39112473 -0.98077399 5 31 2224 42.16000000 3185956069 3185956069 -1.33300000
2.24288416 5.10459089 -2.59994745 14 0 2232 6.15200000 3185956090 3185956090 -25.00000000
14.74700642 45.06524658 -0.82766294 10 1 2232 47.42400000 3185956090 3185956090 -1.00000000
15.74594212 35.81928635 -1.13871992 8 2 2233 39.14400000 3185956092 3185956092 -1.66700000
3.06712461 8.01940346 -2.40353394 16 3 2233 8.91600000 3185956092 3185956092 -15.63900000
4.04559135 9.19866085 -2.00980997 10 4 2234 10.24800000 3185956095 3185956095 -11.31000000
21.59350967 56.42957306 0.00000000 21 5 2234 60.42000000 3185956095 3185956095 0.00000000
20.72767639 41.48258972 -0.53986686 12 6 2235 46.37600000 3185956097 3185956097 -0.66700000
5.40129614 14.10764217 -2.35018516 4 7 2235 15.28800000 3185956097 3185956097 -8.84300000
7.02201891 15.95875263 -2.21929026 3 8 2235 17.57600000 3185956099 3185956099 -7.25400000
21.65551758 66.05986786 0.40404424 28 9 2235 69.52000000 3185956099 3185956099 0.33300000
21.36818504 48.53990936 -0.30824065 15 10 2236 53.03600000 3185956101 3185956101 -0.33300000
6.95099401 18.14581299 -2.09310460 3 11 2236 19.54400000 3185956101 3185956101 -6.14800000
9.46289635 18.92170715 -1.97487557 2 12 2237 21.24800000 3185956104 3185956104 -5.33300000
44.24192047 115.43476105 2.87662697 28 13 2237 123.65600000 3185956104 3185956104 1.33300000
9.21641159 24.03464508 -1.79999602 2 15 2238 25.80400000 3185956106 3185956106 -4.00000000
9.32751656 21.15831184 -1.88765574 3 16 2239 23.20000000 3185956108 3185956108 -4.66700000
44.95579529 136.81430054 4.19113159 28 17 2239 144.07200000 3185956108 3185956108 1.66700000
42.16567612 95.60237885 1.82384634 28 18 2240 104.50400000 3185956111 3185956111 1.00000000
8.60653496 26.17692375 -1.76599562 4 19 2240 27.61200000 3185956111 3185956111 -3.66700000
12.25321102 24.46909714 -1.59370685 4 20 2240 27.41200000 3185956113 3185956113 -3.33300000
41.98405838 109.37221527 6.82273054 42 21 2240 117.35200000 3185956113 3185956113 3.33300000
44.07224655 99.87793732 4.44767761 28 22 2241 109.26000000 3185956115 3185956115 2.33300000
11.18264294 29.11659050 -1.45288777 3 23 2241 31.22400000 3185956115 3185956115 -2.66700000
12.05255127 27.30097771 -1.56400776 5 24 2242 29.88400000 3185956118 3185956118 -3.00000000
10.77126503 32.70326614 -1.40277290 5 27 2243 34.46000000 3185956120 3185956120 -2.33300000
15.31819439 30.53646278 -1.19300437 5 28 2244 34.18400000 3185956122 3185956122 -2.00000000
15.12642860 39.32361603 -0.98040175 5 31 2244 42.14400000 3185956125 3185956125 -1.33300000
2.32389402 5.23922682 -2.67263794 13 0 2252 6.32400000 3185956145 3185956145 -25.00000000
14.89542389 44.98691940 -0.82717425 10 1 2252 47.39600000 3185956145 3185956145 -1.00000000
15.81573772 35.63985062 -1.13476360 8 2 2253 39.00800000 3185956148 3185956148 -1.66700000
3.14369845 8.13440037 -2.44127440 15 3 2253 9.05600000 3185956148 3185956148 -15.63900000
4.10791636 9.25259590 -2.02471495 2 4 2254 10.32400000 3185956150 3185956150 -11.31000000
21.56819534 55.77930832 0.00000000 20 5 2254 59.80400000 3185956150 3185956150 0.00000000
20.80754089 41.28140640 -0.53819054 12 6 2255 46.23200000 3185956152 3185956152 -0.66700000
5.44765568 14.08133030 -2.34895539 4 7 2255 15.28000000 3185956152 3185956152 -8.84300000
7.06640720 15.90875912 -2.21575475 3 8 2255 17.54800000 3185956154 3185956154 -7.25400000
21.63538361 65.22835541 0.39941797 28 9 2255 68.72400000 3185956154 3185956154 0.33300000
21.37180519 48.09218979 -0.30586940 14 10 2256 52.62800000 3185956157 3185956157 -0.33300000
7.00567865 18.09918594 -2.09053445 3 11 2256 19.52000000 3185956157 3185956157 -6.14800000
9.50736141 18.84589005 -1.97041428 2 12 2257 21.20000000 3185956159 3185956159 -5.33300000
9.30601883 24.01721001 -1.80111217 2 15 2258 25.82000000 3185956161 3185956161 -4.00000000
9.39321136 21.10741234 -1.88602853 3 16 2259 23.18000000 3185956164 3185956164 -4.66700000
43.20293808 129.94853210 3.98540306 28 17 2259 137.00000000 3185956164 3185956164 1.66700000
42.59304428 95.71049500 1.82859337 28 18 2259 104.77600000 3185956166 3185956166 1.00000000
8.67818069 26.10278511 -1.76292562 4 19 2259 27.56400000 3185956166 3185956166 -3.66700000
12.33854866 24.42617607 -1.59370685 4 20 2260 27.41200000 3185956168 3185956168 -3.33300000
42.32659531 109.12447357 6.81645155 42 21 2260 117.24400000 3185956168 3185956168 3.33300000
42.57646561 95.58340454 4.26302910 28 22 2261 104.72400000 3185956171 3185956171 2.33300000
11.25529861 29.00287819 -1.44916534 3 23 2261 31.14400000 3185956171 3185956171 -2.66700000
12.14777565 27.25873947 -1.56400776 5 24 2262 29.88400000 3185956173 3185956173 -3.00000000
10.87903690 32.64651108 -1.40195870 5 27 2263 34.44000000 3185956175 3185956175 -2.33300000
15.41205883 30.45783615 -1.19202721 5 28 2264 34.15600000 3185956178 3185956178 -2.00000000
15.15639687 38.99475479 -0.97351587 5 31 2264 41.84800000 3185956180 3185956180 -1.33300000
2.26365161 5.05572128 -2.58304286 14 0 2272 6.11200000 3185956200 3185956200 -25.00000000
14.93549538 44.58576202 -0.82075179 9 1 2272 47.02800000 3185956200 3185956200 -1.00000000
15.89428043 35.48225403 -1.13150537 8 2 2273 38.89600000 3185956202 3185956202 -1.66700000
3.21971059 8.24537182 -2.47793674 20 3 2273 9.19200000 3185956202 3185956202 -15.63900000
4.08083725 9.10576534 -1.99568951 2 4 2274 10.17600000 3185956205 3185956205 -11.31000000
21.55898476 55.18207932 0.00000000 20 5 2274 59.24400000 3185956205 3185956205 0.00000000
20.87183571 41.06954956 -0.53632796 12 6 2274 46.07200000 3185956207 3185956207 -0.66700000
5.49000645 14.05214310 -2.34711075 4 7 2274 15.26800000 3185956207 3185956207 -8.84300000
7.12027311 15.88037491 -2.21524978 3 8 2275 17.54400000 3185956209 3185956209 -7.25400000
21.58044434 64.31059265 0.39425698 28 9 2275 67.83600000 3185956209 3185956209 0.33300000
21.37092400 47.64139175 -0.30347487 13 10 2276 52.21600000 3185956212 3185956212 -0.33300000
7.06302023 18.05980682 -2.08882093 3 11 2276 19.50400000 3185956212 3185956212 -6.14800000
9.55863762 18.78419113 -1.96744001 2 12 2277 21.16800000 3185956214 3185956214 -5.33300000
42.13531113 107.68257141 2.69070792 28 13 2277 115.66400000 3185956214 3185956214 1.33300000
39.20432281 77.00925446 1.00602245 28 14 2278 86.42000000 3185956216 3185956216 0.66700000
9.38979721 23.98458099 -1.80111217 2 15 2278 25.82000000 3185956216 3185956216 -4.00000000
9.46193218 21.06358528 -1.88505208 3 16 2279 23.16800000 3185956218 3185956218 -4.66700000
43.74550247 130.06222534 3.99354863 28 17 2279 137.28000000 3185956218 3185956218 1.66700000
8.76033592 26.04584885 -1.76113486 3 19 2279 27.53600000 3185956221 3185956221 -3.66700000
12.40742111 24.35093498 -1.59161389 4 20 2280 27.37600000 3185956223 3185956223 -3.33300000
42.75679016 109.10247040 6.82435846 42 21 2280 117.38000000 3185956223 3185956223 3.33300000
42.78693008 95.16081238 4.25081682 28 22 2281 104.42400000 3185956225 3185956225 2.33300000
11.33604908 28.91133308 -1.44655955 3 23 2281 31.08800000 3185956225 3185956225 -2.66700000
12.22154903 27.16881180 -1.56128621 5 24 2282 29.83200000 3185956228 3185956228 -3.00000000
10.97760773 32.56288910 -1.40000474 5 27 2283 34.39200000 3185956230 3185956230 -2.33300000
15.49102306 30.35044479 -1.18993318 5 28 2284 34.09600000 3185956232 3185956232 -2.00000000
15.26464939 38.87089157 -0.97174788 5 31 2284 41.77200000 3185956235 3185956235 -1.33300000
2.28128552 5.04778862 -2.58304286 14 0 2292 6.11200000 3185956255 3185956255 -25.00000000
15.09745502 44.55229568 -0.82110083 9 1 2292 47.04800000 3185956255 3185956255 -1.00000000
15.97850513 35.33911896 -1.12871277 8 2 2293 38.80000000 3185956258 3185956258 -1.66700000
3.23009586 8.18750191 -2.46391892 18 3 2293 9.14000000 3185956258 3185956258 -15.63900000
4.23869133 9.37021351 -2.05687809 3 4 2294 10.48800000 3185956260 3185956260 -11.31000000
21.55174637 54.60047913 0.00000000 19 5 2294 58.70000000 3185956260 3185956260 0.00000000
20.99317360 40.95373154 -0.53576922 12 6 2294 46.02400000 3185956262 3185956262 -0.66700000
5.53321934 14.01818848 -2.34465098 2 7 2294 15.25200000 3185956262 3185956262 -8.84300000
7.15930176 15.81927395 -2.21019888 3 8 2295 17.50400000 3185956265 3185956265 -7.25400000
21.56308174 63.52278900 0.38988641 28 9 2295 67.08400000 3185956265 3185956265 0.33300000
21.37705994 47.21305084 -0.30121985 12 10 2296 51.82800000 3185956267 3185956267 -0.33300000
7.11724901 18.01284981 -2.08625054 3 11 2296 19.48000000 3185956267 3185956267 -6.14800000
9.62051201 18.74362373 -1.96669650 2 12 2297 21.16000000 3185956269 3185956269 -5.33300000
42.47418213 107.44186401 2.68838143 28 13 2297 115.56400000 3185956269 3185956269 1.33300000
39.30846405 76.55171204 1.00183165 28 14 2298 86.06000000 3185956271 3185956271 0.66700000
9.40595150 23.78097153 -1.78827691 2 15 2298 25.63600000 3185956271 3185956271 -4.00000000
9.52387619 21.00501251 -1.88277388 3 16 2299 23.14000000 3185956274 3185956274 -4.66700000
42.44260025 124.74568939 3.83483052 28 17 2299 131.82400000 3185956274 3185956274 1.66700000
40.59957123 89.54279327 1.71613002 28 18 2299 98.33200000 3185956276 3185956276 1.00000000
8.82162666 25.92819214 -1.75525069 3 19 2299 27.44400000 3185956276 3185956276 -3.66700000
12.49417114 24.31102753 -1.59184635 4 20 2300 27.38000000 3185956278 3185956278 -3.33300000
43.03295517 94.82163239 4.24235010 28 22 2301 104.21600000 3185956281 3185956281 2.33300000
11.41482639 28.81586456 -1.44376767 3 23 2301 31.02800000 3185956281 3185956281 -2.66700000
12.31631184 27.12598610 -1.56128621 5 24 2302 29.83200000 3185956283 3185956283 -3.00000000
11.04218674 32.38062668 -1.39381731 5 27 2303 34.24000000 3185956285 3185956285 -2.33300000
15.54380798 30.19311333 -1.18588495 5 28 2304 33.98000000 3185956288 3185956288 -2.00000000
15.39434242 38.80250168 -0.97137570 5 31 2304 41.75600000 3185956290 3185956290 -1.33300000
2.37922454 5.21831799 -2.67432833 13 0 2311 6.32800000 3185956311 3185956311 -25.00000000
15.16604900 44.27118683 -0.81684244 9 1 2311 46.80400000 3185956311 3185956311 -1.00000000
16.08067131 35.25320053 -1.12766552 8 2 2312 38.76400000 3185956313 3185956313 -1.66700000
3.26007986 8.18390179 -2.46607542 26 3 2312 9.14800000 3185956313 3185956313 -15.63900000
5.17677546 11.34365368 -2.49382758 3 4 2313 12.71600000 3185956315 3185956315 -11.31000000
21.55349541 54.07910538 0.00000000 19 5 2313 58.21600000 3185956315 3185956315 0.00000000
21.11784935 40.86257172 -0.53548980 12 6 2313 46.00000000 3185956318 3185956318 -0.66700000
7.20677710 15.78461742 -2.20868373 3 8 2314 17.49200000 3185956320 3185956320 -7.25400000
21.55420113 62.81154251 0.38595757 28 9 2314 66.40800000 3185956320 3185956320 0.33300000
21.36731339 46.77806854 -0.29889509 12 10 2315 51.42800000 3185956322 3185956322 -0.33300000
7.16515303 17.95959663 -2.08282351 3 11 2315 19.44800000 3185956322 3185956322 -6.14800000
9.68078423 18.70808220 -1.96632469 2 12 2316 21.15600000 3185956324 3185956324 -5.33300000
42.91325760 107.50840759 2.69359255 28 13 2316 115.78800000 3185956324 3185956324 1.33300000
39.29547501 75.90589905 0.99507982 28 14 2317 85.48000000 3185956327 3185956327 0.66700000
9.48328114 23.74594498 -1.78799796 2 15 2317 25.63200000 3185956327 3185956327 -4.00000000
9.54870415 20.87542725 -1.87398660 3 16 2318 23.03200000 3185956329 3185956329 -4.66700000
40.80870438 89.17505646 1.71180189 28 18 2319 98.08400000 3185956331 3185956331 1.00000000
8.89389420 25.84439659 -1.75166905 3 19 2319 27.38800000 3185956331 3185956331 -3.66700000
12.57472134 24.26946259 -1.59184635 4 20 2319 27.38000000 3185956334 3185956334 -3.33300000
43.42580032 108.62722015 6.81296301 42 21 2319 117.18400000 3185956334 3185956334 3.33300000
40.99961853 89.55093384 4.01259804 28 22 2320 98.57200000 3185956336 3185956336 2.33300000
11.48064327 28.70365524 -1.44004524 3 23 2320 30.94800000 3185956336 3185956336 -2.66700000
12.39455223 27.05957222 -1.55982089 5 24 2321 29.80400000 3185956338 3185956338 -3.00000000
11.14299202 32.32493973 -1.39300311 5 27 2322 34.22000000 3185956341 3185956341 -2.33300000
15.62727261 30.10946846 -1.18462849 5 28 2323 33.94400000 3185956343 3185956343 -2.00000000
15.51549625 38.73267746 -0.97091043 5 31 2323 41.73600000 3185956345 3185956345 -1.33300000
2.39803076 5.21369314 -2.67601871 15 0 2330 6.33200000 3185956366 3185956366 -25.00000000
16.19080162 35.18515015 -1.12720001 8 2 2331 38.74800000 3185956368 3185956368 -1.66700000
3.28432608 8.16589928 -2.46391892 15 3 2331 9.14000000 3185956368 3185956368 -15.63900000
5.21436405 11.32642460 -2.49382758 4 4 2332 12.71600000 3185956370 3185956370 -11.31000000
21.52216148 53.48410797 0.00000000 18 5 2332 57.65200000 3185956370 3185956370 0.00000000
21.18086243 40.63609314 -0.53348756 12 6 2333 45.82800000 3185956373 3185956373 -0.66700000
3.77152920 9.36779785 -1.57109451 36 7 2333 10.22000000 3185956373 3185956373 -8.84300000
7.25576115 15.75342369 -2.20767355 3 8 2333 17.48400000 3185956375 3185956375 -7.25400000
21.56050491 62.15774918 0.38237742 28 9 2333 65.79200000 3185956375 3185956375 0.33300000
21.35659409 46.34730911 -0.29659358 11 10 2334 51.03200000 3185956377 3185956377 -0.33300000
7.21723986 17.91729355 -2.08068156 3 11 2334 19.42800000 3185956377 3185956377 -6.14800000
9.73171711 18.65468979 -1.96409404 2 12 2335 21.13200000 3185956380 3185956380 -5.33300000
43.37267303 107.62143707 2.70001316 28 13 2335 116.06400000 3185956380 3185956380 1.33300000
39.19535828 75.10146332 0.98623258 28 14 2336 84.72000000 3185956382 3185956382 0.66700000
9.55898857 23.70696449 -1.78743994 2 15 2336 25.62400000 3185956382 3185956382 -4.00000000
9.61620617 20.84002686 -1.87366104 3 16 2337 23.02800000 3185956384 3185956384 -4.66700000
43.35434723 124.70693207 3.84239411 28 17 2337 132.08400000 3185956384 3185956384 1.66700000
41.72707748 90.42998505 1.73839927 28 18 2337 99.60800000 3185956387 3185956387 1.00000000
8.96324539 25.78239441 -1.74936664 3 19 2337 27.35200000 3185956387 3185956387 -3.66700000
12.58672619 24.09667015 -1.58324182 4 20 2338 27.23200000 3185956389 3185956389 -3.33300000
43.10424423 106.79405975 6.70691729 42 21 2338 115.36000000 3185956389 3185956389 3.33300000
41.11704636 89.02624512 3.99517536 28 22 2339 98.14400000 3185956391 3185956391 2.33300000
11.56379509 28.63578606 -1.43855619 3 23 2339 30.91600000 3185956391 3185956391 -2.66700000
12.44903183 26.94217300 -1.55542457 5 24 2340 29.72000000 3185956394 3185956394 -3.00000000
11.24486351 32.27271271 -1.39235187 5 27 2341 34.20400000 3185956396 3185956396 -2.33300000
15.70664787 30.01852036 -1.18309295 5 28 2342 33.90000000 3185956398 3185956398 -2.00000000
15.58010578 38.50405884 -0.96653694 5 31 2343 41.54800000 3185956400 3185956400 -1.33300000
2.35299301 5.06677389 -2.60501885 14 0 2351 6.16400000 3185956421 3185956421 -25.00000000
16.26405907 35.00591278 -1.12336004 7 2 2352 38.61600000 3185956423 3185956423 -1.66700000
3.32438660 8.17878532 -2.47146702 15 3 2352 9.16800000 3185956423 3185956423 -15.63900000
5.25088263 11.29656601 -2.49147415 4 4 2353 12.70400000 3185956426 3185956426 -11.31000000
21.54928207 52.98986816 0.00000000 17 5 2353 57.20400000 3185956426 3185956426 0.00000000
21.24401855 40.39534760 -0.53134561 12 6 2354 45.64400000 3185956428 3185956428 -0.66700000
3.81477594 9.37587738 -1.57478404 7 7 2354 10.24400000 3185956428 3185956428 -8.84300000
7.30006647 15.69794083 -2.20363307 3 8 2354 17.45200000 3185956430 3185956430 -7.25400000
21.54046631 61.37252808 0.37803012 28 9 2354 65.04400000 3185956430 3185956430 0.33300000
21.35590744 45.90243149 -0.29424557 10 10 2355 50.62800000 3185956433 3185956433 -0.33300000
7.27086592 17.86125183 -2.07725430 3 11 2355 19.39600000 3185956433 3185956433 -6.14800000
9.80558968 18.62946892 -1.96520936 2 12 2356 21.14400000 3185956435 3185956435 -5.33300000
43.69141388 107.27656555 2.69536042 28 13 2356 115.86400000 3185956435 3185956435 1.33300000
39.44612885 74.91129303 0.98562723 28 14 2357 84.66800000 3185956437 3185956437 0.66700000
9.64882660 23.67916107 -1.78799796 2 15 2357 25.63200000 3185956437 3185956437 -4.00000000
9.68242264 20.78295898 -1.87170839 3 16 2358 23.00400000 3185956440 3185956440 -4.66700000
41.41474915 88.89521790 1.71180189 28 18 2358 98.08400000 3185956442 3185956442 1.00000000
9.05105972 25.73054123 -1.74808753 3 19 2358 27.33200000 3185956442 3185956442 -3.66700000
12.66565132 24.03271103 -1.58207905 4 20 2359 27.21200000 3185956444 3185956444 -3.33300000
43.50140762 106.65014648 6.70784760 42 21 2359 115.37600000 3185956444 3185956444 3.33300000
41.10187531 88.14325714 3.96228385 28 22 2360 97.33600000 3185956447 3185956447 2.33300000
11.65508556 28.55991554 -1.43688107 3 23 2360 30.88000000 3185956447 3185956447 -2.66700000
12.54262924 26.88550377 -1.55479658 5 24 2361 29.70800000 3185956449 3185956449 -3.00000000
11.31257725 32.08804703 -1.38616431 5 27 2362 34.05200000 3185956451 3185956451 -2.33300000
15.83709431 29.99963760 -1.18462849 5 28 2363 33.94400000 3185956453 3185956453 -2.00000000
15.71592808 38.45314026 -0.96662998 5 31 2363 41.55200000 3185956456 3185956456 -1.33300000
2.35681939 5.02898550 -2.58980465 17 0 2371 6.12800000 3185956476 3185956476 -25.00000000
16.37087631 34.91634750 -1.12231278 7 2 2372 38.58000000 3185956479 3185956479 -1.66700000
3.34706402 8.15287781 -2.46715379 12 3 2372 9.15200000 3185956479 3185956479 -15.63900000
5.28528595 11.26751518 -2.48912072 4 4 2373 12.69200000 3185956481 3185956481 -11.31000000
21.52439117 52.40371704 0.00000000 17 5 2373 56.65200000 3185956481 3185956481 0.00000000
21.27856636 40.13738251 -0.52887768 12 6 2373 45.43200000 3185956483 3185956483 -0.66700000
5.70945263 13.90034866 -2.33788705 2 7 2373 15.20800000 3185956483 3185956483 -8.84300000
7.35313225 15.66877079 -2.20312786 3 8 2374 17.44800000 3185956486 3185956486 -7.25400000
21.55121422 60.72399139 0.37449646 28 9 2374 64.43600000 3185956486 3185956486 0.33300000
21.33581352 45.44380569 -0.29178131 19 10 2375 50.20400000 3185956488 3185956488 -0.33300000
7.32863188 17.82472801 -2.07596922 3 11 2375 19.38400000 3185956488 3185956488 -6.14800000
9.83508015 18.52828979 -1.95814562 2 12 2376 21.06800000 3185956490 3185956490 -5.33300000
39.55918121 74.49407196 0.98194867 28 14 2377 84.35200000 3185956493 3185956493 0.66700000
9.67978954 23.51987648 -1.77851105 2 15 2377 25.49600000 3185956493 3185956493 -4.00000000
9.74133968 20.72017288 -1.86910462 3 16 2378 22.97200000 3185956495 3185956495 -4.66700000
41.62270355 88.53295135 1.70761323 28 18 2378 97.84400000 3185956497 3185956497 1.00000000
9.13814545 25.69126892 -1.74757576 3 19 2378 27.32400000 3185956497 3185956497 -3.66700000
12.74946404 23.98835373 -1.58207905 4 20 2379 27.21200000 3185956500 3185956500 -3.33300000
44.12135315 107.09947968 6.74575424 42 21 2379 116.02800000 3185956500 3185956500 3.33300000
41.15574646 87.46041107 3.93802238 28 22 2380 96.74000000 3185956502 3185956502 2.33300000
11.74557114 28.49689293 -1.43576431 3 23 2380 30.85600000 3185956502 3185956502 -2.66700000
12.61087990 26.78734779 -1.55165648 5 24 2381 29.64800000 3185956504 3185956504 -3.00000000
11.42049026 32.03707123 -1.38567579 5 27 2382 34.04000000 3185956506 3185956506 -2.33300000
15.91353703 29.89124298 -1.18253458 5 28 2383 33.88400000 3185956509 3185956509 -2.00000000
15.78043747 38.21047211 -0.96197736 5 31 2384 41.35200000 3185956511 3185956511 -1.33300000
2.36816025 5.00761938 -2.58304286 27 0 2391 6.11200000 3185956532 3185956532 -25.00000000
16.44990921 34.76863480 -1.11940372 7 2 2392 38.48000000 3185956534 3185956534 -1.66700000
3.36222482 8.10912132 -2.45744896 15 3 2392 9.11600000 3185956534 3185956534 -15.63900000
5.32122850 11.24190712 -2.48755169 4 4 2393 12.68400000 3185956536 3185956536 -11.31000000
21.53245926 51.90706635 0.00000000 16 5 2393 56.19600000 3185956536 3185956536 0.00000000
21.25825119 39.76304245 -0.52491975 12 6 2393 45.09200000 3185956539 3185956539 -0.66700000
5.74430943 13.84747696 -2.33235288 4 7 2393 15.17200000 3185956539 3185956539 -8.84300000
7.40098858 15.62866306 -2.20110774 3 8 2394 17.43200000 3185956541 3185956541 -7.25400000
21.54824257 60.04977798 0.37080011 28 9 2394 63.80000000 3185956541 3185956541 0.33300000
21.33333206 45.02926636 -0.28959602 18 10 2395 49.82800000 3185956543 3185956543 -0.33300000
7.38623190 17.78801918 -2.07468414 3 11 2395 19.37200000 3185956543 3185956543 -6.14800000
9.92601013 18.54300308 -1.96335053 2 12 2396 21.12400000 3185956546 3185956546 -5.33300000
44.46075439 107.02062988 2.69666314 28 13 2396 115.92000000 3185956546 3185956546 1.33300000
39.64525604 74.03114319 0.97766471 28 14 2397 83.98400000 3185956548 3185956548 0.66700000
9.74498367 23.44541359 -1.77544177 2 15 2397 25.45200000 3185956548 3185956548 -4.00000000
9.81360722 20.68604279 -1.86910462 3 16 2398 22.97200000 3185956550 3185956550 -4.66700000
42.92192841 119.35094452 3.69123960 28 17 2398 126.88800000 3185956550 3185956550 1.66700000
41.38808060 87.24167633 1.68548357 28 18 2398 96.57600000 3185956553 3185956553 1.00000000
9.18724251 25.54652405 -1.73990095 3 19 2398 27.20400000 3185956553 3185956553 -3.66700000
12.83312130 23.94370461 -1.58207905 4 20 2399 27.21200000 3185956555 3185956555 -3.33300000
44.38908768 106.69041443 6.72970819 42 21 2399 115.75200000 3185956555 3185956555 3.33300000
41.06649780 86.48583984 3.90057158 28 22 2400 95.82000000 3185956557 3185956557 2.33300000
11.83575916 28.43358612 -1.43464756 3 23 2400 30.83200000 3185956557 3185956557 -2.66700000
12.70430851 26.74316406 -1.55165648 5 24 2401 29.64800000 3185956559 3185956559 -3.00000000
11.47397995 31.83533287 -1.37867415 5 27 2402 33.86800000 3185956562 3185956562 -2.33300000
15.96294403 29.73337173 -1.17848623 5 28 2403 33.76800000 3185956564 3185956564 -2.00000000
15.85676479 38.01859665 -0.95853442 5 31 2404 41.20400000 3185956566 3185956566 -1.33300000
2.38163161 4.99319458 -2.57966185 15 0 2410 6.10400000 3185956587 3185956587 -25.00000000
15.60879040 43.11880493 -0.80043715 9 1 2410 45.86400000 3185956587 3185956587 -1.00000000
16.53412056 34.64893723 -1.11730921 7 2 2411 38.40800000 3185956589 3185956589 -1.66700000
3.36084223 8.03041458 -2.43696117 12 3 2411 9.04000000 3185956589 3185956589 -15.63900000
5.35509872 11.21712017 -2.48598289 4 4 2412 12.67600000 3185956592 3185956592 -11.31000000
21.50208855 51.35203934 0.00000000 16 5 2412 55.67200000 3185956592 3185956592 0.00000000
21.26665878 39.46346664 -0.52189302 11 6 2412 44.83200000 3185956594 3185956594 -0.66700000
5.78714466 13.82106113 -2.33112311 4 7 2412 15.16400000 3185956594 3185956594 -8.84300000
7.44080353 15.57897091 -2.19757223 3 8 2413 17.40400000 3185956596 3185956596 -7.25400000
21.53455544 59.39137268 0.36717346 28 9 2413 63.17600000 3185956596 3185956596 0.33300000
21.32043076 44.61901855 -0.28741077 18 10 2414 49.45200000 3185956599 3185956599 -0.33300000
7.45440245 17.78543472 -2.07725430 3 11 2414 19.39600000 3185956599 3185956599 -6.14800000
9.94583988 18.43287468 -1.95517147 2 12 2415 21.03600000 3185956601 3185956601 -5.33300000
44.88653946 107.04224396 2.70094371 28 13 2415 116.10400000 3185956601 3185956601 1.33300000
39.63214874 73.42059326 0.97133195 28 14 2416 83.44000000 3185956603 3185956603 0.66700000
9.83194065 23.43504524 -1.77711594 2 15 2416 25.47600000 3185956603 3185956603 -4.00000000
9.88215065 20.65338516 -1.86910462 3 16 2417 22.97200000 3185956606 3185956606 -4.66700000
41.51489258 86.76482391 1.67892146 28 18 2417 96.20000000 3185956608 3185956608 1.00000000
9.27054405 25.51216698 -1.73964512 3 19 2417 27.20000000 3185956608 3185956608 -3.66700000
12.89157295 23.86236954 -1.57952094 4 20 2418 27.16800000 3185956610 3185956610 -3.33300000
44.69471359 106.42849731 6.72249889 42 21 2418 115.62800000 3185956610 3185956610 3.33300000
40.98882294 85.58860779 3.86621475 28 22 2419 94.97600000 3185956612 3185956612 2.33300000
11.89748096 28.31682205 -1.43073905 3 23 2419 30.74800000 3185956612 3185956612 -2.66700000
12.74459457 26.60002136 -1.54579484 5 24 2420 29.53600000 3185956615 3185956615 -3.00000000
11.56307507 31.75204468 -1.37672019 5 27 2421 33.82000000 3185956617 3185956617 -2.33300000
16.04813766 29.65566254 -1.17750907 5 28 2422 33.74000000 3185956619 3185956619 -2.00000000
16.03395462 38.08743286 -0.96160519 5 31 2423 41.33600000 3185956622 3185956622 -1.33300000
2.40376306 4.99465036 -2.58473325 16 0 2430 6.11600000 3185956642 3185956642 -25.00000000
15.88428116 43.40583801 -0.80678982 9 1 2430 46.22800000 3185956642 3185956642 -1.00000000
16.63762093 34.55498886 -1.11614561 7 2 2431 38.36800000 3185956645 3185956645 -1.66700000
3.12194347 7.38707829 -2.24502373 15 3 2431 8.32800000 3185956645 3185956645 -15.63900000
5.39422131 11.19835854 -2.48598289 4 4 2432 12.67600000 3185956647 3185956647 -11.31000000
21.50673676 50.86404037 0.00000000 15 5 2432 55.22400000 3185956647 3185956647 0.00000000
21.23049736 39.06918335 -0.51765567 11 6 2432 44.46800000 3185956649 3185956649 -0.66700000
5.83227539 13.79349518 -2.32989335 4 7 2432 15.15600000 3185956649 3185956649 -8.84300000
7.48824835 15.53860474 -2.19555187 9 8 2433 17.38800000 3185956652 3185956652 -7.25400000
21.48569489 58.61730194 0.36284938 28 9 2433 62.43200000 3185956652 3185956652 0.33300000
21.35966301 44.30292130 -0.28585318 18 10 2434 49.18400000 3185956654 3185956654 -0.33300000
7.49938869 17.71901894 -2.07254219 3 11 2434 19.35200000 3185956654 3185956654 -6.14800000
10.00631523 18.39104843 -1.95442784 2 12 2435 21.02800000 3185956656 3185956656 -5.33300000
39.68167496 72.90238953 0.96630305 28 14 2436 83.00800000 3185956658 3185956658 0.66700000
9.90434456 23.37853813 -1.77544177 2 15 2436 25.45200000 3185956658 3185956658 -4.00000000
9.94205189 20.59363174 -1.86682642 3 16 2437 22.94400000 3185956661 3185956661 -4.66700000
44.73973465 121.79578400 3.77618408 28 17 2437 129.80800000 3185956661 3185956661 1.66700000
41.39672470 85.74778748 1.66202760 28 18 2437 95.23200000 3185956663 3185956663 1.00000000
9.34440136 25.43843460 -1.73683095 3 19 2437 27.15600000 3185956663 3185956663 -3.66700000
13.00726414 23.87683678 -1.58347440 4 20 2438 27.23600000 3185956665 3185956665 -3.33300000
53.76982880 126.79681396 8.02085972 42 21 2438 137.96000000 3185956665 3185956665 3.33300000
40.75872040 84.35103607 3.81671453 28 22 2439 93.76000000 3185956668 3185956668 2.33300000
11.98376751 28.24569321 -1.42925000 3 23 2439 30.71600000 3185956668 3185956668 -2.66700000
12.82346058 26.52660179 -1.54412007 5 24 2440 29.50400000 3185956670 3185956670 -3.00000000
11.66831779 31.69648552 -1.37606895 5 27 2441 33.80400000 3185956672 3185956672 -2.33300000
16.21091652 29.70824623 -1.18183661 5 28 2442 33.86400000 3185956675 3185956675 -2.00000000
16.16993523 38.03859329 -0.96179128 5 31 2443 41.34400000 3185956677 3185956677 -1.33300000
2.42205310 4.98580694 -2.58473325 16 0 2451 6.11600000 3185956698 3185956698 -25.00000000
15.96413803 43.13353348 -0.80281067 9 1 2451 46.00000000 3185956698 3185956698 -1.00000000
16.71347618 34.38948822 -1.11277115 7 2 2452 38.25200000 3185956700 3185956700 -1.66700000
3.23218417 7.57042599 -2.30433011 19 3 2452 8.54800000 3185956700 3185956700 -15.63900000
5.42836857 11.16440296 -2.48284483 4 4 2453 12.66000000 3185956702 3185956702 -11.31000000
21.48718262 50.30299377 0.00000000 14 5 2453 54.70000000 3185956702 3185956702 0.00000000
21.26203918 38.78768158 -0.51495498 11 6 2453 44.23600000 3185956705 3185956705 -0.66700000
5.87813377 13.76112175 -2.32804847 3 7 2453 15.14400000 3185956705 3185956705 -8.84300000
7.54167843 15.50391769 -2.19454169 25 8 2454 17.38000000 3185956707 3185956707 -7.25400000
21.49184227 57.97557831 0.35936224 28 9 2454 61.83200000 3185956707 3185956707 0.33300000
21.34686661 43.86467361 -0.28352839 18 10 2455 48.78400000 3185956709 3185956709 -0.33300000
7.54551935 17.64753342 -2.06740141 8 11 2455 19.30400000 3185956709 3185956709 -6.14800000
10.06024075 18.32980919 -1.95182538 2 12 2456 21.00000000 3185956711 3185956711 -5.33300000
42.30449677 98.89440155 2.50292778 28 13 2456 107.59200000 3185956711 3185956711 1.33300000
39.50392151 71.94657898 0.95554668 28 14 2457 82.08400000 3185956714 3185956714 0.66700000
9.98368454 23.32740593 -1.77432561 2 15 2457 25.43600000 3185956714 3185956714 -4.00000000
10.01397133 20.54988670 -1.86617553 3 16 2458 22.93600000 3185956716 3185956716 -4.66700000
41.51275635 85.18922424 1.65413904 28 18 2458 94.78000000 3185956718 3185956718 1.00000000
9.39865208 25.29924011 -1.72966766 3 19 2458 27.04400000 3185956718 3185956718 -3.66700000
12.97930145 23.61902618 -1.56952107 4 20 2459 26.99600000 3185956721 3185956721 -3.33300000
50.10491562 116.95989990 7.41016722 42 21 2459 127.45600000 3185956721 3185956721 3.33300000
40.94847107 83.95681000 3.80564213 28 22 2460 93.48800000 3185956723 3185956723 2.33300000
12.07776833 28.17954636 -1.42813325 3 23 2460 30.69200000 3185956723 3185956723 -2.66700000
12.91359234 26.46506310 -1.54328263 5 24 2461 29.48800000 3185956725 3185956725 -3.00000000
11.77744007 31.63477898 -1.37525475 5 27 2462 33.78400000 3185956728 3185956728 -2.33300000
16.24837112 29.51905441 -1.17667139 5 28 2463 33.71600000 3185956730 3185956730 -2.00000000
16.23163986 37.81655502 -0.95760393 5 31 2463 41.16400000 3185956732 3185956732 -1.33300000
2.44335794 4.98751402 -2.58980465 14 0 2470 6.12800000 3185956753 3185956753 -25.00000000
16.05666351 42.94549942 -0.80029756 9 1 2470 45.85600000 3185956753 3185956753 -1.00000000
16.79926872 34.27643204 -1.11090934 7 2 2471 38.18800000 3185956755 3185956755 -1.66700000
3.26031923 7.56674099 -2.30648685 15 3 2471 8.55600000 3185956755 3185956755 -15.63900000
5.45845413 11.13225365 -2.47970700 4 4 2472 12.64400000 3185956758 3185956758 -11.31000000
21.48127747 49.83107758 0.00000000 14 5 2472 54.26400000 3185956758 3185956758 0.00000000
21.29088783 38.52069473 -0.51239389 23 6 2473 44.01600000 3185956760 3185956760 -0.66700000
5.92456818 13.73688984 -2.32743359 2 7 2473 15.14000000 3185956760 3185956760 -8.84300000
7.58256483 15.45744896 -2.19151139 12 8 2473 17.35600000 3185956762 3185956762 -7.25400000
21.47496605 57.34585190 0.35589835 28 9 2473 61.23600000 3185956762 3185956762 0.33300000
21.32655907 43.45610809 -0.28134313 18 10 2474 48.40800000 3185956764 3185956764 -0.33300000
7.58666754 17.58224678 -2.06268907 27 11 2474 19.26000000 3185956764 3185956764 -6.14800000
10.11133003 18.27892303 -1.94996655 2 12 2475 20.98000000 3185956767 3185956767 -5.33300000
42.70987320 98.93347168 2.50748730 28 13 2475 107.78800000 3185956767 3185956767 1.33300000
39.55830765 71.48271942 0.95112306 28 14 2476 81.70400000 3185956769 3185956769 0.66700000
10.05940437 23.29050827 -1.77404666 2 15 2476 25.43200000 3185956769 3185956769 -4.00000000
10.03283024 20.41638184 -1.85706270 3 16 2477 22.82400000 3185956771 3185956771 -4.66700000
44.56341934 118.74780273 3.69123960 28 17 2477 126.88800000 3185956771 3185956771 1.66700000
40.95761490 83.31025696 1.62042105 28 18 2478 92.84800000 3185956774 3185956774 1.00000000
9.48129272 25.25132942 -1.72864437 3 19 2478 27.02800000 3185956774 3185956774 -3.66700000
13.06529236 23.58982658 -1.57045126 4 20 2478 27.01200000 3185956776 3185956776 -3.33300000
50.41801834 116.62083435 7.39923716 42 21 2478 127.26800000 3185956776 3185956776 3.33300000
40.77156448 82.89527893 3.76363230 28 22 2479 92.45600000 3185956778 3185956778 2.33300000
12.15845966 28.11000061 -1.42664421 3 23 2479 30.66000000 3185956778 3185956778 -2.66700000
12.98717308 26.39342117 -1.54160798 5 24 2480 29.45600000 3185956781 3185956781 -3.00000000
58.45654297 118.74706268 10.80487633 28 26 2481 132.79600000 3185956783 3185956783 4.66700000
11.83585453 31.47209930 -1.36988139 5 27 2481 33.65200000 3185956783 3185956783 -2.33300000
