# .PCD v0.7 - Point Cloud Data file format
VERSION 0.7
FIELDS x y z intensity laser_id azimuth distance_m adjustedtime timestamp vertical_angle
SIZE 4 4 4 1 1 2 8 8 4 8
TYPE F F F U U U F U U F
COUNT 1 1 1 1 1 1 1 1 1 1
WIDTH 522
HEIGHT 1
VIEWPOINT 0 0 0 1 0 0 0
POINTS 522
DATA ascii
20.55457115 15.64705086 -1.35382652 9 24 5132 25.86800000 3180964105 3180964105 -3.00000000
42.56221771 35.81533051 6.83004570 42 25 5132 56.04400000 3180964105 3180964105 7.00000000
43.62336731 33.19601822 4.47504616 40 26 5133 55.00000000 3180964107 3180964107 4.66700000
20.80880165 19.31643867 -1.15673804 12 27 5133 28.41600000 3180964107 3180964107 -2.33300000
20.80813217 14.27965355 -0.88128209 13 28 5134 25.25200000 3180964110 3180964110 -2.00000000
20.90733528 17.58067894 -0.63564205 22 31 5134 27.32400000 3180964112 3180964112 -1.33300000
3.95706677 3.00140071 -2.31594801 5 0 5142 5.48000000 3180964133 3180964133 -25.00000000
20.91193771 19.35111237 -0.49732378 15 1 5142 28.49600000 3180964133 3180964133 -1.00000000
20.83986473 15.80112648 -0.76112473 14 2 5143 26.16400000 3180964135 3180964135 -1.66700000
6.87824345 5.76539707 -2.51244235 6 3 5143 9.32000000 3180964135 3180964135 -15.63900000
9.37145233 7.10301304 -2.35183859 3 4 5144 11.99200000 3180964138 3180964138 -11.31000000
40.13663864 33.63091660 0.00000000 24 5 5144 52.36400000 3180964138 3180964138 0.00000000
37.50852966 25.64418221 -0.52897084 12 6 5144 45.44000000 3180964140 3180964140 -0.66700000
10.55487442 8.84404182 -2.14234567 2 7 5144 13.93600000 3180964140 3180964140 -8.84300000
12.75204945 9.66180420 -2.03645396 1 8 5145 16.12800000 3180964142 3180964142 -7.25400000
40.79239655 37.70810318 0.32286343 20 9 5145 55.55200000 3180964142 3180964142 0.33300000
39.76179886 30.11527252 -0.28989825 18 10 5146 49.88000000 3180964145 3180964145 -0.33300000
13.54162884 11.33863163 -1.90247202 2 11 5146 17.76400000 3180964145 3180964145 -6.14800000
15.96438885 10.90242004 -1.80460203 2 12 5147 19.41600000 3180964147 3180964147 -5.33300000
40.32429886 33.75223923 1.22364116 22 13 5147 52.60000000 3180964147 3180964147 1.33300000
40.53250122 27.67013550 0.57134438 32 14 5148 49.08000000 3180964149 3180964149 0.66700000
17.35185432 14.51869678 -1.58207679 2 15 5148 22.68000000 3180964149 3180964149 -4.00000000
16.54527473 12.51763344 -1.69368291 2 16 5149 20.81600000 3180964151 3180964151 -4.66700000
40.16753006 37.07851028 1.59090316 37 17 5149 54.68800000 3180964151 3180964151 1.66700000
40.26015854 30.45956612 0.88120693 29 18 5149 50.49200000 3180964154 3180964154 1.00000000
17.40834808 16.06958771 -1.51835203 3 19 5149 23.74000000 3180964154 3180964154 -3.66700000
20.04023361 13.67051983 -1.41277826 3 20 5150 24.30000000 3180964156 3180964156 -3.33300000
39.84655380 33.31689072 3.02485704 32 21 5150 52.02800000 3180964156 3180964156 3.33300000
39.68243027 30.00070000 2.02673411 31 22 5151 49.78800000 3180964158 3180964158 2.33300000
20.35374069 17.01233292 -1.23568046 7 23 5151 26.55600000 3180964158 3180964158 -2.66700000
20.60268974 15.57038975 -1.35340786 9 24 5152 25.86000000 3180964161 3180964161 -3.00000000
43.68933487 36.50404739 6.99042559 46 25 5152 57.36000000 3180964161 3180964161 7.00000000
42.86737823 32.38507462 4.38587046 36 26 5153 53.90400000 3180964163 3180964163 4.66700000
20.82026863 19.19221497 -1.15364432 12 27 5153 28.34000000 3180964163 3180964163 -2.33300000
20.79837799 14.16642570 -0.87876934 13 28 5154 25.18000000 3180964165 3180964165 -2.00000000
20.90718269 17.45633316 -0.63378102 26 31 5154 27.24400000 3180964168 3180964168 -1.33300000
3.95593572 2.97884679 -2.30918622 4 0 5162 5.46400000 3180964188 3180964188 -25.00000000
20.90868187 19.21305275 -0.49564835 15 1 5162 28.40000000 3180964188 3180964188 -1.00000000
20.84697723 15.69221783 -0.75937933 14 2 5163 26.10400000 3180964191 3180964191 -1.66700000
6.90424776 5.74628067 -2.51459908 5 3 5163 9.32800000 3180964191 3180964191 -15.63900000
9.39932346 7.07261562 -2.35262299 3 4 5164 11.99600000 3180964193 3180964193 -11.31000000
40.17383957 33.42409515 0.00000000 24 5 5164 52.26000000 3180964193 3180964193 0.00000000
37.65739059 25.55352211 -0.52980900 12 6 5164 45.51200000 3180964195 3180964195 -0.66700000
10.57960510 8.80208874 -2.14111590 2 7 5164 13.92800000 3180964195 3180964195 -8.84300000
12.78252697 9.61484718 -2.03594875 2 8 5165 16.12400000 3180964198 3180964198 -7.25400000
40.82947922 37.47892380 0.32211950 19 9 5165 55.42400000 3180964198 3180964198 0.33300000
39.84110260 29.95706367 -0.28971228 18 10 5166 49.84800000 3180964200 3180964200 -0.33300000
13.57806778 11.28875160 -1.90204358 2 11 5166 17.76000000 3180964200 3180964200 -6.14800000
15.99905109 10.84439373 -1.80423021 2 12 5167 19.41200000 3180964202 3180964202 -5.33300000
40.31270218 33.50392151 1.21973300 33 13 5167 52.43200000 3180964202 3180964202 1.33300000
40.56261444 27.48361015 0.57041305 16 14 5168 49.00000000 3180964204 3180964204 0.66700000
17.39628983 14.45293999 -1.58151877 2 15 5168 22.67200000 3180964204 3180964204 -4.00000000
16.60799599 12.47416878 -1.69563568 2 16 5169 20.84000000 3180964207 3180964207 -4.66700000
40.16408157 36.81649780 1.58566678 18 17 5169 54.50800000 3180964207 3180964207 1.66700000
40.60927200 30.50138855 0.88651246 15 18 5169 50.79600000 3180964209 3180964209 1.00000000
17.45550728 16.00063133 -1.51758444 3 19 5169 23.72800000 3180964209 3180964209 -3.66700000
20.11758995 13.62063217 -1.41487122 3 20 5170 24.33600000 3180964211 3180964211 -3.33300000
39.89501572 33.12147903 3.01974082 32 21 5170 51.94000000 3180964211 3180964211 3.33300000
39.65904999 29.76603508 2.02022099 21 22 5171 49.62800000 3180964214 3180964214 2.33300000
20.39455223 16.92587090 -1.23456383 4 23 5171 26.53200000 3180964214 3180964214 -2.66700000
20.64413452 15.48878956 -1.35257041 9 24 5172 25.84400000 3180964216 3180964216 -3.00000000
43.79510117 36.33357620 6.98701334 46 25 5172 57.33200000 3180964216 3180964216 7.00000000
42.83664322 32.12760162 4.37122488 18 26 5173 53.72400000 3180964218 3180964218 4.66700000
20.81048393 19.04925919 -1.14941072 11 27 5173 28.23600000 3180964218 3180964218 -2.33300000
20.80464935 14.06463337 -0.87695456 9 28 5174 25.12800000 3180964221 3180964221 -2.00000000
20.91565514 17.33985901 -0.63219911 25 31 5174 27.17600000 3180964223 3180964223 -1.33300000
3.95759892 2.95850825 -2.30411482 5 0 5182 5.45200000 3180964244 3180964244 -25.00000000
20.90767097 19.07794762 -0.49404272 11 1 5182 28.30800000 3180964244 3180964244 -1.00000000
20.84077263 15.57387733 -0.75716841 14 2 5183 26.02800000 3180964246 3180964246 -1.66700000
6.91832542 5.71723747 -2.51244235 5 3 5183 9.32000000 3180964246 3180964246 -15.63900000
9.41767025 7.03506804 -2.35105419 1 4 5184 11.98800000 3180964248 3180964248 -11.31000000
40.22859192 33.23270798 0.00000000 35 5 5184 52.18000000 3180964248 3180964248 0.00000000
37.74635696 25.42191696 -0.52980900 12 6 5184 45.51200000 3180964251 3180964251 -0.66700000
10.60417080 8.76007080 -2.13988614 2 7 5184 13.92000000 3180964251 3180964251 -8.84300000
12.81283188 9.56779575 -2.03544378 1 8 5185 16.12000000 3180964253 3180964253 -7.25400000
40.78268814 37.17449951 0.32072464 38 9 5185 55.18400000 3180964253 3180964253 0.33300000
39.81080627 29.71731567 -0.28873587 18 10 5186 49.68000000 3180964255 3180964255 -0.33300000
13.53764820 11.17545891 -1.89090550 2 11 5186 17.65600000 3180964255 3180964255 -6.14800000
16.00376320 10.76624966 -1.80051243 2 12 5187 19.37200000 3180964257 3180964257 -5.33300000
40.27210617 33.23319244 1.21498728 22 13 5187 52.22800000 3180964257 3180964257 1.33300000
40.52554321 27.25257301 0.56855053 32 14 5188 48.84000000 3180964260 3180964260 0.66700000
17.46818161 14.40990162 -1.58347201 2 15 5188 22.70000000 3180964260 3180964260 -4.00000000
16.63545799 12.40420437 -1.69400835 2 16 5189 20.82000000 3180964262 3180964262 -4.66700000
40.25095367 36.63839340 1.58403778 36 17 5189 54.45200000 3180964262 3180964262 1.66700000
40.57008362 30.24000740 0.88323140 14 18 5190 50.60800000 3180964264 3180964264 1.00000000
17.50517845 15.92848587 -1.51681697 3 19 5190 23.71600000 3180964264 3180964264 -3.66700000
20.12192345 13.52137184 -1.41184795 3 20 5190 24.28400000 3180964267 3180964267 -3.33300000
39.99190140 32.96677780 3.01834536 21 21 5190 51.91600000 3180964267 3180964267 3.33300000
39.68579483 29.57010651 2.01631308 21 22 5191 49.53200000 3180964269 3180964269 2.33300000
20.45659447 16.85711861 -1.23474991 7 23 5191 26.53600000 3180964269 3180964269 -2.66700000
20.70448112 15.42140579 -1.35298920 9 24 5192 25.85200000 3180964271 3180964271 -3.00000000
43.94617844 36.20067596 6.99091291 46 25 5192 57.36400000 3180964271 3180964271 7.00000000
43.22033310 32.18025208 4.39888906 18 26 5193 54.06400000 3180964274 3180964274 4.66700000
20.82361794 18.92811203 -1.14647985 11 27 5193 28.16400000 3180964274 3180964274 -2.33300000
20.79386520 13.95183468 -0.87444180 13 28 5194 25.05600000 3180964276 3180964276 -2.00000000
20.90195656 17.20574951 -0.62996584 21 31 5194 27.08000000 3180964278 3180964278 -1.33300000
3.95916843 2.93819427 -2.29904342 5 0 5202 5.44000000 3180964299 3180964299 -25.00000000
20.90597343 18.94308472 -0.49243709 15 1 5202 28.21600000 3180964299 3180964299 -1.00000000
20.83720779 15.45815468 -0.75507390 18 2 5203 25.95600000 3180964301 3180964301 -1.66700000
6.93228483 5.68816662 -2.51028585 6 3 5203 9.31200000 3180964301 3180964301 -15.63900000
9.43901920 6.99981499 -2.35026956 3 4 5204 11.98400000 3180964303 3180964303 -11.31000000
40.18352890 32.96017075 0.00000000 23 5 5204 51.97200000 3180964303 3180964303 0.00000000
38.75383377 25.89448547 -0.54261416 12 6 5205 46.61200000 3180964306 3180964306 -0.66700000
10.63009453 8.71613407 -2.13865638 2 7 5205 13.91200000 3180964306 3180964306 -8.84300000
12.83340073 9.51356030 -2.03342342 1 8 5205 16.10400000 3180964308 3180964308 -7.25400000
40.73427200 36.87086105 0.31932980 38 9 5205 54.94400000 3180964308 3180964308 0.33300000
39.85002136 29.53054047 -0.28827092 18 10 5206 49.60000000 3180964310 3180964310 -0.33300000
13.65654659 11.19368458 -1.90204358 2 11 5206 17.76000000 3180964310 3180964310 -6.14800000
16.05780792 10.72137833 -1.80237138 2 12 5207 19.39200000 3180964313 3180964313 -5.33300000
39.94863510 32.73252106 1.20177376 21 13 5207 51.66000000 3180964313 3180964313 1.33300000
17.49367905 14.32861042 -1.58123970 2 15 5208 22.66800000 3180964315 3180964315 -4.00000000
16.65942764 12.33182907 -1.69205558 2 16 5209 20.79600000 3180964317 3180964317 -4.66700000
40.23325729 36.36629486 1.57833600 54 17 5209 54.25600000 3180964317 3180964317 1.66700000
40.52227020 29.99584961 0.88002014 14 18 5209 50.42400000 3180964320 3180964320 1.00000000
17.55494118 15.86767292 -1.51656115 3 19 5209 23.71200000 3180964320 3180964320 -3.66700000
20.17564392 13.45548248 -1.41231310 3 20 5210 24.29200000 3180964322 3180964322 -3.33300000
40.10673141 32.82698059 3.01834536 21 21 5210 51.91600000 3180964322 3180964322 3.33300000
39.72772217 29.38623810 2.01321936 21 22 5211 49.45600000 3180964324 3180964324 2.33300000
20.49057198 16.76536751 -1.23326087 4 23 5211 26.50400000 3180964324 3180964324 -2.66700000
20.75497437 15.34666443 -1.35277975 13 24 5212 25.84800000 3180964327 3180964327 -3.00000000
44.07842255 36.05208206 6.99188805 47 25 5212 57.37200000 3180964327 3180964327 7.00000000
43.14645004 31.89174652 4.38001251 36 26 5213 53.83200000 3180964329 3180964329 4.66700000
20.82429123 18.79639435 -1.14289761 11 27 5213 28.07600000 3180964329 3180964329 -2.33300000
20.79252815 13.84593010 -0.87234783 16 28 5214 24.99600000 3180964331 3180964331 -2.00000000
20.90294266 17.07842064 -0.62810481 25 31 5215 27.00000000 3180964333 3180964333 -1.33300000
3.95480704 2.91360497 -2.29059100 5 0 5222 5.42000000 3180964354 3180964354 -25.00000000
20.90061569 18.80579185 -0.49076167 15 1 5222 28.12000000 3180964354 3180964354 -1.00000000
20.84274864 15.34976101 -0.75332844 18 2 5223 25.89600000 3180964356 3180964356 -1.66700000
6.95508385 5.66636658 -2.51136398 5 3 5223 9.31600000 3180964356 3180964356 -15.63900000
9.46023655 6.96449900 -2.34948516 3 4 5224 11.98000000 3180964359 3180964359 -11.31000000
40.25491714 32.78433990 0.00000000 34 5 5224 51.91600000 3180964359 3180964359 0.00000000
38.87065506 25.77673531 -0.54298669 12 6 5225 46.64400000 3180964361 3180964361 -0.66700000
10.65432453 8.67398357 -2.13742638 2 7 5225 13.90400000 3180964361 3180964361 -8.84300000
12.94323254 9.52515030 -2.04554534 2 8 5225 16.20000000 3180964363 3180964363 -7.25400000
40.48789215 36.39153671 0.31640059 36 9 5225 54.44000000 3180964363 3180964363 0.33300000
39.90452957 29.35570335 -0.28792220 27 10 5226 49.54000000 3180964366 3180964366 -0.33300000
13.69553661 11.14594555 -1.90204358 4 11 5226 17.76000000 3180964366 3180964366 -6.14800000
16.06857491 10.64766121 -1.79939711 2 12 5227 19.36000000 3180964368 3180964368 -5.33300000
40.09056473 32.61558914 1.20261133 21 13 5227 51.69600000 3180964368 3180964368 1.33300000
40.40803528 26.76578331 0.56426656 15 14 5228 48.47200000 3180964370 3180964370 0.66700000
17.54049301 14.26494122 -1.58096075 2 15 5228 22.66400000 3180964370 3180964370 -4.00000000
16.68630981 12.26179790 -1.69042826 2 16 5229 20.77600000 3180964373 3180964373 -4.66700000
39.96123505 35.86775589 1.56274354 34 17 5229 53.72000000 3180964373 3180964373 1.66700000
40.50748444 29.76659203 0.87743717 14 18 5229 50.27600000 3180964375 3180964375 1.00000000
17.60725212 15.80363178 -1.51630533 3 19 5229 23.70800000 3180964375 3180964375 -3.66700000
20.22915077 13.38938236 -1.41277826 3 20 5230 24.30000000 3180964377 3180964377 -3.33300000
40.20248413 32.67167282 3.01695013 32 21 5230 51.89200000 3180964377 3180964377 3.33300000
39.65932083 29.12201118 2.00458932 31 22 5231 49.24400000 3180964380 3180964380 2.33300000
20.54586792 16.69122124 -1.23307478 4 23 5231 26.50000000 3180964380 3180964380 -2.66700000
20.77943802 15.25284958 -1.35089564 13 24 5232 25.81200000 3180964382 3180964382 -3.00000000
43.14073563 35.03452682 6.82370806 21 25 5232 55.99200000 3180964382 3180964382 7.00000000
43.00358582 31.55462074 4.35430098 52 26 5233 53.51600000 3180964384 3180964384 4.66700000
20.81834793 18.65956879 -1.13898969 11 27 5233 27.98000000 3180964384 3180964384 -2.33300000
20.78737259 13.73800087 -0.87011427 16 28 5234 24.93200000 3180964386 3180964386 -2.00000000
20.90667534 16.96617317 -0.62652290 25 31 5234 26.93200000 3180964389 3180964389 -1.33300000
3.95617485 2.89336205 -2.28551960 6 0 5242 5.40800000 3180964409 3180964409 -25.00000000
20.90946770 18.68209267 -0.48943529 15 1 5242 28.04400000 3180964409 3180964409 -1.00000000
20.83487511 15.23207760 -0.75111759 18 2 5243 25.82000000 3180964412 3180964412 -1.66700000
6.96583652 5.63478708 -2.50812912 5 3 5243 9.30400000 3180964412 3180964412 -15.63900000
9.49715710 6.94069147 -2.35262299 3 4 5244 11.99600000 3180964414 3180964414 -11.31000000
40.18248749 32.49271393 0.00000000 22 5 5244 51.67600000 3180964414 3180964414 0.00000000
38.94589615 25.64109612 -0.54284698 12 6 5244 46.63200000 3180964416 3180964416 -0.66700000
10.68610287 8.64109039 -2.13804150 2 7 5244 13.90800000 3180964416 3180964416 -8.84300000
12.97319794 9.47757149 -2.04504013 1 8 5245 16.19600000 3180964419 3180964419 -7.25400000
40.61467743 36.24998474 0.31640059 36 9 5245 54.44000000 3180964419 3180964419 0.33300000
39.89692688 29.13602638 -0.28713179 18 10 5246 49.40400000 3180964421 3180964421 -0.33300000
13.73126602 11.09557152 -1.90161514 4 11 5246 17.75600000 3180964421 3180964421 -6.14800000
16.12893677 10.60682487 -1.80199957 2 12 5247 19.38800000 3180964423 3180964423 -5.33300000
40.00819016 32.31714249 1.19674897 31 13 5247 51.44400000 3180964423 3180964423 1.33300000
40.02996445 26.31477737 0.55770099 30 14 5248 47.90800000 3180964426 3180964426 0.66700000
17.57155228 14.18858624 -1.57928658 2 15 5248 22.64000000 3180964426 3180964426 -4.00000000
16.73867226 12.21052551 -1.69140470 2 16 5249 20.78800000 3180964428 3180964428 -4.66700000
40.00560379 35.65621948 1.55960166 33 17 5249 53.61200000 3180964428 3180964428 1.66700000
40.33327103 29.42231178 0.87143356 28 18 5249 49.93200000 3180964430 3180964430 1.00000000
17.59972954 15.68629837 -1.51093292 3 19 5249 23.62400000 3180964430 3180964430 -3.66700000
20.26241302 13.30991840 -1.41184795 3 20 5250 24.28400000 3180964433 3180964433 -3.33300000
40.22305298 32.45590973 3.00997329 21 21 5250 51.77200000 3180964433 3180964433 3.33300000
39.72520447 28.95750046 2.00279832 31 22 5251 49.20000000 3180964435 3180964435 2.33300000
20.58534622 16.60434914 -1.23195803 6 23 5251 26.47600000 3180964435 3180964435 -2.66700000
20.76798630 15.13317394 -1.34670877 13 24 5252 25.73200000 3180964437 3180964437 -3.00000000
43.72018051 35.25254822 6.89585495 22 25 5252 56.58400000 3180964437 3180964437 7.00000000
43.06835556 31.37145615 4.34974480 35 26 5253 53.46000000 3180964439 3180964439 4.66700000
20.82065964 18.53098488 -1.13557029 11 27 5253 27.89600000 3180964439 3180964439 -2.33300000
20.79174423 13.63685417 -0.86829948 13 28 5254 24.88000000 3180964442 3180964442 -2.00000000
20.90020370 16.83424568 -0.62447572 25 31 5255 26.84400000 3180964444 3180964444 -1.33300000
3.95744967 2.87314534 -2.28044820 6 0 5262 5.39600000 3180964465 3180964465 -25.00000000
20.89976120 18.54263496 -0.48769003 15 1 5262 27.94400000 3180964465 3180964465 -1.00000000
20.83290863 15.11933327 -0.74913943 17 2 5263 25.75200000 3180964467 3180964467 -1.66700000
6.99447298 5.61767340 -2.51136398 5 3 5263 9.31600000 3180964467 3180964467 -15.63900000
9.52132607 6.90749788 -2.35262299 3 4 5264 11.99600000 3180964469 3180964469 -11.31000000
40.14282990 32.22954559 0.00000000 22 5 5264 51.48000000 3180964469 3180964469 0.00000000
39.00837708 25.48748970 -0.54247445 12 6 5264 46.60000000 3180964472 3180964472 -0.66700000
10.70695496 8.59631252 -2.13619661 2 7 5264 13.89600000 3180964472 3180964472 -8.84300000
13.00941467 9.43455791 -2.04554534 2 8 5265 16.20000000 3180964474 3180964474 -7.25400000
40.44161987 35.84268951 0.31407583 35 9 5265 54.04000000 3180964474 3180964474 0.33300000
40.01781845 29.01066780 -0.28727126 18 10 5266 49.42800000 3180964476 3180964476 -0.33300000
13.76991367 11.04757309 -1.90161514 4 11 5266 17.75600000 3180964476 3180964476 -6.14800000
16.15252304 10.54175282 -1.80051243 2 12 5267 19.37200000 3180964479 3180964479 -5.33300000
39.98973083 32.07220840 1.19284081 20 13 5267 51.27600000 3180964479 3180964479 1.33300000
40.56040955 26.46117783 0.56380093 31 14 5268 48.43200000 3180964481 3180964481 0.66700000
17.62719917 14.13215542 -1.57984459 2 15 5268 22.64800000 3180964481 3180964481 -4.00000000
16.76827812 12.14266872 -1.69010282 2 16 5269 20.77200000 3180964483 3180964483 -4.66700000
40.13880539 35.52430725 1.55995083 33 17 5269 53.62400000 3180964483 3180964483 1.66700000
17.65736771 15.62741375 -1.51118875 3 19 5269 23.62800000 3180964486 3180964486 -3.66700000
20.29537010 13.23038483 -1.41091776 3 20 5270 24.26800000 3180964488 3180964488 -3.33300000
40.28000259 32.27036667 3.00578737 21 21 5270 51.70000000 3180964488 3180964488 3.33300000
39.67062759 28.70619392 1.99498236 21 22 5271 49.00800000 3180964490 3180964490 2.33300000
20.63070488 16.52239990 -1.23121357 4 23 5271 26.46000000 3180964490 3180964490 -2.66700000
20.76566315 15.02078915 -1.34315002 13 24 5272 25.66400000 3180964492 3180964492 -3.00000000
43.06775665 31.14150238 4.33867931 34 26 5273 53.32400000 3180964495 3180964495 4.66700000
20.81334496 18.39467239 -1.13166237 15 27 5273 27.80000000 3180964495 3180964495 -2.33300000
20.78561401 13.52930260 -0.86606592 16 28 5274 24.81600000 3180964497 3180964497 -2.00000000
20.90574646 16.71872902 -0.62289387 25 31 5275 26.77600000 3180964499 3180964499 -1.33300000
3.95175481 2.85009551 -2.27199578 6 0 5280 5.37600000 3180964520 3180964520 -25.00000000
20.88591194 18.41340828 -0.48601460 15 1 5280 27.84800000 3180964520 3180964520 -1.00000000
20.83814049 15.02341270 -0.74762672 21 2 5281 25.70000000 3180964522 3180964522 -1.66700000
7.00305462 5.58846426 -2.50812912 6 3 5281 9.30400000 3180964522 3180964522 -15.63900000
9.53343391 6.87067175 -2.35026956 3 4 5282 11.98400000 3180964525 3180964525 -11.31000000
39.99685287 31.90621567 0.00000000 21 5 5282 51.16400000 3180964525 3180964525 0.00000000
38.96746826 25.28643608 -0.54079819 12 6 5282 46.45600000 3180964527 3180964527 -0.66700000
10.72772884 8.55770397 -2.13496685 2 7 5282 13.88800000 3180964527 3180964527 -8.84300000
13.03255081 9.38900280 -2.04453516 2 8 5283 16.19200000 3180964529 3180964529 -7.25400000
40.54501724 35.70753098 0.31400606 52 9 5283 54.02800000 3180964529 3180964529 0.33300000
40.00814056 28.81234169 -0.28655058 18 10 5284 49.30400000 3180964532 3180964532 -0.33300000
13.71747684 10.93484783 -1.88962030 4 11 5284 17.64400000 3180964532 3180964532 -6.14800000
16.18556023 10.49095631 -1.80051243 2 12 5285 19.37200000 3180964534 3180964534 -5.33300000
39.97145081 31.85171890 1.18930483 20 13 5285 51.12400000 3180964534 3180964534 1.33300000
40.53592300 26.26402664 0.56231087 46 14 5286 48.30400000 3180964536 3180964536 0.66700000
17.65278435 14.06179142 -1.57817042 2 15 5286 22.62400000 3180964536 3180964536 -4.00000000
16.81605148 12.09691429 -1.69107926 2 16 5287 20.78400000 3180964539 3180964539 -4.66700000
40.13611984 35.29769135 1.55552900 49 17 5287 53.47200000 3180964539 3180964539 1.66700000
40.03728104 28.80150414 0.86089230 13 18 5287 49.32800000 3180964541 3180964541 1.00000000
17.69738197 15.56395626 -1.51042128 3 19 5287 23.61600000 3180964541 3180964541 -3.66700000
20.34018707 13.16873074 -1.41115034 3 20 5288 24.27200000 3180964543 3180964543 -3.33300000
39.98752594 31.83031082 2.97648525 30 21 5288 51.19600000 3180964543 3180964543 3.33300000
39.87744141 28.66540337 2.00084424 21 22 5289 49.15200000 3180964545 3180964545 2.33300000
20.67000389 16.44755363 -1.23046899 4 23 5289 26.44400000 3180964545 3180964545 -2.66700000
20.76733589 14.92284393 -1.34021914 13 24 5290 25.60800000 3180964548 3180964548 -3.00000000
43.15760422 34.32910919 6.77106094 40 25 5290 55.56000000 3180964548 3180964548 7.00000000
42.64730072 30.63391113 4.28660583 49 26 5291 52.68400000 3180964550 3180964550 4.66700000
20.80796814 18.27381325 -1.12824297 18 27 5291 27.71600000 3180964550 3180964550 -2.33300000
20.78101349 13.43355370 -0.86411154 12 28 5292 24.76000000 3180964552 3180964552 -2.00000000
20.88928795 16.59823990 -0.62084669 24 31 5293 26.68800000 3180964555 3180964555 -1.33300000
3.96167946 2.83628392 -2.27199578 6 0 5300 5.37600000 3180964575 3180964575 -25.00000000
20.89288521 18.29033661 -0.48468822 11 1 5300 27.77200000 3180964575 3180964575 -1.00000000
20.83518028 14.91102505 -0.74564856 17 2 5301 25.63200000 3180964578 3180964578 -1.66700000
7.02251911 5.56398487 -2.50812912 6 3 5301 9.30400000 3180964578 3180964578 -15.63900000
9.55416870 6.83506966 -2.34948516 3 4 5302 11.98000000 3180964580 3180964580 -11.31000000
40.07976151 31.74405479 0.00000000 31 5 5302 51.12800000 3180964580 3180964580 0.00000000
39.06895065 25.15892220 -0.54098439 12 6 5302 46.47200000 3180964582 3180964582 -0.66700000
10.75443649 8.51775074 -2.13435197 2 7 5302 13.88400000 3180964582 3180964582 -8.84300000
13.06524467 9.34345341 -2.04453516 1 8 5303 16.19200000 3180964585 3180964585 -7.25400000
40.92233658 35.78696823 0.31595889 54 9 5303 54.36400000 3180964585 3180964585 0.33300000
40.07918549 28.65157700 -0.28634137 27 10 5304 49.26800000 3180964587 3180964587 -0.33300000
13.76180077 10.89183426 -1.89047706 2 11 5304 17.65200000 3180964587 3180964587 -6.14800000
16.21538353 10.43008518 -1.79976892 2 12 5305 19.36400000 3180964589 3180964589 -5.33300000
39.89736176 31.56560898 1.18381464 20 13 5305 50.88800000 3180964589 3180964589 1.33300000
40.57016373 26.08559608 0.56151927 46 14 5306 48.23600000 3180964591 3180964591 0.66700000
17.71740913 14.01246166 -1.57956564 2 15 5306 22.64400000 3180964591 3180964591 -4.00000000
16.85493088 12.03582478 -1.69075370 2 16 5307 20.78000000 3180964594 3180964594 -4.66700000
40.21993637 35.12318802 1.55401635 33 17 5307 53.42000000 3180964594 3180964594 1.66700000
39.99436188 28.55930901 0.85782069 27 18 5307 49.15200000 3180964596 3180964596 1.00000000
17.74559021 15.49683475 -1.50990963 3 19 5307 23.60800000 3180964596 3180964596 -3.66700000
20.38938904 13.09980774 -1.41138291 3 20 5308 24.27600000 3180964598 3180964598 -3.33300000
39.92294693 31.55187798 2.96346211 20 21 5308 50.97200000 3180964598 3180964598 3.33300000
39.71699142 28.34031487 1.98781788 20 22 5309 48.83200000 3180964601 3180964601 2.33300000
20.73042488 16.37777901 -1.23065519 6 23 5309 26.44800000 3180964601 3180964601 -2.66700000
20.77051926 14.81546688 -1.33707905 13 24 5310 25.54800000 3180964603 3180964603 -3.00000000
43.28963470 34.18809128 6.77301073 20 25 5310 55.57600000 3180964603 3180964603 7.00000000
42.96496964 30.63530159 4.30776072 33 26 5311 52.94400000 3180964605 3180964605 4.66700000
20.81740761 18.15378571 -1.12531209 26 27 5311 27.64400000 3180964605 3180964605 -2.33300000
20.79076767 13.33718872 -0.86257595 12 28 5312 24.71600000 3180964608 3180964608 -2.00000000
20.88744736 16.47816086 -0.61907870 24 31 5313 26.61200000 3180964610 3180964610 -1.33300000
3.96269083 2.81613779 -2.26692438 6 0 5320 5.36400000 3180964631 3180964631 -25.00000000
20.89623451 18.16481972 -0.48329204 15 1 5320 27.69200000 3180964631 3180964631 -1.00000000
20.83169174 14.79884052 -0.74367040 21 2 5321 25.56400000 3180964633 3180964633 -1.66700000
7.03584337 5.53467464 -2.50597262 5 3 5321 9.29600000 3180964633 3180964633 -15.63900000
9.57477093 6.79940701 -2.34870076 3 4 5322 11.97600000 3180964635 3180964635 -11.31000000
40.10543060 31.53719902 0.00000000 31 5 5322 51.02000000 3180964635 3180964635 0.00000000
39.12957001 25.00516319 -0.54061192 12 6 5322 46.44000000 3180964638 3180964638 -0.66700000
10.78099728 8.47771645 -2.13373709 2 7 5322 13.88000000 3180964638 3180964638 -8.84300000
13.10101604 9.30008698 -2.04504013 2 8 5323 16.19600000 3180964640 3180964640 -7.25400000
40.66646576 35.31345367 0.31302968 34 9 5323 53.86000000 3180964640 3180964640 0.33300000
40.08435059 28.44437027 -0.28566718 18 10 5324 49.15200000 3180964642 3180964642 -0.33300000
13.79035473 10.83635807 -1.88919199 2 11 5324 17.64000000 3180964642 3180964642 -6.14800000
16.25840569 10.37770462 -1.80051243 2 12 5325 19.37200000 3180964644 3180964644 -5.33300000
39.75886917 31.23100090 1.17646348 19 13 5325 50.57200000 3180964644 3180964644 1.33300000
40.47214890 25.82334137 0.55891168 30 14 5326 48.01200000 3180964647 3180964647 0.66700000
17.76307678 13.94806671 -1.57928658 2 15 5326 22.64000000 3180964647 3180964647 -4.00000000
16.88708305 11.97000027 -1.68977737 2 16 5327 20.76800000 3180964649 3180964649 -4.66700000
40.23958588 34.89352036 1.55006003 16 17 5327 53.28400000 3180964649 3180964649 1.66700000
40.04160309 28.38252449 0.85670370 27 18 5327 49.08800000 3180964651 3180964651 1.00000000
17.79052734 15.42695141 -1.50914204 3 19 5327 23.59600000 3180964651 3180964651 -3.66700000
20.43835831 13.03070259 -1.41161537 3 20 5328 24.28000000 3180964654 3180964654 -3.33300000
39.73753357 31.18061256 2.94160199 29 21 5328 50.59600000 3180964654 3180964654 3.33300000
40.01788330 28.34472847 1.99791336 31 22 5329 49.08000000 3180964656 3180964656 2.33300000
20.76546097 16.28805542 -1.22935224 6 23 5329 26.42000000 3180964656 3180964656 -2.66700000
20.76668739 14.70363426 -1.33352017 13 24 5330 25.48000000 3180964658 3180964658 -3.00000000
44.13354111 34.60511780 6.88610554 21 25 5330 56.50400000 3180964658 3180964658 7.00000000
42.51844406 30.09359550 4.25243282 15 26 5331 52.26400000 3180964661 3180964661 4.66700000
20.82022285 18.02868271 -1.12205553 15 27 5331 27.56400000 3180964661 3180964661 -2.33300000
20.78998375 13.23448086 -0.86062157 15 28 5332 24.66000000 3180964663 3180964663 -2.00000000
20.88846397 16.36687660 -0.61749679 24 31 5332 26.54400000 3180964665 3180964665 -1.33300000
3.97249675 2.80228829 -2.26692438 6 0 5340 5.36400000 3180964686 3180964686 -25.00000000
20.89896393 18.03950119 -0.48189583 14 1 5340 27.61200000 3180964686 3180964686 -1.00000000
20.84074211 14.69608021 -0.74215770 21 2 5341 25.51200000 3180964688 3180964688 -1.66700000
7.05815601 5.51245213 -2.50705075 5 3 5341 9.30000000 3180964688 3180964688 -15.63900000
9.60165310 6.76820326 -2.34948516 3 4 5342 11.98000000 3180964691 3180964691 -11.31000000
40.09230804 31.30101204 0.00000000 20 5 5342 50.86400000 3180964691 3180964691 0.00000000
39.17703629 24.83374023 -0.54000658 12 6 5343 46.38800000 3180964693 3180964693 -0.66700000
10.80264950 8.43085003 -2.13189220 2 7 5343 13.86800000 3180964693 3180964693 -8.84300000
13.13664246 9.25658512 -2.04554534 2 8 5343 16.20000000 3180964695 3180964695 -7.25400000
40.60469818 35.01195145 0.31161156 33 9 5343 53.61600000 3180964695 3180964695 0.33300000
40.13434601 28.26972580 -0.28531846 18 10 5344 49.09200000 3180964697 3180964697 -0.33300000
13.81869030 10.78081608 -1.88790679 2 11 5344 17.62800000 3180964697 3180964697 -6.14800000
16.28107452 10.31236458 -1.79902542 2 12 5345 19.35600000 3180964700 3180964700 -5.33300000
40.11045074 31.28138733 1.18362856 10 13 5345 50.88000000 3180964700 3180964700 1.33300000
40.44038773 25.60488319 0.55723536 30 14 5346 47.86800000 3180964702 3180964702 0.66700000
17.79592133 13.87371063 -1.57789147 2 15 5346 22.62000000 3180964702 3180964702 -4.00000000
16.92550278 11.90868664 -1.68945193 2 16 5347 20.76400000 3180964704 3180964704 -4.66700000
40.07027435 34.50239182 1.53888929 46 17 5347 52.90000000 3180964704 3180964704 1.66700000
40.06031036 28.17575264 0.85488868 27 18 5348 48.98400000 3180964707 3180964707 1.00000000
17.84392548 15.35903740 -1.50888622 3 19 5348 23.59200000 3180964707 3180964707 -3.66700000
20.46009827 12.94433594 -1.40998757 3 20 5348 24.25200000 3180964709 3180964709 -3.33300000
39.89653397 31.08097839 2.94532275 29 21 5348 50.66000000 3180964709 3180964709 3.33300000
40.04138565 28.15199852 1.99416828 21 22 5349 48.98800000 3180964711 3180964711 2.33300000
20.77490234 16.17864418 -1.22656047 13 23 5349 26.36000000 3180964711 3180964711 -2.66700000
20.75579071 14.58741474 -1.32954264 13 24 5350 25.40400000 3180964714 3180964714 -3.00000000
42.43076324 29.80977821 4.23323059 15 26 5351 52.02800000 3180964716 3180964716 4.66700000
20.81332588 17.89596558 -1.11831045 11 27 5351 27.47200000 3180964716 3180964716 -2.33300000
20.77859879 13.12553596 -0.85824841 15 28 5352 24.59200000 3180964718 3180964718 -2.00000000
20.88234138 16.24475670 -0.61563575 24 31 5352 26.46400000 3180964721 3180964721 -1.33300000
3.97086120 2.77939415 -2.26016235 7 0 5361 5.34800000 3180964741 3180964741 -25.00000000
20.89205170 17.90032959 -0.48022041 14 1 5361 27.51600000 3180964741 3180964741 -1.00000000
20.83549881 14.57833672 -0.74006319 17 2 5362 25.44000000 3180964744 3180964744 -1.66700000
7.08440161 5.49126530 -2.50920749 4 3 5362 9.30800000 3180964744 3180964744 -15.63900000
9.63603783 6.73970985 -2.35183859 1 4 5363 11.99200000 3180964746 3180964746 -11.31000000
40.02021027 31.00930786 0.00000000 30 5 5363 50.62800000 3180964746 3180964746 0.00000000
39.14589691 24.61333847 -0.53833026 12 6 5364 46.24400000 3180964748 3180964748 -0.66700000
10.83660221 8.39361954 -2.13250709 2 7 5364 13.87200000 3180964748 3180964748 -8.84300000
13.16072559 9.20155334 -2.04402995 1 8 5364 16.18800000 3180964750 3180964750 -7.25400000
40.43190384 34.60540009 0.30931005 32 9 5364 53.22000000 3180964750 3180964750 0.33300000
40.16228485 28.06973267 -0.28478378 27 10 5365 49.00000000 3180964753 3180964753 -0.33300000
13.85811043 10.73009586 -1.88790679 4 11 5365 17.62800000 3180964753 3180964753 -6.14800000
16.32887840 10.25897884 -1.80014074 2 12 5366 19.36800000 3180964755 3180964755 -5.33300000
40.03509140 30.98730659 1.17804539 29 13 5366 50.64000000 3180964755 3180964755 1.33300000
40.17831039 25.23313141 0.55234611 29 14 5367 47.44800000 3180964757 3180964757 0.66700000
17.84980774 13.81083393 -1.57817042 2 15 5367 22.62400000 3180964757 3180964757 -4.00000000
16.96903610 11.84657192 -1.68945193 2 16 5368 20.76400000 3180964760 3180964760 -4.66700000
40.13567352 34.30334091 1.53656197 46 17 5368 52.82000000 3180964760 3180964760 1.66700000
40.33222198 28.15708160 0.85858858 13 18 5368 49.19600000 3180964762 3180964762 1.00000000
17.88529205 15.28628349 -1.50786293 3 19 5368 23.57600000 3180964762 3180964762 -3.66700000
20.49387550 12.86076832 -1.40905726 3 20 5369 24.23600000 3180964764 3180964764 -3.33300000
39.97543335 30.90767288 2.94276476 29 21 5369 50.61600000 3180964764 3180964764 3.33300000
39.93451309 27.85870171 1.98374724 20 22 5370 48.73200000 3180964767 3180964767 2.33300000
20.78347778 16.06329727 -1.22358239 13 23 5370 26.29600000 3180964767 3180964767 -2.66700000
20.76652336 14.48153973 -1.32682121 13 24 5371 25.35200000 3180964769 3180964769 -3.00000000
44.43344879 34.32968521 6.89439249 44 25 5371 56.57200000 3180964769 3180964769 7.00000000
42.74905014 29.79997253 4.25406027 47 26 5372 52.28400000 3180964771 3180964771 4.66700000
20.81189919 17.76247978 -1.11472821 15 27 5372 27.38400000 3180964771 3180964771 -2.33300000
20.78591728 13.02381992 -0.85657322 15 28 5373 24.54400000 3180964774 3180964774 -2.00000000
20.88476562 16.12412071 -0.61396080 24 31 5373 26.39200000 3180964776 3180964776 -1.33300000
3.97160721 2.75931096 -2.25509095 8 0 5381 5.33600000 3180964796 3180964796 -25.00000000
20.89653206 17.77805519 -0.47889403 14 1 5381 27.44000000 3180964796 3180964796 -1.00000000
20.83043098 14.46674633 -0.73808503 21 2 5382 25.37200000 3180964798 3180964798 -1.66700000
7.09436846 5.45945549 -2.50597262 5 3 5382 9.29600000 3180964798 3180964798 -15.63900000
9.65950489 6.70603275 -2.35183859 3 4 5383 11.99200000 3180964801 3180964801 -11.31000000
39.98870850 30.76210976 0.00000000 29 5 5383 50.45200000 3180964801 3180964801 0.00000000
39.22391129 24.48127174 -0.53828371 12 6 5383 46.24000000 3180964803 3180964803 -0.66700000
10.87064266 8.36245823 -2.13373709 2 7 5383 13.88000000 3180964803 3180964803 -8.84300000
13.19928455 9.16008282 -2.04504013 2 8 5384 16.19600000 3180964805 3180964805 -7.25400000
40.38481903 34.32159042 0.30803144 46 9 5384 53.00000000 3180964805 3180964805 0.33300000
40.21400833 27.89744949 -0.28445831 18 10 5385 48.94400000 3180964808 3180964808 -0.33300000
13.89548111 10.68165684 -1.88790679 4 11 5385 17.62800000 3180964808 3180964808 -6.14800000
16.35107040 10.19349003 -1.79865360 2 12 5386 19.35200000 3180964810 3180964810 -5.33300000
39.99081421 30.73041153 1.17357886 29 13 5386 50.44800000 3180964810 3180964810 1.33300000
40.42229462 25.19003677 0.55448806 30 14 5387 47.63200000 3180964812 3180964812 0.66700000
17.90740013 13.75573444 -1.57900751 2 15 5387 22.63600000 3180964812 3180964812 -4.00000000
17.00373077 11.78272533 -1.68880105 2 16 5388 20.75600000 3180964814 3180964814 -4.66700000
40.28260422 34.18631363 1.53760922 31 17 5388 52.85600000 3180964814 3180964814 1.66700000
40.46642303 28.04118156 0.85935652 27 18 5388 49.24000000 3180964817 3180964817 1.00000000
17.94158554 15.22634125 -1.50811875 3 19 5388 23.58000000 3180964817 3180964817 -3.66700000
20.56237030 12.80392838 -1.41068518 3 20 5389 24.26400000 3180964819 3180964819 -3.33300000
39.97537994 30.68527412 2.93485785 28 21 5389 50.48000000 3180964819 3180964819 3.33300000
39.92965317 27.64860344 1.97869945 20 22 5390 48.60800000 3180964821 3180964821 2.33300000
20.78870201 15.95173264 -1.22060442 15 23 5390 26.23200000 3180964821 3180964821 -2.66700000
20.76439476 14.37258720 -1.32347167 13 24 5391 25.28800000 3180964824 3180964824 -3.00000000
44.51520920 34.14537811 6.88854265 44 25 5391 56.52400000 3180964824 3180964824 7.00000000
42.69544601 29.54168320 4.23843813 30 26 5392 52.09200000 3180964826 3180964826 4.66700000
20.81279373 17.63804626 -1.11147153 14 27 5392 27.30400000 3180964826 3180964826 -2.33300000
20.79390717 12.92796612 -0.85503769 18 28 5393 24.50000000 3180964828 3180964828 -2.00000000
20.89014053 16.01219749 -0.61247194 24 31 5393 26.32800000 3180964831 3180964831 -1.33300000
3.98371959 2.74818397 -2.25678158 8 0 5400 5.34000000 3180964851 3180964851 -25.00000000
20.89427567 17.65703201 -0.47749785 14 1 5400 27.36000000 3180964851 3180964851 -1.00000000
20.83220863 14.36581230 -0.73645598 21 2 5401 25.31600000 3180964854 3180964854 -1.66700000
7.10937357 5.43356037 -2.50489426 5 3 5401 9.29200000 3180964854 3180964854 -15.63900000
9.66877270 6.66505957 -2.34870076 3 4 5402 11.97600000 3180964856 3180964856 -11.31000000
39.98242950 30.54676819 0.00000000 19 5 5402 50.31600000 3180964856 3180964856 0.00000000
39.16207504 24.26259422 -0.53632796 12 6 5402 46.07200000 3180964858 3180964858 -0.66700000
10.89517307 8.32396412 -2.13312221 2 7 5402 13.87600000 3180964858 3180964858 -8.84300000
13.21651840 9.10725594 -2.04301977 1 8 5403 16.18000000 3180964861 3180964861 -7.25400000
40.33336258 34.04814911 0.30677605 45 9 5403 52.78400000 3180964861 3180964861 0.33300000
40.25688934 27.72990608 -0.28410959 27 10 5404 48.88400000 3180964863 3180964863 -0.33300000
13.86128330 10.58242607 -1.87848222 2 11 5404 17.54000000 3180964863 3180964863 -6.14800000
16.36784935 10.12873268 -1.79679477 2 12 5405 19.33200000 3180964865 3180964865 -5.33300000
39.93673325 30.47875023 1.16901934 19 13 5405 50.25200000 3180964865 3180964865 1.33300000
40.44437790 25.01798058 0.55364990 29 14 5406 47.56000000 3180964867 3180964867 0.66700000
17.93705559 13.68417454 -1.57761240 2 15 5406 22.61600000 3180964867 3180964867 -4.00000000
17.03942680 11.72401428 -1.68847549 2 16 5407 20.75200000 3180964870 3180964870 -4.66700000
40.08699036 33.79226685 1.52585673 29 17 5407 52.45200000 3180964870 3180964870 1.66700000
40.23629379 27.68466949 0.85251516 26 18 5407 48.84800000 3180964872 3180964872 1.00000000
17.97061539 15.14875126 -1.50632799 3 19 5407 23.55200000 3180964872 3180964872 -3.66700000
20.57074928 12.71467495 -1.40835965 3 20 5408 24.22400000 3180964874 3180964874 -3.33300000
39.73394394 30.29107857 2.90974164 28 21 5408 50.04800000 3180964874 3180964874 3.33300000
39.38220596 27.07676125 1.94711065 30 22 5409 47.83200000 3180964877 3180964877 2.33300000
20.78746033 15.84153557 -1.21744037 15 23 5409 26.16400000 3180964877 3180964877 -2.66700000
20.75597763 14.26518822 -1.31991279 13 24 5410 25.22000000 3180964879 3180964879 -3.00000000
43.72495270 33.30949020 6.74912405 40 25 5410 55.38000000 3180964879 3180964879 7.00000000
42.54015350 29.22610855 4.21337795 29 26 5411 51.78400000 3180964881 3180964881 4.66700000
20.80695915 17.51488113 -1.10805213 18 27 5411 27.22000000 3180964881 3180964881 -2.33300000
20.77883148 12.82324982 -0.85266453 15 28 5412 24.43200000 3180964884 3180964884 -2.00000000
20.88585091 15.89923573 -0.61079699 24 31 5412 26.25600000 3180964886 3180964886 -1.33300000
3.98778224 2.72946930 -2.25340056 8 0 5421 5.33200000 3180964907 3180964907 -25.00000000
20.89756966 17.52892876 -0.47610164 18 1 5421 27.28000000 3180964907 3180964907 -1.00000000
20.83522415 14.25549603 -0.73471051 20 2 5422 25.25600000 3180964909 3180964909 -1.66700000
7.12924051 5.40746689 -2.50489426 5 3 5422 9.29200000 3180964909 3180964909 -15.63900000
9.69313622 6.62957668 -2.34870076 3 4 5423 11.97600000 3180964911 3180964911 -11.31000000
40.06224823 30.37585258 0.00000000 28 5 5423 50.27600000 3180964911 3180964911 0.00000000
39.23029327 24.10633087 -0.53604859 12 6 5423 46.04800000 3180964914 3180964914 -0.66700000
10.92245865 8.28158760 -2.13250709 2 7 5423 13.87200000 3180964914 3180964914 -8.84300000
13.25308514 9.06099319 -2.04352498 2 8 5424 16.18400000 3180964916 3180964916 -7.25400000
40.16048813 33.65090179 0.30452102 43 9 5424 52.39600000 3180964916 3180964916 0.33300000
40.28229904 27.53026199 -0.28357488 18 10 5425 48.79200000 3180964918 3180964918 -0.33300000
13.89046669 10.52434540 -1.87719703 2 11 5425 17.52800000 3180964918 3180964918 -6.14800000
16.42523003 10.08117390 -1.79902542 2 12 5426 19.35600000 3180964920 3180964920 -5.33300000
40.15974808 30.41667557 1.17227614 19 13 5426 50.39200000 3180964920 3180964920 1.33300000
40.49489212 24.84447670 0.55309117 29 14 5427 47.51200000 3180964923 3180964923 0.66700000
17.99345207 13.62315750 -1.57817042 2 15 5427 22.62400000 3180964923 3180964923 -4.00000000
17.09545326 11.67047405 -1.68977737 2 16 5428 20.76800000 3180964925 3180964925 -4.66700000
40.04191971 33.50399780 1.51945674 29 17 5428 52.23200000 3180964925 3180964925 1.66700000
40.35221100 27.53673172 0.85272455 26 18 5429 48.86000000 3180964927 3180964927 1.00000000
18.03783607 15.08732128 -1.50709546 3 19 5429 23.56400000 3180964927 3180964927 -3.66700000
20.63083076 12.64754295 -1.40928984 3 20 5429 24.24000000 3180964930 3180964930 -3.33300000
39.82559204 30.13078690 2.90834641 28 21 5429 50.02400000 3180964930 3180964930 3.33300000
39.48118210 26.93223572 1.94711065 30 22 5430 47.83200000 3180964932 3180964932 2.33300000
20.78164482 15.71703434 -1.21371782 13 23 5430 26.08400000 3180964932 3180964932 -2.66700000
20.76522064 14.15976238 -1.31719136 13 24 5431 25.16800000 3180964934 3180964934 -3.00000000
43.88475037 33.17773819 6.75497389 40 25 5431 55.42800000 3180964934 3180964934 7.00000000
42.67004776 29.08571243 4.21565628 30 26 5432 51.81200000 3180964937 3180964937 4.66700000
20.80047417 17.37956238 -1.10430706 21 27 5432 27.12800000 3180964937 3180964937 -2.33300000
20.78477669 12.72196293 -0.85098934 18 28 5433 24.38400000 3180964939 3180964939 -2.00000000
20.88655090 15.77919006 -0.60912204 23 31 5433 26.18400000 3180964941 3180964941 -1.33300000
3.99428678 2.71349549 -2.25171018 8 0 5441 5.32800000 3180964962 3180964962 -25.00000000
20.90023994 17.40724373 -0.47477525 21 1 5441 27.20400000 3180964962 3180964962 -1.00000000
20.82862663 14.14449501 -0.73273236 20 2 5442 25.18800000 3180964964 3180964964 -1.66700000
7.14807272 5.38254833 -2.50489426 4 3 5442 9.29200000 3180964964 3180964964 -15.63900000
9.72270966 6.60010719 -2.35026956 3 4 5443 11.98400000 3180964966 3180964966 -11.31000000
40.22236633 30.27672005 0.00000000 29 5 5443 50.34400000 3180964966 3180964966 0.00000000
39.29447556 23.94781113 -0.53572267 12 6 5444 46.02000000 3180964969 3180964969 -0.66700000
10.94958115 8.23912239 -2.13189220 2 7 5444 13.86800000 3180964969 3180964969 -8.84300000
13.28791618 9.01690388 -2.04402995 1 8 5444 16.18800000 3180964971 3180964971 -7.25400000
40.16393661 33.41585541 0.30366087 28 9 5444 52.24800000 3180964971 3180964971 0.33300000
40.29539490 27.33334732 -0.28299370 27 10 5445 48.69200000 3180964973 3180964973 -0.33300000
13.97479248 10.51165390 -1.88362288 2 11 5445 17.58800000 3180964973 3180964973 -6.14800000
16.45691872 10.02170658 -1.79865360 2 12 5446 19.35200000 3180964976 3180964976 -5.33300000
39.88533020 29.99031830 1.16120291 18 13 5446 49.91600000 3180964976 3180964976 1.33300000
40.49253845 24.64889908 0.55188048 29 14 5447 47.40800000 3180964978 3180964978 0.66700000
17.92925835 13.47635269 -1.56840456 2 15 5447 22.48400000 3180964978 3180964978 -4.00000000
17.13278580 11.60849190 -1.68945193 2 16 5448 20.76400000 3180964980 3180964980 -4.66700000
40.12787247 33.33847046 1.51829314 43 17 5448 52.19200000 3180964980 3180964980 1.66700000
40.54594421 27.47231293 0.85488868 27 18 5448 48.98400000 3180964983 3180964983 1.00000000
18.06934547 15.01211739 -1.50556052 3 19 5448 23.54000000 3180964983 3180964983 -3.66700000
20.67485237 12.57545090 -1.40928984 3 20 5449 24.24000000 3180964985 3180964985 -3.33300000
39.87624741 29.95081711 2.90439296 27 21 5449 49.95600000 3180964985 3180964985 3.33300000
39.71395111 26.88836670 1.95394945 20 22 5450 48.00000000 3180964987 3180964987 2.33300000
20.78525734 15.60601234 -1.21073985 11 23 5450 26.02000000 3180964987 3180964987 -2.66700000
20.76159096 14.05136967 -1.31384182 13 24 5451 25.10400000 3180964990 3180964990 -3.00000000
44.10507965 33.10299301 6.77106094 40 25 5451 55.56000000 3180964990 3180964990 7.00000000
43.11142731 29.16668701 4.24917841 46 26 5452 52.22400000 3180964992 3180964992 4.66700000
20.80257034 17.25836372 -1.10121334 25 27 5452 27.05200000 3180964992 3180964992 -2.33300000
20.78463936 12.62235737 -0.84917456 18 28 5453 24.33200000 3180964994 3180964994 -2.00000000
20.89625168 15.66654873 -0.60772628 23 31 5454 26.12400000 3180964996 3180964996 -1.33300000
3.99424672 2.69415355 -2.24663877 9 0 5460 5.31600000 3180965017 3180965017 -25.00000000
20.89005470 17.28175735 -0.47323945 21 1 5460 27.11600000 3180965017 3180965017 -1.00000000
20.83563614 14.04852390 -0.73133600 16 2 5461 25.14000000 3180965019 3180965019 -1.66700000
7.15971327 5.35420084 -2.50273776 5 3 5461 9.28400000 3180965019 3180965019 -15.63900000
9.74454212 6.56782913 -2.35026956 3 4 5462 11.98400000 3180965022 3180965022 -11.31000000
40.33856201 30.15514565 0.00000000 29 5 5462 50.36400000 3180965022 3180965022 0.00000000
39.35655975 23.80702400 -0.53548980 12 6 5463 46.00000000 3180965024 3180965024 -0.66700000
10.97051048 8.19803524 -2.13066244 2 7 5463 13.86000000 3180965024 3180965024 -8.84300000
13.31116295 8.96835613 -2.04301977 2 8 5463 16.18000000 3180965026 3180965026 -7.25400000
40.22211075 33.23916626 0.30326566 28 9 5463 52.18000000 3180965026 3180965026 0.33300000
40.34931946 27.17499352 -0.28273797 18 10 5464 48.64800000 3180965029 3180965029 -0.33300000
14.00957394 10.46525383 -1.88362288 4 11 5464 17.58800000 3180965029 3180965029 -6.14800000
16.49687767 9.97119808 -1.79939711 2 12 5465 19.36000000 3180965031 3180965031 -5.33300000
40.01019669 29.87702942 1.16194737 18 13 5465 49.94800000 3180965031 3180965031 1.33300000
40.46450806 24.44829559 0.55039042 29 14 5466 47.28000000 3180965033 3180965033 0.66700000
17.99303436 13.43114471 -1.57007873 2 15 5466 22.50800000 3180965033 3180965033 -4.00000000
17.16457176 11.54716301 -1.68880105 2 16 5467 20.75600000 3180965036 3180965036 -4.66700000
40.11793518 33.10596848 1.51375508 28 17 5467 52.03600000 3180965036 3180965036 1.66700000
39.97978210 26.89569473 0.84106636 26 18 5467 48.19200000 3180965038 3180965038 1.00000000
18.12210655 14.95465565 -1.50581634 3 19 5467 23.54400000 3180965038 3180965038 -3.66700000
20.61730385 12.44696999 -1.40254569 3 20 5468 24.12400000 3180965040 3180965040 -3.33300000
39.89212418 29.75634003 2.89834642 27 21 5468 49.85200000 3180965040 3180965040 3.33300000
39.79626465 26.75206184 1.95362377 30 22 5469 47.99200000 3180965043 3180965043 2.33300000
20.78884506 15.50117302 -1.20794797 9 23 5469 25.96000000 3180965043 3180965043 -2.66700000
20.75834084 13.94902515 -1.31070173 13 24 5470 25.04400000 3180965045 3180965045 -3.00000000
43.52892303 29.23919678 4.28074789 32 26 5471 52.61200000 3180965047 3180965047 4.66700000
20.79799843 17.13845062 -1.09795678 25 27 5471 26.97200000 3180965047 3180965047 -2.33300000
20.78187370 12.52653599 -0.84735978 15 28 5472 24.28000000 3180965049 3180965049 -2.00000000
20.87480927 15.54827213 -0.60567909 23 31 5472 26.03600000 3180965052 3180965052 -1.33300000
4.00061417 2.67817783 -2.24494815 9 0 5480 5.31200000 3180965072 3180965072 -25.00000000
20.89153290 17.16049957 -0.47191307 17 1 5480 27.04000000 3180965072 3180965072 -1.00000000
20.83470345 13.94235325 -0.72959059 20 2 5481 25.08000000 3180965075 3180965075 -1.66700000
7.17835903 5.32917643 -2.50273776 3 3 5481 9.28400000 3180965075 3180965075 -15.63900000
9.77392960 6.53813601 -2.35183859 3 4 5482 11.99200000 3180965077 3180965077 -11.31000000
40.45321655 30.02130508 0.00000000 19 5 5482 50.37600000 3180965077 3180965077 0.00000000
39.33241653 23.61461830 -0.53409290 12 6 5482 45.88000000 3180965079 3180965079 -0.66700000
10.99128819 8.15689945 -2.12943268 4 7 5482 13.85200000 3180965079 3180965079 -8.84300000
13.34238720 8.92183685 -2.04301977 2 8 5483 16.18000000 3180965082 3180965082 -7.25400000
40.24512482 33.02244568 0.30256823 28 9 5483 52.06000000 3180965082 3180965082 0.33300000
40.31423950 26.94729424 -0.28183132 18 10 5484 48.49200000 3180965084 3180965084 -0.33300000
