# .PCD v0.7 - Point Cloud Data file format
VERSION 0.7
FIELDS x y z intensity laser_id azimuth distance_m adjustedtime timestamp vertical_angle
SIZE 4 4 4 1 1 2 8 8 4 8
TYPE F F F U U U F U U F
COUNT 1 1 1 1 1 1 1 1 1 1
WIDTH 522
HEIGHT 1
VIEWPOINT 0 0 0 1 0 0 0
POINTS 522
DATA ascii
14.57740688 65.48394775 -0.38990965 28 10 1115 67.08800000 3184252985 3184252985 -0.33300000
3.20991063 18.68058014 -2.04169822 13 11 1115 19.06400000 3184252985 3184252985 -6.14800000
6.04272842 21.99796104 -2.12953448 5 12 1116 22.91200000 3184252987 3184252987 -5.33300000
21.89811325 79.66349792 0.96183288 28 14 1117 82.62400000 3184252989 3184252989 0.66700000
3.55014324 20.61749458 -1.46293283 5 15 1117 20.97200000 3184252989 3184252989 -4.00000000
5.50255442 24.65744019 -2.06242657 7 16 1118 25.34800000 3184252992 3184252992 -4.66700000
22.12624168 99.14967346 1.77323425 28 18 1118 101.60400000 3184252994 3184252994 1.00000000
3.31805849 27.10162354 -1.74987829 11 19 1118 27.36000000 3184252994 3184252994 -3.66700000
7.86232805 28.56347275 -1.72533357 4 20 1119 29.67600000 3184252996 3184252996 -3.33300000
29.76666260 172.51010132 10.19502640 42 21 1119 175.35600000 3184252996 3184252996 3.33300000
6.01208878 34.80628204 -1.64534056 3 23 1120 35.36000000 3184252999 3184252999 -2.66700000
7.25377417 32.42493820 -1.74132192 6 24 1121 33.27200000 3184253001 3184253001 -3.00000000
3.39917922 27.60442924 -1.13312781 27 27 1122 27.83600000 3184253003 3184253003 -2.33300000
10.14350796 36.75060272 -1.33134604 7 28 1123 38.14800000 3184253006 3184253006 -2.00000000
8.38990879 48.42121506 -1.14352298 8 31 1123 49.15600000 3184253008 3184253008 -1.33300000
1.19230199 5.29066133 -2.52894759 13 0 1130 5.98400000 3184253028 3184253028 -25.00000000
7.04618835 56.57017899 -0.99506640 22 1 1130 57.01600000 3184253028 3184253028 -1.00000000
9.80242348 43.46141434 -1.29662323 10 2 1131 44.57200000 3184253030 3184253030 -1.66700000
1.38550055 7.93038797 -2.25364995 15 3 1131 8.36000000 3184253030 3184253030 -15.63900000
2.81461310 12.46912670 -2.55658507 14 4 1132 13.03600000 3184253033 3184253033 -11.31000000
14.50263786 52.22402573 -0.63099325 20 6 1132 54.20400000 3184253035 3184253035 -0.66700000
2.54929256 14.57674408 -2.30222225 15 7 1132 14.97600000 3184253035 3184253035 -8.84300000
3.52896953 15.62113094 -2.03847432 11 8 1133 16.14400000 3184253037 3184253037 -7.25400000
14.75037479 65.24017334 -0.38874727 28 10 1134 66.88800000 3184253040 3184253040 -0.33300000
3.27733183 18.70116997 -2.04512525 13 11 1134 19.09600000 3184253040 3184253040 -6.14800000
6.09215403 21.89338875 -2.12135553 5 12 1135 22.82400000 3184253042 3184253042 -5.33300000
21.93148994 78.76201630 0.95182151 28 14 1136 81.76400000 3184253044 3184253044 0.66700000
3.96702337 22.59031868 -1.60384083 13 15 1136 22.99200000 3184253044 3184253044 -4.00000000
5.55873585 24.52630234 -2.05298829 3 16 1137 25.23200000 3184253046 3184253046 -4.66700000
22.09158134 97.47266388 1.74454260 28 18 1137 99.96000000 3184253049 3184253049 1.00000000
3.37104321 26.79738808 -1.73094690 15 19 1137 27.06400000 3184253049 3184253049 -3.66700000
8.03958893 28.83342552 -1.74324036 4 20 1138 29.98400000 3184253051 3184253051 -3.33300000
30.34686661 172.45762634 10.19781685 42 21 1138 175.40400000 3184253051 3184253051 3.33300000
6.10945559 34.68384171 -1.64050126 3 23 1139 35.25600000 3184253053 3184253053 -2.66700000
7.35152483 32.35785675 -1.73901916 6 24 1140 33.22800000 3184253056 3184253056 -3.00000000
3.38536215 26.76033783 -1.09893370 14 27 1141 26.99600000 3184253058 3184253058 -2.33300000
10.26639748 36.72061157 -1.33148563 7 28 1142 38.15200000 3184253060 3184253060 -2.00000000
8.56226063 48.46007156 -1.14510477 8 31 1142 49.22400000 3184253063 3184253063 -1.33300000
1.24556386 5.43841743 -2.60163808 13 0 1150 6.15600000 3184253083 3184253083 -25.00000000
7.24005508 56.51747131 -0.99457777 22 1 1150 56.98800000 3184253083 3184253083 -1.00000000
9.91030025 43.23596573 -1.29092157 10 2 1151 44.37600000 3184253086 3184253086 -1.66700000
1.41317427 7.92550325 -2.25364995 23 3 1151 8.36000000 3184253086 3184253086 -15.63900000
2.85549021 12.44775677 -2.55423164 16 4 1152 13.02400000 3184253088 3184253088 -11.31000000
14.60356998 51.88432693 -0.62750095 20 6 1152 53.90400000 3184253090 3184253090 -0.66700000
2.60918760 14.61833858 -2.31021619 17 7 1152 15.02800000 3184253090 3184253090 -8.84300000
3.52221227 15.34186840 -2.00362420 21 8 1153 15.86800000 3184253093 3184253093 -7.25400000
14.88844490 64.79844666 -0.38642251 28 10 1154 66.48800000 3184253095 3184253095 -0.33300000
3.32998824 18.61914825 -2.03741431 14 11 1154 19.02400000 3184253095 3184253095 -6.14800000
6.16529608 21.86049080 -2.12023997 5 12 1155 22.81200000 3184253097 3184253097 -5.33300000
21.90210533 77.60716248 0.93878353 28 14 1156 80.64400000 3184253099 3184253099 0.66700000
4.04796553 22.58811569 -1.60467792 31 15 1156 23.00400000 3184253099 3184253099 -4.00000000
5.63715649 24.47566986 -2.05038476 7 16 1157 25.20000000 3184253102 3184253102 -4.66700000
22.11303329 96.01139069 1.71976018 28 18 1157 98.54000000 3184253104 3184253104 1.00000000
3.46712327 26.80525208 -1.73222601 11 19 1157 27.08400000 3184253104 3184253104 -3.66700000
8.08588982 28.61304855 -1.73161256 4 20 1158 29.78400000 3184253106 3184253106 -3.33300000
30.96913910 172.46463013 10.20456123 42 21 1158 175.52000000 3184253106 3184253106 3.33300000
48.03181839 208.21444702 8.70565891 28 22 1159 213.86000000 3184253109 3184253109 2.33300000
6.21210861 34.56005478 -1.63566208 3 23 1159 35.15200000 3184253109 3184253109 -2.66700000
7.43208122 32.19187927 -1.73148274 6 24 1160 33.08400000 3184253111 3184253111 -3.00000000
3.49627757 26.88311005 -1.10446990 14 27 1161 27.13200000 3184253113 3184253113 -2.33300000
10.37925625 36.63070679 -1.32953119 7 28 1162 38.09600000 3184253116 3184253116 -2.00000000
8.66112328 48.04027939 -1.13589263 8 31 1162 48.82800000 3184253118 3184253118 -1.33300000
1.24904275 5.36320114 -2.56782866 15 0 1171 6.07600000 3184253139 3184253139 -25.00000000
7.38024569 55.98302460 -0.98564214 21 1 1171 56.47600000 3184253139 3184253139 -1.00000000
10.04056644 43.07863998 -1.28731430 10 2 1172 44.25200000 3184253141 3184253141 -1.66700000
1.45739448 8.00364208 -2.27737260 21 3 1172 8.44800000 3184253141 3184253141 -15.63900000
2.73269558 11.71526909 -2.40596700 10 4 1173 12.26800000 3184253143 3184253143 -11.31000000
14.68385983 51.44583893 -0.62284452 19 6 1173 53.50400000 3184253146 3184253146 -0.66700000
2.70669127 14.84975719 -2.34834051 14 7 1173 15.27600000 3184253146 3184253146 -8.84300000
3.70199990 15.85823631 -2.07281923 12 8 1174 16.41600000 3184253148 3184253148 -7.25400000
15.06669331 64.49026489 -0.38491142 28 10 1175 66.22800000 3184253150 3184253150 -0.33300000
3.39606500 18.59508133 -2.03612900 14 11 1175 19.01200000 3184253150 3184253150 -6.14800000
6.23333120 21.79562569 -2.11615062 5 12 1176 22.76800000 3184253152 3184253152 -5.33300000
21.88707733 76.48042297 0.92611802 28 14 1177 79.55600000 3184253155 3184253155 0.66700000
4.13216448 22.58097839 -1.60523593 31 15 1177 23.01200000 3184253155 3184253155 -4.00000000
5.72137260 24.43155289 -2.04843187 7 16 1178 25.17600000 3184253157 3184253157 -4.66700000
22.10371590 94.31371307 1.69085896 28 18 1179 96.88400000 3184253159 3184253159 1.00000000
3.55367756 26.66907883 -1.72429526 11 19 1179 26.96000000 3184253159 3184253159 -3.66700000
8.14340687 28.41815376 -1.72161269 4 20 1179 29.61200000 3184253162 3184253162 -3.33300000
31.60968781 172.39709473 10.20735168 42 21 1179 175.56800000 3184253162 3184253162 3.33300000
6.32358837 34.45452499 -1.63175344 3 23 1180 35.06800000 3184253164 3184253164 -2.66700000
7.54363060 32.13720322 -1.73001742 6 24 1181 33.05600000 3184253166 3184253166 -3.00000000
3.67852092 27.49601555 -1.13019693 15 27 1182 27.76400000 3184253169 3184253169 -2.33300000
10.50792599 36.57320786 -1.32883322 7 28 1183 38.07600000 3184253171 3184253171 -2.00000000
8.82628250 47.94921875 -1.13449681 8 31 1183 48.76800000 3184253173 3184253173 -1.33300000
1.24338460 5.26399088 -2.52218580 11 0 1189 5.96800000 3184253194 3184253194 -25.00000000
7.53467798 55.80102539 -0.98284972 21 1 1189 56.31600000 3184253194 3184253194 -1.00000000
10.16297531 42.99240875 -1.28568530 10 2 1190 44.19600000 3184253196 3184253196 -1.66700000
1.51762915 8.18839455 -2.33128762 17 3 1190 8.64800000 3184253196 3184253196 -15.63900000
2.78212857 11.76006317 -2.41694951 24 4 1191 12.32400000 3184253198 3184253198 -11.31000000
14.83327961 51.32385635 -0.62195981 19 6 1192 53.42800000 3184253201 3184253201 -0.66700000
2.75519824 14.83681393 -2.34772563 14 7 1192 15.27200000 3184253201 3184253201 -8.84300000
3.79111147 16.01256180 -2.09453726 15 8 1192 16.58800000 3184253203 3184253203 -7.25400000
15.15855408 63.97555542 -0.38212171 28 10 1193 65.74800000 3184253205 3184253205 -0.33300000
3.48135781 18.72899246 -2.05197954 13 11 1193 19.16000000 3184253205 3184253205 -6.14800000
6.29513025 21.75298119 -2.11391997 5 12 1194 22.74400000 3184253208 3184253208 -5.33300000
21.87358093 75.53533936 0.91550136 28 14 1195 78.64400000 3184253210 3184253210 0.66700000
4.19577837 22.52865791 -1.60244572 4 15 1195 22.97200000 3184253210 3184253210 -4.00000000
5.79349184 24.39406395 -2.04680467 3 16 1196 25.15600000 3184253212 3184253212 -4.66700000
22.04429436 92.81965637 1.66523886 28 18 1196 95.41600000 3184253215 3184253215 1.00000000
3.45654082 25.36504936 -1.64063883 31 19 1196 25.65200000 3184253215 3184253215 -3.66700000
8.23709393 28.40777206 -1.72254288 4 20 1197 29.62800000 3184253217 3184253217 -3.33300000
32.18116379 172.45788574 10.21688652 42 21 1197 175.73200000 3184253217 3184253217 3.33300000
49.33235550 207.39665222 8.68530560 28 22 1198 213.36000000 3184253219 3184253219 2.33300000
6.42152834 34.37950134 -1.62914765 3 23 1198 35.01200000 3184253219 3184253219 -2.66700000
7.63437986 32.07059860 -1.72771454 6 24 1199 33.01200000 3184253222 3184253222 -3.00000000
3.82183719 27.90009117 -1.14729404 7 27 1200 28.18400000 3184253224 3184253224 -2.33300000
10.57255363 36.36727524 -1.32255137 7 28 1201 37.89600000 3184253226 3184253226 -2.00000000
8.92112255 47.57773972 -1.12640131 7 31 1202 48.42000000 3184253228 3184253228 -1.33300000
1.27205682 5.29442692 -2.53909063 15 0 1211 6.00800000 3184253249 3184253249 -25.00000000
7.70760345 55.47458267 -0.97761399 21 1 1211 56.01600000 3184253249 3184253249 -1.00000000
10.31208801 42.88698196 -1.28370714 10 2 1212 44.12800000 3184253251 3184253251 -1.66700000
1.53616226 8.11438274 -2.31187820 18 3 1212 8.57600000 3184253251 3184253251 -15.63900000
2.90159249 12.05818462 -2.48049140 9 4 1213 12.64800000 3184253254 3184253254 -11.31000000
15.02348804 51.24349213 -0.62168038 19 6 1214 53.40400000 3184253256 3184253256 -0.66700000
2.82245874 14.88049030 -2.35633445 14 7 1214 15.32800000 3184253256 3184253256 -8.84300000
3.82934213 15.90144444 -2.08191037 17 8 1214 16.48800000 3184253258 3184253258 -7.25400000
15.42751980 64.01409149 -0.38270289 28 10 1215 65.84800000 3184253261 3184253261 -0.33300000
3.53173375 18.60217667 -2.03955626 13 11 1215 19.04400000 3184253261 3184253261 -6.14800000
6.37075663 21.70190048 -2.11131740 5 12 1216 22.71600000 3184253263 3184253263 -5.33300000
21.91883469 74.61803436 0.90539688 28 14 1217 77.77600000 3184253265 3184253265 0.66700000
4.23602104 22.26934242 -1.58514607 4 15 1217 22.72400000 3184253265 3184253265 -4.00000000
5.88149881 24.34838676 -2.04485202 3 16 1218 25.13200000 3184253268 3184253268 -4.66700000
22.05401802 91.29981232 1.63947904 28 18 1218 93.94000000 3184253270 3184253270 1.00000000
3.53063464 25.18555832 -1.62989390 23 19 1218 25.48400000 3184253270 3184253270 -3.66700000
8.35174465 28.39509010 -1.72370565 4 20 1219 29.64800000 3184253272 3184253272 -3.33300000
32.88423157 172.54879761 10.22967720 42 21 1219 175.95200000 3184253272 3184253272 3.33300000
6.52952957 34.22899246 -1.62319171 3 23 1220 34.88400000 3184253275 3184253275 -2.66700000
7.72738695 31.91681480 -1.72101557 6 24 1221 32.88400000 3184253277 3184253277 -3.00000000
3.87317610 27.48945236 -1.13101113 11 27 1222 27.78400000 3184253279 3184253279 -2.33300000
10.66349602 36.16153717 -1.31654859 6 28 1223 37.72400000 3184253281 3184253281 -2.00000000
9.09544373 47.54471970 -1.12640131 7 31 1223 48.42000000 3184253284 3184253284 -1.33300000
1.29998136 5.32869577 -2.55768561 14 0 1231 6.05200000 3184253304 3184253304 -25.00000000
7.85098410 55.09495544 -0.97140092 20 1 1231 55.66000000 3184253304 3184253304 -1.00000000
10.42095184 42.68370438 -1.27870357 9 2 1232 43.95600000 3184253307 3184253307 -1.66700000
1.54404569 8.00306988 -2.28168583 16 3 1232 8.46400000 3184253307 3184253307 -15.63900000
2.93435621 12.00988102 -2.47264671 10 4 1233 12.60800000 3184253309 3184253309 -11.31000000
15.10798550 50.90581131 -0.61818808 18 6 1233 53.10400000 3184253311 3184253311 -0.66700000
2.87778401 14.90209484 -2.36125374 13 7 1233 15.36000000 3184253311 3184253311 -8.84300000
3.68785071 15.08240318 -1.97635019 3 8 1234 15.65200000 3184253314 3184253314 -7.25400000
15.59668446 63.73839188 -0.38137779 28 10 1235 65.62000000 3184253316 3184253316 -0.33300000
3.61024380 18.66001892 -2.04726720 17 11 1235 19.11600000 3184253316 3184253316 -6.14800000
6.42717409 21.61463165 -2.10499716 5 12 1236 22.64800000 3184253318 3184253318 -5.33300000
21.89628029 73.59033203 0.89384896 28 14 1237 76.78400000 3184253321 3184253321 0.66700000
4.17401361 21.53362846 -1.53380537 2 15 1237 21.98800000 3184253321 3184253321 -4.00000000
5.93796635 24.21154976 -2.03508830 3 16 1238 25.01200000 3184253323 3184253323 -4.66700000
22.05725670 89.93657684 1.61637211 28 18 1238 92.61600000 3184253325 3184253325 1.00000000
3.57195377 24.84908104 -1.60891581 13 19 1238 25.15600000 3184253325 3184253325 -3.66700000
8.44967079 28.36193657 -1.72347319 4 20 1239 29.64400000 3184253328 3184253328 -3.33300000
33.49395370 172.47215271 10.23200226 42 21 1239 175.99200000 3184253328 3184253328 3.33300000
51.04198074 207.80572510 8.71787167 28 22 1240 214.16000000 3184253330 3184253330 2.33300000
6.63753510 34.14715958 -1.62039983 3 23 1240 34.82400000 3184253330 3184253330 -2.66700000
3.82796693 26.49872589 -1.09079230 10 27 1242 26.79600000 3184253334 3184253334 -2.33300000
10.74389648 35.97087860 -1.31096470 6 28 1243 37.56400000 3184253337 3184253337 -2.00000000
9.20761490 47.19314575 -1.11886394 7 31 1244 48.09600000 3184253339 3184253339 -1.33300000
1.34210443 5.41913605 -2.60332847 14 0 1251 6.16000000 3184253360 3184253360 -25.00000000
8.01608658 54.88121796 -0.96811992 20 1 1251 55.47200000 3184253360 3184253360 -1.00000000
10.52852249 42.48019028 -1.27370000 9 2 1252 43.78400000 3184253362 3184253362 -1.66700000
1.59945953 8.13747692 -2.32158303 23 3 1252 8.61200000 3184253362 3184253362 -15.63900000
2.91677332 11.75972557 -2.42322516 16 4 1253 12.35600000 3184253364 3184253364 -11.31000000
15.30976677 50.93320084 -0.61916596 19 6 1253 53.18800000 3184253367 3184253367 -0.66700000
2.92902160 14.88808060 -2.36063862 15 7 1253 15.35600000 3184253367 3184253367 -8.84300000
3.71275449 14.95775604 -1.96170318 13 8 1254 15.53600000 3184253369 3184253369 -7.25400000
15.73904228 63.36135483 -0.37944824 28 10 1255 65.28800000 3184253371 3184253371 -0.33300000
3.69304585 18.73704720 -2.05712008 14 11 1255 19.20800000 3184253371 3184253371 -6.14800000
6.49684191 21.57299805 -2.10313845 5 12 1256 22.62800000 3184253374 3184253374 -5.33300000
21.87028503 72.57518768 0.88244069 28 14 1257 75.80400000 3184253376 3184253376 0.66700000
5.44729710 27.58666229 -1.96629548 3 15 1257 28.18800000 3184253376 3184253376 -4.00000000
6.01955462 24.17906761 -2.03411174 7 16 1258 25.00000000 3184253378 3184253378 -4.66700000
22.02709770 88.47742462 1.59151983 28 18 1258 91.19200000 3184253381 3184253381 1.00000000
3.67379713 24.93914032 -1.61556745 13 19 1258 25.26000000 3184253381 3184253381 -3.66700000
8.53939247 28.30168533 -1.72161269 4 20 1259 29.61200000 3184253383 3184253383 -3.33300000
34.11671066 172.45996094 10.23828125 42 21 1259 176.10000000 3184253383 3184253383 3.33300000
6.73185539 33.99835587 -1.61444390 3 23 1260 34.69600000 3184253385 3184253385 -2.66700000
7.87265491 31.55203438 -1.70426810 12 24 1261 32.56400000 3184253387 3184253387 -3.00000000
3.92219710 26.49706268 -1.09128082 3 27 1262 26.80800000 3184253390 3184253390 -2.33300000
10.86592007 35.92167664 -1.31054592 6 28 1263 37.55200000 3184253392 3184253392 -2.00000000
9.34735107 47.03520966 -1.11588633 7 31 1264 47.96800000 3184253394 3184253394 -1.33300000
1.36618280 5.44302225 -2.61685228 18 0 1269 6.19200000 3184253415 3184253415 -25.00000000
8.18314648 54.82016373 -0.96749163 20 1 1269 55.43600000 3184253415 3184253415 -1.00000000
10.62296391 42.29179001 -1.26904547 9 2 1270 43.62400000 3184253417 3184253417 -1.66700000
1.63935673 8.20417976 -2.34207082 25 3 1270 8.68800000 3184253417 3184253417 -15.63900000
2.95370293 11.75050449 -2.42322516 24 4 1271 12.35600000 3184253420 3184253420 -11.31000000
14.96531868 74.82613373 0.00000000 26 5 1271 76.30800000 3184253420 3184253420 0.00000000
15.36964989 50.55574799 -0.61516142 18 6 1271 52.84400000 3184253422 3184253422 -0.66700000
2.96725273 14.83617306 -2.35387468 14 7 1271 15.31200000 3184253422 3184253422 -8.84300000
3.76359916 14.96141052 -1.96372342 12 8 1272 15.55200000 3184253424 3184253424 -7.25400000
15.79154873 62.72976303 -0.37596107 28 10 1273 64.68800000 3184253427 3184253427 -0.33300000
3.77142477 18.82283974 -2.06782985 11 11 1273 19.30800000 3184253427 3184253427 -6.14800000
6.55413914 21.51819229 -2.09979248 5 12 1274 22.59200000 3184253429 3184253429 -5.33300000
21.81832123 71.58789062 0.87126523 28 14 1275 74.84400000 3184253431 3184253431 0.66700000
5.50959253 27.44813538 -1.95764565 7 15 1275 28.06400000 3184253431 3184253431 -4.00000000
6.08670807 24.12524796 -2.03118277 3 16 1276 24.96400000 3184253434 3184253434 -4.66700000
22.00165367 87.20565033 1.56987882 28 18 1276 89.95200000 3184253436 3184253436 1.00000000
3.68676972 24.49326897 -1.58742619 6 19 1276 24.82000000 3184253436 3184253436 -3.66700000
8.61427689 28.22888565 -1.71882200 4 20 1277 29.56400000 3184253438 3184253438 -3.33300000
34.65283203 172.32452393 10.23665333 42 21 1277 176.07200000 3184253438 3184253438 3.33300000
6.82522821 33.91044617 -1.61127973 3 23 1278 34.62800000 3184253440 3184253440 -2.66700000
7.96488523 31.50003815 -1.70280266 6 24 1279 32.53600000 3184253443 3184253443 -3.00000000
5.80194330 38.36356354 -1.58074510 7 27 1280 38.83200000 3184253445 3184253445 -2.33300000
10.92843151 35.72298813 -1.30454314 6 28 1281 37.38000000 3184253447 3184253447 -2.00000000
9.44122887 46.73906708 -1.10955870 7 31 1282 47.69600000 3184253450 3184253450 -1.33300000
1.37801564 5.41011572 -2.60332847 13 0 1289 6.16000000 3184253470 3184253470 -25.00000000
8.30738163 54.35242844 -0.95974272 19 1 1289 54.99200000 3184253470 3184253470 -1.00000000
10.74978542 42.17308807 -1.26660180 9 2 1290 43.54000000 3184253473 3184253473 -1.66700000
1.66798472 8.19840717 -2.34207082 28 3 1290 8.68800000 3184253473 3184253473 -15.63900000
2.97337365 11.65650845 -2.40596700 10 4 1291 12.26800000 3184253475 3184253475 -11.31000000
15.10749340 74.18942261 0.00000000 26 5 1291 75.71200000 3184253475 3184253475 0.00000000
15.42835331 50.11952209 -0.61050498 18 6 1291 52.44400000 3184253477 3184253477 -0.66700000
3.04426003 14.94966030 -2.37355185 17 7 1291 15.44000000 3184253477 3184253477 -8.84300000
3.81874561 14.95971680 -1.96523869 12 8 1292 15.56400000 3184253480 3184253480 -7.25400000
15.96092033 62.48048401 -0.37479869 28 10 1293 64.48800000 3184253482 3184253482 -0.33300000
3.83074641 18.77838707 -2.06440282 17 11 1293 19.27600000 3184253482 3184253482 -6.14800000
6.62216949 21.47234726 -2.09756184 5 12 1294 22.56800000 3184253484 3184253484 -5.33300000
21.82511711 70.72398376 0.86167300 28 14 1295 74.02000000 3184253486 3184253486 0.66700000
5.60297394 27.41700745 -1.95680857 3 15 1295 28.05200000 3184253486 3184253486 -4.00000000
6.16594028 24.08454323 -2.02955532 7 16 1296 24.94400000 3184253489 3184253489 -4.66700000
21.95379829 85.75289154 1.54509640 28 18 1296 88.53200000 3184253491 3184253491 1.00000000
3.76859713 24.45657921 -1.58589113 29 19 1296 24.79600000 3184253491 3184253491 -3.66700000
8.68093300 28.09563255 -1.71254301 4 20 1297 29.45600000 3184253493 3184253493 -3.33300000
35.28137589 172.33552551 10.24456024 42 21 1297 176.20800000 3184253493 3184253493 3.33300000
49.57260513 193.35272217 8.13217449 28 22 1298 199.77200000 3184253496 3184253496 2.33300000
6.91788960 33.76115799 -1.60532379 3 23 1298 34.50000000 3184253496 3184253496 -2.66700000
8.09166908 31.53781891 -1.70636153 6 24 1299 32.60400000 3184253498 3184253498 -3.00000000
5.93398762 38.33122635 -1.58025658 7 27 1300 38.82000000 3184253500 3184253500 -2.33300000
11.04359913 35.65407562 -1.30342638 6 28 1301 37.34800000 3184253503 3184253503 -2.00000000
9.57854652 46.58048630 -1.10658109 7 31 1302 47.56800000 3184253505 3184253505 -1.33300000
1.41326618 5.46469450 -2.63206649 14 0 1310 6.22800000 3184253526 3184253526 -25.00000000
8.49540043 54.25049210 -0.95848614 19 1 1310 54.92000000 3184253526 3184253526 -1.00000000
10.86721992 41.99018860 -1.26229644 9 2 1311 43.39200000 3184253528 3184253528 -1.66700000
1.69254971 8.16583633 -2.33452272 23 3 1311 8.66000000 3184253528 3184253528 -15.63900000
2.97084069 11.47086811 -2.36988139 12 4 1312 12.08400000 3184253530 3184253530 -11.31000000
15.29805851 73.74188995 0.00000000 26 5 1312 75.31200000 3184253530 3184253530 0.00000000
15.59408569 50.00535965 -0.60980648 17 6 1312 52.38400000 3184253533 3184253533 -0.66700000
3.06852412 14.79133987 -2.35018516 14 7 1312 15.28800000 3184253533 3184253533 -8.84300000
3.87653661 14.95714283 -1.96675384 10 8 1313 15.57600000 3184253535 3184253535 -7.25400000
16.13960457 62.22797012 -0.37363631 28 10 1314 64.28800000 3184253537 3184253537 -0.33300000
3.72475910 17.92315865 -1.97187090 13 11 1314 18.41200000 3184253537 3184253537 -6.14800000
6.69607449 21.43272591 -2.09607458 5 12 1315 22.55200000 3184253539 3184253539 -5.33300000
21.80134583 69.73876190 0.85063726 28 14 1316 73.07200000 3184253542 3184253542 0.66700000
5.69529200 27.35722160 -1.95401835 7 15 1316 28.01200000 3184253542 3184253542 -4.00000000
6.22609138 23.95374298 -2.02044249 3 16 1317 24.83200000 3184253544 3184253544 -4.66700000
21.97517586 84.54545593 1.52478182 28 18 1317 87.36800000 3184253546 3184253546 1.00000000
3.85945463 24.45048714 -1.58640277 9 19 1317 24.80400000 3184253546 3184253546 -3.66700000
8.76476574 28.00265121 -1.70882213 4 20 1318 29.39200000 3184253549 3184253549 -3.33300000
49.70306396 190.94961548 8.03871059 28 22 1319 197.47600000 3184253551 3184253551 2.33300000
7.03178692 33.68863678 -1.60309029 3 23 1319 34.45200000 3184253551 3184253551 -2.66700000
8.17498589 31.38425255 -1.69966257 6 24 1320 32.47600000 3184253553 3184253553 -3.00000000
6.04502106 38.12369537 -1.57260370 7 27 1321 38.63200000 3184253556 3184253556 -2.33300000
11.15984249 35.56758881 -1.30175126 6 28 1322 37.30000000 3184253558 3184253558 -2.00000000
9.70012760 46.35105896 -1.10192847 7 31 1322 47.36800000 3184253560 3184253560 -1.33300000
1.44976640 5.53011274 -2.66587591 11 0 1329 6.30800000 3184253581 3184253581 -25.00000000
8.62091637 53.88239288 -0.95248252 18 1 1329 54.57600000 3184253581 3184253581 -1.00000000
10.96379089 41.79148865 -1.25740921 9 2 1330 43.22400000 3184253583 3184253583 -1.66700000
1.70770514 8.10364151 -2.31834817 15 3 1330 8.60000000 3184253583 3184253583 -15.63900000
3.01583481 11.48750973 -2.37537265 13 4 1331 12.11200000 3184253586 3184253586 -11.31000000
15.51692104 73.56942749 0.00000000 26 5 1331 75.18800000 3184253586 3184253586 0.00000000
15.74446106 49.87434006 -0.60887522 17 6 1332 52.30400000 3184253588 3184253588 -0.66700000
3.03278613 14.36674500 -2.28438997 16 7 1332 14.86000000 3184253588 3184253588 -8.84300000
3.93014789 14.95955658 -1.96877420 11 8 1332 15.59200000 3184253590 3184253590 -7.25400000
16.24416733 61.78726196 -0.37131155 28 10 1333 63.88800000 3184253592 3184253592 -0.33300000
3.80226040 17.99631310 -1.98129535 12 11 1333 18.50000000 3184253592 3184253592 -6.14800000
6.76231003 21.39521408 -2.09458756 5 12 1334 22.53600000 3184253595 3184253595 -5.33300000
21.78283310 68.87667847 0.84099841 28 14 1335 72.24400000 3184253597 3184253597 0.66700000
5.78763294 27.34599304 -1.95457637 3 15 1335 28.02000000 3184253597 3184253597 -4.00000000
6.29634953 23.89826775 -2.01751351 7 16 1336 24.79600000 3184253599 3184253599 -4.66700000
21.96632004 83.31579590 1.50397861 28 18 1337 86.17600000 3184253602 3184253602 1.00000000
3.94923210 24.46445274 -1.58819366 9 19 1337 24.83200000 3184253602 3184253602 -3.66700000
8.85396099 27.96201134 -1.70812440 4 20 1337 29.38000000 3184253604 3184253604 -3.33300000
36.52090454 172.26080322 10.25502586 42 21 1337 176.38800000 3184253604 3184253604 3.33300000
50.20855331 190.30068970 8.01835728 28 22 1338 196.97600000 3184253606 3184253606 2.33300000
7.11941195 33.55178452 -1.59769261 3 23 1338 34.33600000 3184253606 3184253606 -2.66700000
8.26983738 31.32221222 -1.69777846 6 24 1339 32.44000000 3184253609 3184253609 -3.00000000
6.16502047 38.06398773 -1.57097542 7 27 1340 38.59200000 3184253611 3184253611 -2.33300000
11.22814178 35.37416458 -1.29602766 6 28 1341 37.13600000 3184253613 3184253613 -2.00000000
9.83963394 46.25214386 -1.10034657 7 31 1341 47.30000000 3184253616 3184253616 -1.33300000
1.44765353 5.44068193 -2.62530470 14 0 1350 6.21200000 3184253636 3184253636 -25.00000000
8.79895782 53.73202896 -0.95038825 18 1 1350 54.45600000 3184253636 3184253636 -1.00000000
11.07368279 41.58874512 -1.25252199 9 2 1351 43.05600000 3184253639 3184253639 -1.66700000
1.71800077 8.00693893 -2.29246879 17 3 1351 8.50400000 3184253639 3184253639 -15.63900000
3.06498766 11.50290966 -2.38086390 10 4 1352 12.14000000 3184253641 3184253641 -11.31000000
15.83580017 49.53056717 -0.60538286 17 6 1353 52.00400000 3184253643 3184253643 -0.66700000
3.14771223 14.64534855 -2.33050823 13 7 1353 15.16000000 3184253643 3184253643 -8.84300000
3.98699570 14.95271969 -1.96978426 12 8 1353 15.60000000 3184253645 3184253645 -7.25400000
16.41999054 61.53793716 -0.37017241 28 10 1354 63.69200000 3184253648 3184253648 -0.33300000
3.88826752 18.07556915 -1.99157667 10 11 1354 18.59600000 3184253648 3184253648 -6.14800000
6.81397009 21.28683662 -2.08640838 5 12 1355 22.44800000 3184253650 3184253650 -5.33300000
21.78868294 68.02693176 0.83159244 28 14 1356 71.43600000 3184253652 3184253652 0.66700000
5.85420132 27.16856766 -1.94341540 6 15 1356 27.86000000 3184253652 3184253652 -4.00000000
6.37977934 23.85962486 -2.01621175 3 16 1357 24.78000000 3184253655 3184253655 -4.66700000
21.94811630 82.08338165 1.48310554 28 18 1357 84.98000000 3184253657 3184253657 1.00000000
4.03720474 24.46627235 -1.58921695 13 19 1357 24.84800000 3184253657 3184253657 -3.66700000
8.94541264 27.89514923 -1.70603144 4 20 1358 29.34400000 3184253659 3184253659 -3.33300000
37.19499588 172.32485962 10.26688576 42 21 1358 176.59200000 3184253659 3184253659 3.33300000
7.22546339 33.44735336 -1.59397018 3 23 1359 34.25600000 3184253662 3184253662 -2.66700000
8.38251591 31.28397369 -1.69735968 6 24 1360 32.43200000 3184253664 3184253664 -3.00000000
6.27769899 37.87947464 -1.56429935 7 27 1361 38.42800000 3184253666 3184253666 -2.33300000
11.34670925 35.29852295 -1.29477131 6 28 1362 37.10000000 3184253669 3184253669 -2.00000000
9.92444706 45.82493973 -1.09104133 7 31 1362 46.90000000 3184253671 3184253671 -1.33300000
1.46757507 5.44285202 -2.62868547 13 0 1369 6.22000000 3184253692 3184253692 -25.00000000
8.95467091 53.56843948 -0.94801474 18 1 1369 54.32000000 3184253692 3184253692 -1.00000000
11.19487000 41.49003220 -1.25066018 9 2 1370 42.99200000 3184253694 3184253694 -1.66700000
1.75356960 8.04259682 -2.30433011 23 3 1370 8.54800000 3184253694 3184253694 -15.63900000
3.08062196 11.40937519 -2.36360550 16 4 1371 12.05200000 3184253697 3184253697 -11.31000000
15.85788345 72.66988373 0.00000000 85 5 1371 74.38000000 3184253697 3184253697 0.00000000
15.98025703 49.44631958 -0.60496384 17 6 1371 51.96800000 3184253699 3184253699 -0.66700000
3.14904523 14.43072414 -2.29791784 17 7 1371 14.94800000 3184253699 3184253699 -8.84300000
4.03966379 14.95090771 -1.97129953 12 8 1372 15.61200000 3184253701 3184253701 -7.25400000
16.62396812 61.48314667 -0.37017241 28 10 1373 63.69200000 3184253704 3184253704 -0.33300000
3.71039534 16.97470284 -1.87162805 4 11 1373 17.47600000 3184253704 3184253704 -6.14800000
6.87961531 21.24896812 -2.08492136 5 12 1374 22.43200000 3184253706 3184253706 -5.33300000
21.76761627 67.19329834 0.82227957 28 14 1375 70.63600000 3184253708 3184253708 0.66700000
5.94084978 27.13341331 -1.94229925 6 15 1375 27.84400000 3184253708 3184253708 -4.00000000
6.44948244 23.80370522 -2.01328254 3 16 1376 24.74400000 3184253710 3184253710 -4.66700000
21.90746880 80.85594177 1.46223247 28 18 1376 83.78400000 3184253713 3184253713 1.00000000
3.46397281 20.56754875 -1.33671260 4 19 1376 20.90000000 3184253713 3184253713 -3.66700000
9.00214005 27.75517845 -1.69928730 4 20 1377 29.22800000 3184253715 3184253715 -3.33300000
43.59680557 160.68457031 6.78313541 28 22 1378 166.63200000 3184253717 3184253717 2.33300000
7.31063986 33.30612564 -1.58838642 3 23 1378 34.13600000 3184253717 3184253717 -2.66700000
8.45167160 31.12879181 -1.69045138 6 24 1379 32.30000000 3184253720 3184253720 -3.00000000
6.39727879 37.82298279 -1.56283391 7 27 1380 38.39200000 3184253722 3184253722 -2.33300000
11.43032932 35.15805817 -1.29100215 6 28 1381 36.99200000 3184253724 3184253724 -2.00000000
10.08752537 45.84254837 -1.09225094 7 31 1381 46.95200000 3184253727 3184253727 -1.33300000
1.48178530 5.42021132 -2.62023330 16 0 1389 6.20000000 3184253747 3184253747 -25.00000000
9.14160538 53.53685379 -0.94801474 18 1 1389 54.32000000 3184253747 3184253747 -1.00000000
11.29215240 41.27715683 -1.24542391 9 2 1390 42.81200000 3184253750 3184253750 -1.66700000
1.78830254 8.06651115 -2.31295657 28 3 1390 8.58000000 3184253750 3184253750 -15.63900000
3.11628675 11.38341999 -2.36046767 12 4 1391 12.03600000 3184253752 3184253752 -11.31000000
16.07070160 49.13933182 -0.60189056 16 6 1391 51.70400000 3184253754 3184253754 -0.66700000
3.21138453 14.47366428 -2.30652666 15 7 1391 15.00400000 3184253754 3184253754 -8.84300000
4.08553743 14.91375351 -1.96826911 3 8 1392 15.58800000 3184253757 3184253757 -7.25400000
16.73273277 61.03898239 -0.36784765 28 10 1393 63.29200000 3184253759 3184253759 -0.33300000
3.74805522 16.86459160 -1.86091828 19 11 1393 17.37600000 3184253759 3184253759 -6.14800000
6.94382620 21.19454575 -2.08194709 2 12 1394 22.40000000 3184253761 3184253761 -5.33300000
21.75658226 66.36816406 0.81310636 28 14 1395 69.84800000 3184253763 3184253763 0.66700000
6.02945757 27.08524704 -1.94034612 6 15 1395 27.81600000 3184253763 3184253763 -4.00000000
6.53147745 23.77720261 -2.01295710 3 16 1396 24.74000000 3184253766 3184253766 -4.66700000
21.99571037 80.07323456 1.44945729 28 18 1396 83.05200000 3184253768 3184253768 1.00000000
3.53371572 20.54353142 -1.33594513 4 19 1396 20.88800000 3184253768 3184253768 -3.66700000
9.10893059 27.75393867 -1.70114779 4 20 1397 29.26000000 3184253770 3184253770 -3.33300000
44.25601578 160.88978577 6.79827881 28 22 1398 167.00400000 3184253773 3184253773 2.33300000
7.41293097 33.21800995 -1.58540845 3 23 1398 34.07200000 3184253773 3184253773 -2.66700000
8.54331779 31.03747940 -1.68710184 6 24 1399 32.23600000 3184253775 3184253775 -3.00000000
6.49797392 37.61925888 -1.55534375 7 27 1400 38.20800000 3184253777 3184253777 -2.33300000
11.52050400 35.01921082 -1.28737259 6 28 1401 36.88800000 3184253780 3184253780 -2.00000000
10.21867466 45.67827606 -1.08918023 7 31 1401 46.82000000 3184253782 3184253782 -1.33300000
1.50166452 5.41849947 -2.62192369 15 0 1409 6.20400000 3184253803 3184253803 -25.00000000
9.25149250 53.06334305 -0.94019604 17 1 1409 53.87200000 3184253803 3184253803 -1.00000000
11.42013931 41.17969513 -1.24367857 9 2 1410 42.75200000 3184253805 3184253805 -1.66700000
1.82915139 8.11658478 -2.32913113 24 3 1410 8.64000000 3184253805 3184253805 -15.63900000
3.17383385 11.43672371 -2.37380362 12 4 1411 12.10400000 3184253807 3184253807 -11.31000000
16.27354622 49.17786407 -0.60305470 17 6 1411 51.80400000 3184253810 3184253810 -0.66700000
3.27580118 14.52405643 -2.31636524 14 7 1411 15.06800000 3184253810 3184253810 -8.84300000
4.08448458 14.70823669 -1.94301546 2 8 1412 15.38800000 3184253812 3184253812 -7.25400000
16.83860207 60.59481430 -0.36552286 28 10 1413 62.89200000 3184253814 3184253814 -0.33300000
3.81215906 16.87468147 -1.86348867 20 11 1413 17.40000000 3184253814 3184253814 -6.14800000
7.01150084 21.15127563 -2.08008814 5 12 1414 22.38000000 3184253816 3184253816 -5.33300000
21.74509239 65.55912018 0.80411947 28 14 1415 69.07600000 3184253819 3184253819 0.66700000
6.09226274 26.92392731 -1.93030119 6 15 1415 27.67200000 3184253819 3184253819 -4.00000000
6.58449125 23.64672279 -2.00384426 6 16 1416 24.62800000 3184253821 3184253821 -4.66700000
21.94767380 78.76693726 1.42725778 28 18 1417 81.78000000 3184253823 3184253823 1.00000000
3.98633504 22.67705536 -1.47562838 5 19 1417 23.07200000 3184253823 3184253823 -3.66700000
9.18310165 27.65375710 -1.69696176 4 20 1417 29.18800000 3184253826 3184253826 -3.33300000
40.66312790 145.83547974 6.16812992 28 22 1418 151.52400000 3184253828 3184253828 2.33300000
7.51823187 33.14517212 -1.58317494 3 23 1418 34.02400000 3184253828 3184253828 -2.66700000
8.64945984 30.99977303 -1.68668318 6 24 1419 32.22800000 3184253830 3184253830 -3.00000000
6.62647390 37.58060074 -1.55469251 7 27 1420 38.19200000 3184253833 3184253833 -2.33300000
11.61237431 34.88775253 -1.28402233 6 28 1421 36.79200000 3184253835 3184253835 -2.00000000
10.36742020 45.59553528 -1.08806360 7 31 1421 46.77200000 3184253837 3184253837 -1.33300000
1.50096178 5.34342146 -2.58811426 13 0 1429 6.12400000 3184253858 3184253858 -25.00000000
9.41003609 52.88109970 -0.93754327 17 1 1429 53.72000000 3184253858 3184253858 -1.00000000
11.53243732 41.02795410 -1.24030399 9 2 1430 42.63600000 3184253860 3184253860 -1.66700000
1.88499057 8.23030090 -2.36363673 28 3 1430 8.76800000 3184253860 3184253860 -15.63900000
3.18612313 11.32740402 -2.35340738 13 4 1431 12.00000000 3184253862 3184253862 -11.31000000
16.29614639 48.64760590 -0.59728068 16 6 1432 51.30800000 3184253865 3184253865 -0.66700000
3.29277945 14.35400391 -2.29115391 14 7 1432 14.90400000 3184253865 3184253865 -8.84300000
4.08957291 14.52964783 -1.92129731 3 8 1432 15.21600000 3184253867 3184253867 -7.25400000
17.05001450 60.53566742 -0.36552286 28 10 1433 62.89200000 3184253869 3184253869 -0.33300000
3.87281919 16.86902428 -1.86434543 22 11 1433 17.40800000 3184253869 3184253869 -6.14800000
7.07136011 21.08513641 -2.07599878 2 12 1434 22.33600000 3184253872 3184253872 -5.33300000
21.73840332 64.78131104 0.79550505 28 14 1435 68.33600000 3184253874 3184253874 0.66700000
6.17815971 26.86749840 -1.92778993 3 15 1435 27.63600000 3184253874 3184253874 -4.00000000
6.65941381 23.59673500 -2.00156593 3 16 1436 24.60000000 3184253876 3184253876 -4.66700000
21.94261742 77.75070953 1.41015446 28 18 1436 80.80000000 3184253879 3184253879 1.00000000
4.05306292 22.61655998 -1.47255838 8 19 1436 23.02400000 3184253879 3184253879 -3.66700000
9.20836067 27.40955544 -1.68393862 4 20 1437 28.96400000 3184253881 3184253881 -3.33300000
41.13498688 145.56188965 6.16259384 115 22 1438 151.38800000 3184253883 3184253883 2.33300000
7.60696030 33.00191879 -1.57759118 3 23 1438 33.90400000 3184253883 3184253883 -2.66700000
8.72609520 30.85792160 -1.68061221 6 24 1439 32.11200000 3184253886 3184253886 -3.00000000
40.53836823 143.25955200 12.15422535 28 26 1440 149.38000000 3184253888 3184253888 4.66700000
6.72788906 37.39203262 -1.54785359 7 27 1440 38.02400000 3184253888 3184253888 -2.33300000
11.70346737 34.75608063 -1.28067195 6 28 1441 36.69600000 3184253890 3184253890 -2.00000000
10.49572659 45.38969803 -1.08406234 7 31 1442 46.60000000 3184253892 3184253892 -1.33300000
1.52152956 5.34137106 -2.58980465 14 0 1450 6.12800000 3184253913 3184253913 -25.00000000
9.49652672 52.25601196 -0.92707181 16 1 1450 53.12000000 3184253913 3184253913 -1.00000000
1.91689086 8.23083973 -2.36579347 19 3 1451 8.77600000 3184253915 3184253915 -15.63900000
3.22977042 11.32319450 -2.35497642 12 4 1452 12.00800000 3184253918 3184253918 -11.31000000
16.45507431 48.53073502 -0.59658223 16 6 1453 51.24800000 3184253920 3184253920 -0.66700000
3.34267402 14.33029175 -2.28930926 14 7 1453 14.89200000 3184253920 3184253920 -8.84300000
4.11339474 14.41154003 -1.90766037 3 8 1453 15.10800000 3184253922 3184253922 -7.25400000
3.93733358 16.86633492 -1.86563063 22 11 1454 17.42000000 3184253925 3184253925 -6.14800000
7.14859343 21.05907822 -2.07599878 2 12 1455 22.33600000 3184253927 3184253927 -5.33300000
21.74672508 64.02706909 0.78721660 28 14 1456 67.62400000 3184253929 3184253929 0.66700000
6.27205038 26.82524681 -1.92639482 3 15 1456 27.61600000 3184253929 3184253929 -4.00000000
6.73817730 23.54533958 -1.99928784 3 16 1457 24.57200000 3184253932 3184253932 -4.66700000
22.03597832 77.00072479 1.39800751 28 18 1457 80.10400000 3184253934 3184253934 1.00000000
5.33014727 29.12757492 -1.89774811 4 19 1457 29.67200000 3184253934 3184253934 -3.66700000
9.31518745 27.39452362 -1.68510139 4 20 1458 28.98400000 3184253936 3184253936 -3.33300000
41.69684601 145.51002502 6.16682720 124 22 1459 151.49200000 3184253939 3184253939 2.33300000
7.71327925 32.91157150 -1.57461321 3 23 1459 33.84000000 3184253939 3184253939 -2.66700000
8.82702541 30.78349495 -1.67830944 6 24 1460 32.06800000 3184253941 3184253941 -3.00000000
40.26598358 140.33174133 11.91826820 28 26 1461 146.48000000 3184253943 3184253943 4.66700000
6.83383942 37.19809723 -1.54085195 7 27 1461 37.85200000 3184253943 3184253943 -2.33300000
11.82948589 34.70916748 -1.28053236 6 28 1462 36.69200000 3184253945 3184253945 -2.00000000
10.60380459 45.13867188 -1.07894444 7 31 1462 46.38000000 3184253948 3184253948 -1.33300000
1.54332292 5.35398149 -2.59825706 14 0 1468 6.14800000 3184253968 3184253968 -25.00000000
9.66064739 52.22592163 -0.92707181 16 1 1468 53.12000000 3184253968 3184253968 -1.00000000
1.88695419 7.98860550 -2.29786038 15 3 1469 8.52400000 3184253971 3184253971 -15.63900000
3.28490615 11.38082504 -2.36909676 12 4 1470 12.08000000 3184253973 3184253973 -11.31000000
16.55364990 48.34925461 -0.59495246 16 6 1470 51.10800000 3184253975 3184253975 -0.66700000
3.39427066 14.35877514 -2.29545832 12 7 1470 14.93200000 3184253975 3184253975 -8.84300000
4.13002205 14.29942989 -1.89452839 5 8 1471 15.00400000 3184253978 3184253978 -7.25400000
17.23955345 59.64967728 -0.36087334 28 10 1472 62.09200000 3184253980 3184253980 -0.33300000
3.99396610 16.86936188 -1.86734414 20 11 1472 17.43600000 3184253980 3184253980 -6.14800000
7.20825720 21.01767921 -2.07413983 2 12 1473 22.31600000 3184253982 3184253982 -5.33300000
21.71538162 63.28124619 0.77888161 28 14 1474 66.90800000 3184253985 3184253985 0.66700000
6.35629320 26.80541039 -1.92639482 3 15 1474 27.61600000 3184253985 3184253985 -4.00000000
6.80546045 23.50107765 -1.99733508 3 16 1475 24.54800000 3184253987 3184253987 -4.66700000
22.11090660 76.35488892 1.38753617 28 18 1475 79.50400000 3184253989 3184253989 1.00000000
5.44063044 29.21271896 -1.90439975 4 19 1475 29.77600000 3184253989 3184253989 -3.66700000
9.40120411 27.36512566 -1.68510139 4 20 1476 28.98400000 3184253992 3184253992 -3.33300000
42.17826080 145.46276855 6.17040968 140 22 1477 151.58000000 3184253994 3184253994 2.33300000
7.78060198 32.73556900 -1.56735432 10 23 1477 33.68400000 3184253994 3184253994 -2.66700000
8.91144657 30.71341324 -1.67600667 6 24 1478 32.02400000 3184253996 3184253996 -3.00000000
40.65106964 140.01310730 11.90199471 28 26 1479 146.28000000 3184253998 3184253998 4.66700000
6.94405603 37.14108658 -1.53938651 7 27 1479 37.81600000 3184253998 3184253998 -2.33300000
11.93586636 34.66427231 -1.28025317 6 28 1480 36.68400000 3184254001 3184254001 -2.00000000
10.75250340 45.09936905 -1.07885134 7 31 1481 46.37600000 3184254003 3184254003 -1.33300000
1.56200242 5.34856176 -2.59825706 14 0 1488 6.14800000 3184254024 3184254024 -25.00000000
9.78063107 51.86175156 -0.92120785 15 1 1488 52.78400000 3184254024 3184254024 -1.00000000
11.83542061 40.50022125 -1.22796965 9 2 1489 42.21200000 3184254026 3184254026 -1.66700000
1.90763962 7.95200491 -2.28923392 21 3 1489 8.49200000 3184254026 3184254026 -15.63900000
3.27507377 11.19987869 -2.33379579 12 4 1490 11.90000000 3184254028 3184254028 -11.31000000
16.65687943 48.10219955 -0.59262425 15 6 1490 50.90800000 3184254031 3184254031 -0.66700000
3.34564447 13.93561172 -2.22966290 14 7 1490 14.50400000 3184254031 3184254031 -8.84300000
4.06513357 13.89267159 -1.84250593 11 8 1491 14.59200000 3184254033 3184254033 -7.25400000
17.47576332 59.68510437 -0.36145455 28 10 1492 62.19200000 3184254035 3184254035 -0.33300000
4.05561638 16.86691666 -1.86862934 20 11 1492 17.44800000 3184254035 3184254035 -6.14800000
7.25025415 20.90208435 -2.06521726 2 12 1493 22.22000000 3184254038 3184254038 -5.33300000
21.72369194 62.59292221 0.77133816 28 14 1494 66.26000000 3184254040 3184254040 0.66700000
6.41338825 26.63176346 -1.91551280 6 15 1494 27.46000000 3184254040 3184254040 -4.00000000
6.88633060 23.47335434 -1.99700963 3 16 1495 24.54400000 3184254042 3184254042 -4.66700000
5.53437853 29.15041161 -1.90158558 4 19 1495 29.73200000 3184254045 3184254045 -3.66700000
9.49011517 27.31328201 -1.68393862 4 20 1496 28.96400000 3184254047 3184254047 -3.33300000
42.70829010 145.39134216 6.17366600 31 22 1497 151.66000000 3184254049 3184254049 2.33300000
7.86857224 32.59945679 -1.56214285 10 23 1497 33.57200000 3184254049 3184254049 -2.66700000
8.97579575 30.53648758 -1.66805160 6 24 1498 31.87200000 3184254051 3184254051 -3.00000000
7.04298353 36.95565414 -1.53271055 6 27 1499 37.65200000 3184254054 3184254054 -2.33300000
12.01603985 34.50536728 -1.27592564 6 28 1500 36.56000000 3184254056 3184254056 -2.00000000
10.85905075 44.85168457 -1.07382655 7 31 1501 46.16000000 3184254058 3184254058 -1.33300000
1.57027626 5.30456352 -2.57966185 14 0 1509 6.10400000 3184254079 3184254079 -25.00000000
9.97064877 51.82555389 -0.92120785 15 1 1509 52.78400000 3184254079 3184254079 -1.00000000
11.99286652 40.48723984 -1.22890055 9 2 1510 42.24400000 3184254081 3184254081 -1.66700000
1.94771981 7.98986769 -2.30217361 18 3 1510 8.54000000 3184254081 3184254081 -15.63900000
3.31498671 11.18403912 -2.33301139 13 4 1511 11.89600000 3184254084 3184254084 -11.31000000
17.09110069 70.05736542 0.00000000 25 5 1511 72.11200000 3184254084 3184254084 0.00000000
16.83307076 48.04082489 -0.59262425 15 6 1511 50.90800000 3184254086 3184254086 -0.66700000
3.29271793 13.49703407 -2.16140795 17 7 1511 14.06000000 3184254086 3184254086 -8.84300000
4.07653522 13.74453259 -1.82482839 3 8 1512 14.45200000 3184254088 3184254088 -7.25400000
17.60905075 59.33305740 -0.35971096 28 10 1513 61.89200000 3184254091 3184254091 -0.33300000
4.12968016 16.90216255 -1.87419832 9 11 1513 17.50000000 3184254091 3184254091 -6.14800000
7.32022047 20.85658073 -2.06335831 2 12 1514 22.20000000 3184254093 3184254093 -5.33300000
21.70911217 61.81850052 0.76277035 28 14 1515 65.52400000 3184254095 3184254095 0.66700000
6.50905848 26.60032654 -1.91495466 3 15 1515 27.45200000 3184254095 3184254095 -4.00000000
6.93709326 23.32949448 -1.98692048 3 16 1516 24.42000000 3184254098 3184254098 -4.66700000
5.62069130 29.02411842 -1.89467812 4 19 1516 29.62400000 3184254100 3184254100 -3.66700000
9.55572510 27.18036842 -1.67789209 4 20 1517 28.86000000 3184254102 3184254102 -3.33300000
7.98229218 32.54711151 -1.56102610 3 23 1518 33.54800000 3184254104 3184254104 -2.66700000
9.07967377 30.47658730 -1.66658616 6 24 1519 31.84400000 3184254107 3184254107 -3.00000000
41.42528152 138.95834351 11.83722878 28 26 1520 145.48400000 3184254109 3184254109 4.66700000
7.17152166 36.89428329 -1.53124511 6 27 1520 37.61600000 3184254109 3184254109 -2.33300000
12.12382889 34.40830994 -1.27397120 6 28 1521 36.50400000 3184254111 3184254111 -2.00000000
10.98133755 44.64072418 -1.06973219 7 31 1522 45.98400000 3184254114 3184254114 -1.33300000
1.64396358 5.48309278 -2.66925693 13 0 1529 6.31600000 3184254134 3184254134 -25.00000000
10.10995102 51.57850266 -0.91743809 15 1 1529 52.56800000 3184254134 3184254134 -1.00000000
12.12033272 40.39917374 -1.22750413 9 2 1530 42.19600000 3184254137 3184254137 -1.66700000
1.97837377 7.99423742 -2.30540848 15 3 1530 8.55200000 3184254137 3184254137 -15.63900000
3.33821726 11.11980629 -2.32202864 15 4 1531 11.84000000 3184254139 3184254139 -11.31000000
16.88578415 47.65754700 -0.58861971 15 6 1531 50.56400000 3184254141 3184254141 -0.66700000
3.30845618 13.35885239 -2.14111590 13 7 1531 13.92800000 3184254141 3184254141 -8.84300000
5.21354437 17.35563469 -2.30666780 3 8 1532 18.26800000 3184254144 3184254144 -7.25400000
17.75848198 59.07969666 -0.35854858 28 10 1533 61.69200000 3184254146 3184254146 -0.33300000
7.38631868 20.81213379 -2.06149936 2 12 1534 22.18000000 3184254148 3184254148 -5.33300000
21.70392609 61.12043762 0.75508720 28 14 1535 64.86400000 3184254150 3184254150 0.66700000
6.59225178 26.53871918 -1.91216445 3 15 1535 27.41200000 3184254150 3184254150 -4.00000000
7.01158857 23.28223228 -1.98496771 6 16 1536 24.39600000 3184254153 3184254153 -4.66700000
5.71192646 28.95340919 -1.89135242 4 19 1536 29.57200000 3184254155 3184254155 -3.66700000
9.65455627 27.15813446 -1.67858982 4 20 1537 28.87200000 3184254157 3184254157 -3.33300000
8.08523560 32.47639847 -1.55897880 3 23 1538 33.50400000 3184254160 3184254160 -2.66700000
9.17330837 30.40264130 -1.66428339 6 24 1539 31.80000000 3184254162 3184254162 -3.00000000
41.85247040 138.62207031 11.82095623 28 26 1540 145.28400000 3184254164 3184254164 4.66700000
7.26688242 36.70043945 -1.52424335 6 27 1540 37.44400000 3184254164 3184254164 -2.33300000
12.19690514 34.23398209 -1.26908529 6 28 1541 36.36400000 3184254167 3184254167 -2.00000000
11.08187485 44.38097000 -1.06442821 7 31 1542 45.75600000 3184254169 3184254169 -1.33300000
1.65361381 5.44610119 -2.65404272 10 0 1549 6.28000000 3184254190 3184254190 -25.00000000
10.25156593 51.35071945 -0.91401744 14 1 1549 52.37200000 3184254190 3184254190 -1.00000000
12.22640896 40.24185181 -1.22401333 9 2 1550 42.07600000 3184254192 3184254192 -1.66700000
1.96685469 7.83037663 -2.26011992 23 3 1550 8.38400000 3184254192 3184254192 -15.63900000
3.36103988 11.05554771 -2.31104612 15 4 1551 11.78400000 3184254194 3184254194 -11.31000000
17.38571930 69.16436005 0.00000000 25 5 1551 71.31600000 3184254194 3184254194 0.00000000
17.05203819 47.59831619 -0.58861971 15 6 1551 50.56400000 3184254197 3184254197 -0.66700000
3.48225498 13.85320473 -2.22228408 16 7 1551 14.45600000 3184254197 3184254197 -8.84300000
5.26832104 17.31834984 -2.30414248 4 8 1552 18.24800000 3184254199 3184254199 -7.25400000
17.90636063 58.82601929 -0.35738620 28 10 1553 61.49200000 3184254201 3184254201 -0.33300000
4.12136412 16.37155342 -1.81850791 3 11 1553 16.98000000 3184254201 3184254201 -6.14800000
7.45219612 20.76748085 -2.05964065 2 12 1554 22.16000000 3184254203 3184254203 -5.33300000
21.70629883 60.45705032 0.74782318 28 14 1555 64.24000000 3184254206 3184254206 0.66700000
6.68387365 26.51167679 -1.91188538 3 15 1555 27.40800000 3184254206 3184254206 -4.00000000
7.08700132 23.23854828 -1.98334038 3 16 1556 24.37600000 3184254208 3184254208 -4.66700000
5.80430889 28.89024353 -1.88853824 4 19 1556 29.52800000 3184254210 3184254210 -3.66700000
9.64799500 26.84242821 -1.66114807 4 20 1557 28.57200000 3184254213 3184254213 -3.33300000
8.18288898 32.38599777 -1.55600083 3 23 1558 33.44000000 3184254215 3184254215 -2.66700000
