# .PCD v0.7 - Point Cloud Data file format
VERSION 0.7
FIELDS x y z intensity laser_id azimuth distance_m adjustedtime timestamp vertical_angle
SIZE 4 4 4 1 1 2 8 8 4 8
TYPE F F F U U U F U U F
COUNT 1 1 1 1 1 1 1 1 1 1
WIDTH 523
HEIGHT 1
VIEWPOINT 0 0 0 1 0 0 0
POINTS 523
DATA ascii
39.27320099 15.53350449 -0.73718965 26 1 7262 42.24000000 3179470090 3179470090 -1.00000000
36.15662766 10.34726048 -1.09450221 7 2 7263 37.62400000 3179470092 3179470092 -1.66700000
8.39918804 2.85441041 -2.48332834 3 3 7263 9.21200000 3179470092 3179470092 -15.63900000
11.08712673 3.17080736 -2.30633926 2 4 7264 11.76000000 3179470095 3179470095 -11.31000000
40.32925797 13.69778824 0.00000000 14 5 7264 42.59200000 3179470095 3179470095 0.00000000
39.60280609 9.25230122 -0.47346613 19 6 7265 40.67200000 3179470097 3179470097 -0.66700000
12.94973183 4.39584160 -2.12758780 1 7 7265 13.84000000 3179470097 3179470097 -8.84300000
15.26471329 4.36267328 -2.02079654 2 8 7265 16.00400000 3179470099 3179470099 -7.25400000
40.30601883 15.91760826 0.25186509 27 9 7265 43.33600000 3179470099 3179470099 0.33300000
40.49594879 11.56614590 -0.24477455 15 10 7266 42.11600000 3179470102 3179470102 -0.33300000
16.38655663 5.55929708 -1.86391699 2 11 7266 17.40400000 3179470102 3179470102 -6.14800000
18.78777695 4.38242388 -1.80088425 6 12 7267 19.37600000 3179470104 3179470104 -5.33300000
40.28763580 13.66012859 0.98989314 13 13 7267 42.55200000 3179470104 3179470104 1.33300000
40.25816345 9.38318348 0.48124239 28 14 7268 41.34000000 3179470106 3179470106 0.66700000
20.60778618 6.98336935 -1.52152824 16 15 7268 21.81200000 3179470106 3179470106 -4.00000000
19.65318489 5.60206556 -1.66829717 5 16 7269 20.50400000 3179470109 3179470109 -4.66700000
40.26354218 15.86834908 1.25950372 17 17 7269 43.29600000 3179470109 3179470109 1.66700000
40.47343826 11.53679943 0.73460668 19 18 7269 42.09200000 3179470111 3179470111 1.00000000
20.59299469 8.11594868 -1.41857827 26 19 7269 22.18000000 3179470111 3179470111 -3.66700000
20.60947418 4.79597473 -1.23231471 16 20 7270 21.19600000 3179470113 3179470113 -3.33300000
40.08621597 13.56843567 2.46462941 19 21 7270 42.39200000 3179470113 3179470113 3.33300000
40.53079605 11.53785324 1.71687031 26 22 7271 42.17600000 3179470116 3179470116 2.33300000
20.66588593 6.99099636 -1.01623976 21 23 7271 21.84000000 3179470116 3179470116 -2.66700000
20.62425804 5.86719179 -1.12375760 29 24 7272 21.47200000 3179470118 3179470118 -3.00000000
43.41372681 14.67784786 5.62695122 18 25 7272 46.17200000 3179470118 3179470118 7.00000000
42.60442352 12.11207485 3.61583710 30 26 7273 44.44000000 3179470120 3179470120 4.66700000
20.67959595 8.13340473 -0.90532994 22 27 7273 22.24000000 3179470120 3179470120 -2.33300000
20.66631889 4.79399633 -0.74084651 14 28 7274 21.22800000 3179470122 3179470122 -2.00000000
38.09169006 12.86369324 -0.93555045 5 31 7274 40.21600000 3179470125 3179470125 -1.33300000
5.63410044 1.59216571 -2.73011398 7 0 7282 6.46000000 3179470145 3179470145 -25.00000000
39.14469910 15.32487965 -0.73376900 17 1 7282 42.04400000 3179470145 3179470145 -1.00000000
36.25408936 10.23837376 -1.09636402 7 2 7283 37.68800000 3179470148 3179470148 -1.66700000
8.39814663 2.82139421 -2.48009324 3 3 7283 9.20000000 3179470148 3179470148 -15.63900000
11.10190201 3.13315225 -2.30712390 2 4 7284 11.76400000 3179470150 3179470150 -11.31000000
40.34269714 13.54547119 0.00000000 14 5 7284 42.55600000 3179470150 3179470150 0.00000000
40.42063522 9.30212116 -0.48287213 20 6 7284 41.48000000 3179470152 3179470152 -0.66700000
12.97547817 4.35664845 -2.12943268 1 7 7284 13.85200000 3179470152 3179470152 -8.84300000
15.27602959 4.30828619 -2.02029157 2 8 7285 16.00000000 3179470155 3179470155 -7.25400000
40.28682709 15.74769306 0.25140014 18 9 7285 43.25600000 3179470155 3179470155 0.33300000
40.47832489 11.40844250 -0.24442585 15 10 7286 42.05600000 3179470157 3179470157 -0.33300000
16.40586281 5.50206375 -1.86391699 2 11 7286 17.40400000 3179470157 3179470157 -6.14800000
18.80295944 4.31681538 -1.80088425 6 12 7287 19.37600000 3179470159 3179470159 -5.33300000
40.28199387 13.50162315 0.98859042 20 13 7287 42.49600000 3179470159 3179470159 1.33300000
40.21270370 9.22471333 0.48031110 28 14 7288 41.26000000 3179470162 3179470162 0.66700000
20.60176849 6.90125275 -1.51929605 16 15 7288 21.78000000 3179470162 3179470162 -4.00000000
19.68029594 5.53558779 -1.66894805 5 16 7289 20.51200000 3179470164 3179470164 -4.66700000
40.27026367 15.70881653 1.25799108 17 17 7289 43.24400000 3179470164 3179470164 1.66700000
40.46340942 11.38137245 0.73369914 19 18 7289 42.04000000 3179470166 3179470166 1.00000000
20.59888649 8.03531170 -1.41704321 23 19 7289 22.15600000 3179470166 3179470166 -3.66700000
20.59884262 4.71776485 -1.23068678 19 20 7290 21.16800000 3179470169 3179470169 -3.33300000
40.20528793 13.45250034 2.46904802 13 21 7290 42.46800000 3179470169 3179470169 3.33300000
40.56312561 11.39414215 1.71654463 17 22 7291 42.16800000 3179470171 3179470171 2.33300000
20.66363716 6.90994596 -1.01493692 19 23 7291 21.81200000 3179470171 3179470171 -2.66700000
20.62922859 5.79084587 -1.12292027 29 24 7292 21.45600000 3179470173 3179470173 -3.00000000
43.41951370 14.51111507 5.62110138 28 25 7292 46.12400000 3179470173 3179470173 7.00000000
42.72321320 11.98482037 3.62234640 20 26 7293 44.52000000 3179470175 3179470175 4.66700000
20.67434120 8.04812050 -0.90386444 24 27 7293 22.20400000 3179470175 3179470175 -2.33300000
20.67513275 4.72004890 -0.74056733 16 28 7294 21.22000000 3179470178 3179470178 -2.00000000
38.16893005 12.73411751 -0.93629485 5 31 7295 40.24800000 3179470180 3179470180 -1.33300000
5.64311552 1.57346308 -2.73180437 8 0 7302 6.46400000 3179470201 3179470201 -25.00000000
39.24643707 15.20693111 -0.73467648 8 1 7302 42.09600000 3179470201 3179470201 -1.00000000
36.46292877 10.16005516 -1.10160029 7 2 7303 37.86800000 3179470203 3179470203 -1.66700000
8.40794468 2.79206204 -2.48009324 2 3 7303 9.20000000 3179470203 3179470203 -15.63900000
11.10899258 3.09332800 -2.30633926 4 4 7304 11.76000000 3179470205 3179470205 -11.31000000
40.32519531 13.38314724 0.00000000 14 5 7304 42.48800000 3179470205 3179470205 0.00000000
12.99810886 4.31381941 -2.13066244 2 7 7304 13.86000000 3179470208 3179470208 -8.84300000
15.29479885 4.25600004 -2.02079654 2 8 7305 16.00400000 3179470210 3179470210 -7.25400000
40.31170654 15.59542370 0.25121415 27 9 7305 43.22400000 3179470210 3179470210 0.33300000
40.48321915 11.25743198 -0.24421661 15 10 7306 42.02000000 3179470212 3179470212 -0.33300000
16.42874336 5.44601440 -1.86434543 2 11 7306 17.40800000 3179470212 3179470212 -6.14800000
18.81402969 4.25027704 -1.80051243 6 12 7307 19.37200000 3179470215 3179470215 -5.33300000
40.26434326 13.33955097 0.98700851 13 13 7307 42.42800000 3179470215 3179470215 1.33300000
40.14712143 9.06227112 0.47914699 28 14 7308 41.16000000 3179470217 3179470217 0.66700000
20.60679245 6.82302570 -1.51790082 16 15 7308 21.76000000 3179470217 3179470217 -4.00000000
19.70334053 5.46792316 -1.66927350 7 16 7309 20.51600000 3179470219 3179470219 -4.66700000
40.26517105 15.54511166 1.25612926 17 17 7309 43.18000000 3179470219 3179470219 1.66700000
40.41425705 11.21546173 0.73209357 28 18 7309 41.94800000 3179470222 3179470222 1.00000000
20.59329414 7.95042038 -1.41474080 26 19 7309 22.12000000 3179470222 3179470222 -3.66700000
20.60739517 4.64407682 -1.23022163 19 20 7310 21.16000000 3179470224 3179470224 -3.33300000
40.24441528 13.30956841 2.46858287 13 21 7310 42.46000000 3179470224 3179470224 3.33300000
40.44474030 11.20871735 1.70986867 17 22 7311 42.00400000 3179470226 3179470226 2.33300000
20.66107368 6.82899714 -1.01363397 21 23 7311 21.78400000 3179470226 3179470226 -2.66700000
20.61852074 5.71027184 -1.12124550 32 24 7312 21.42400000 3179470228 3179470228 -3.00000000
43.22109222 14.27727509 5.58892822 27 25 7312 45.86000000 3179470228 3179470228 7.00000000
42.85700607 11.86113739 3.63015723 20 26 7313 44.61600000 3179470231 3179470231 4.66700000
20.67620277 7.96584702 -0.90272462 22 27 7313 22.17600000 3179470231 3179470231 -2.33300000
20.66418076 4.64171743 -0.73959011 14 28 7314 21.19200000 3179470233 3179470233 -2.00000000
38.34986496 12.64588928 -0.93964475 5 31 7315 40.39200000 3179470235 3179470235 -1.33300000
5.65206909 1.55471683 -2.73349500 6 0 7322 6.46800000 3179470256 3179470256 -25.00000000
39.50839615 15.15003204 -0.73858583 17 1 7322 42.32000000 3179470256 3179470256 -1.00000000
36.64081955 10.07192516 -1.10590577 7 2 7323 38.01600000 3179470258 3179470258 -1.66700000
8.42495918 2.76509809 -2.48224998 3 3 7323 9.20800000 3179470258 3179470258 -15.63900000
11.11972237 3.05453157 -2.30633926 4 4 7324 11.76000000 3179470261 3179470261 -11.31000000
40.32986069 13.22859097 0.00000000 14 5 7324 42.44400000 3179470261 3179470261 0.00000000
13.01684380 4.26965284 -2.13127732 2 7 7324 13.86400000 3179470263 3179470263 -8.84300000
15.32104111 4.20573664 -2.02231193 2 8 7325 16.01600000 3179470265 3179470265 -7.25400000
40.28371811 15.42315006 0.25070271 18 9 7325 43.13600000 3179470265 3179470265 0.33300000
40.46826172 11.10123634 -0.24389115 15 10 7326 41.96400000 3179470268 3179470268 -0.33300000
16.44387436 5.38739586 -1.86391699 2 11 7326 17.40400000 3179470268 3179470268 -6.14800000
18.84819031 4.18889809 -1.80237138 6 12 7327 19.39200000 3179470270 3179470270 -5.33300000
40.26505661 13.18398857 0.98589188 13 13 7327 42.38000000 3179470270 3179470270 1.33300000
40.01842117 8.88652706 0.47723785 18 14 7328 40.99600000 3179470272 3179470272 0.66700000
20.60393715 6.74236631 -1.51594770 16 15 7328 21.73200000 3179470272 3179470272 -4.00000000
19.72230721 5.39911222 -1.66927350 5 16 7329 20.51600000 3179470275 3179470275 -4.66700000
40.26316452 15.38305950 1.25438380 17 17 7329 43.12000000 3179470275 3179470275 1.66700000
40.43001556 11.06798553 0.73167467 28 18 7329 41.92400000 3179470277 3179470277 1.00000000
20.59481812 7.86851501 -1.41294992 26 19 7329 22.09200000 3179470277 3179470277 -3.66700000
20.60008812 4.56692982 -1.22882640 19 20 7330 21.13600000 3179470279 3179470279 -3.33300000
40.12741852 13.11566162 2.45858288 19 21 7330 42.28800000 3179470279 3179470279 3.33300000
40.47976303 11.06641674 1.70970583 17 22 7331 42.00000000 3179470281 3179470281 2.33300000
20.65819931 6.74814987 -1.01233113 21 23 7331 21.75600000 3179470281 3179470281 -2.66700000
20.62291336 5.63405418 -1.12040818 32 24 7332 21.40800000 3179470284 3179470284 -3.00000000
43.13857269 14.08319378 5.57186651 18 25 7332 45.72000000 3179470284 3179470284 7.00000000
43.30582047 11.82276344 3.66465592 20 26 7333 45.04000000 3179470286 3179470286 4.66700000
20.68147469 7.88508224 -0.90174770 24 27 7333 22.15200000 3179470286 3179470286 -2.33300000
20.67244911 4.56783295 -0.73931092 16 28 7334 21.18400000 3179470288 3179470288 -2.00000000
38.40898132 12.51690197 -0.94001698 5 31 7335 40.40800000 3179470291 3179470291 -1.33300000
5.65746164 1.53497791 -2.73349500 8 0 7342 6.46800000 3179470311 3179470311 -25.00000000
39.51990891 14.99642086 -0.73781794 17 1 7342 42.27600000 3179470311 3179470311 -1.00000000
36.69890594 9.95024109 -1.10660386 7 2 7343 38.04000000 3179470314 3179470314 -1.66700000
8.42723179 2.73329592 -2.48009324 3 3 7343 9.20000000 3179470314 3179470314 -15.63900000
11.13410282 3.01672363 -2.30712390 4 4 7344 11.76400000 3179470316 3179470316 -11.31000000
40.33012772 13.07293224 0.00000000 14 5 7344 42.39600000 3179470316 3179470316 0.00000000
40.03917313 8.77388382 -0.47719127 20 6 7344 40.99200000 3179470318 3179470318 -0.66700000
13.02790833 4.22297096 -2.13066244 2 7 7344 13.86000000 3179470318 3179470318 -8.84300000
15.33179855 4.15119362 -2.02180672 2 8 7345 16.01200000 3179470321 3179470321 -7.25400000
40.28120422 15.26118279 0.25035399 18 9 7345 43.07600000 3179470321 3179470321 0.33300000
40.47974014 10.95259571 -0.24372841 23 10 7346 41.93600000 3179470323 3179470323 -0.33300000
16.47771454 5.33486319 -1.86563063 2 11 7346 17.42000000 3179470323 3179470323 -6.14800000
18.86658669 4.12393045 -1.80274320 6 12 7347 19.39600000 3179470325 3179470325 -5.33300000
40.27659225 13.03227711 0.98505443 13 13 7347 42.34400000 3179470325 3179470325 1.33300000
40.06091690 8.74934292 0.47737753 18 14 7348 41.00800000 3179470327 3179470327 0.66700000
20.60456657 6.66303730 -1.51427352 16 15 7348 21.70800000 3179470327 3179470327 -4.00000000
19.73718452 5.32919645 -1.66894805 7 16 7349 20.51200000 3179470330 3179470330 -4.66700000
40.25677490 15.21979809 1.25252199 17 17 7349 43.05600000 3179470330 3179470330 1.66700000
40.36029053 10.89760017 0.72972000 19 18 7349 41.81200000 3179470332 3179470332 1.00000000
20.59975433 7.78810787 -1.41141498 23 19 7349 22.06800000 3179470332 3179470332 -3.66700000
20.60420036 4.49244213 -1.22812867 13 20 7350 21.12400000 3179470334 3179470334 -3.33300000
40.17675781 12.97673893 2.45881557 12 21 7350 42.29200000 3179470334 3179470334 3.33300000
40.15927124 10.82828426 1.69456267 26 22 7351 41.62800000 3179470337 3179470337 2.33300000
20.65501213 6.66740608 -1.01102829 21 23 7351 21.72800000 3179470337 3179470337 -2.66700000
20.62702751 5.55787516 -1.11957073 29 24 7352 21.39200000 3179470339 3179470339 -3.00000000
43.31971359 13.97518921 5.58892822 18 25 7352 45.86000000 3179470339 3179470339 7.00000000
43.25443649 11.64664936 3.65684485 30 26 7353 44.94400000 3179470341 3179470341 4.66700000
20.67895889 7.80155611 -0.90044504 24 27 7353 22.12000000 3179470341 3179470341 -2.33300000
20.67264366 4.49224901 -0.73875254 16 28 7354 21.16800000 3179470344 3179470344 -2.00000000
38.48669815 12.39378548 -0.94085443 16 31 7355 40.44400000 3179470346 3179470346 -1.33300000
5.65928316 1.51428330 -2.73180437 7 0 7362 6.46400000 3179470367 3179470367 -25.00000000
39.29869080 14.75575256 -0.73272181 17 1 7362 41.98400000 3179470367 3179470367 -1.00000000
36.92654419 9.87371826 -1.11242199 7 2 7363 38.24000000 3179470369 3179470369 -1.66700000
8.43672085 2.70386291 -2.48009324 3 3 7363 9.20000000 3179470369 3179470369 -15.63900000
11.14456558 2.97783995 -2.30712390 4 4 7364 11.76400000 3179470371 3179470371 -11.31000000
40.28409195 12.90279102 0.00000000 14 5 7364 42.30000000 3179470371 3179470371 0.00000000
40.11256409 8.64333534 -0.47770348 20 6 7364 41.03600000 3179470374 3179470374 -0.66700000
13.04633427 4.17867470 -2.13127732 2 7 7364 13.86400000 3179470374 3179470374 -8.84300000
15.35002899 4.09867382 -2.02231193 2 8 7365 16.01600000 3179470376 3179470376 -7.25400000
40.28928375 15.10363388 0.25007501 27 9 7365 43.02800000 3179470376 3179470376 0.33300000
40.44815826 10.79266644 -0.24330996 15 10 7366 41.86400000 3179470378 3179470378 -0.33300000
16.48487282 5.27367735 -1.86434543 2 11 7366 17.40800000 3179470378 3179470378 -6.14800000
18.88865471 4.05972242 -1.80348670 6 12 7367 19.40400000 3179470380 3179470380 -5.33300000
40.26470184 12.87333965 0.98365861 13 13 7367 42.28400000 3179470380 3179470380 1.33300000
40.10685730 8.61281013 0.47756380 28 14 7368 41.02400000 3179470383 3179470383 0.66700000
20.60109329 6.58257198 -1.51232040 18 15 7368 21.68000000 3179470383 3179470383 -4.00000000
19.76722336 5.26334572 -1.66992450 7 16 7369 20.52400000 3179470385 3179470385 -4.66700000
40.25722885 15.05957031 1.25089300 17 17 7369 43.00000000 3179470385 3179470385 1.66700000
40.21257782 10.70725536 0.72636914 18 18 7369 41.62000000 3179470387 3179470387 1.00000000
20.59316635 7.70356607 -1.40911245 26 19 7369 22.03200000 3179470387 3179470387 -3.66700000
20.59632874 4.41547012 -1.22673333 19 20 7370 21.10000000 3179470390 3179470390 -3.33300000
40.20278931 12.83034611 2.45765281 12 21 7370 42.27200000 3179470390 3179470390 3.33300000
40.00370026 10.63668633 1.68642128 17 22 7371 41.42800000 3179470392 3179470392 2.33300000
20.65912628 6.58919525 -1.01009762 21 23 7371 21.70800000 3179470392 3179470392 -2.66700000
20.63085938 5.48173666 -1.11873341 25 24 7372 21.37600000 3179470394 3179470394 -3.00000000
42.80083084 13.64302826 5.51580667 27 25 7372 45.26000000 3179470394 3179470394 7.00000000
20.67985535 7.71954155 -0.89930522 27 27 7373 22.09200000 3179470397 3179470397 -2.33300000
20.66474152 4.41504908 -0.73791498 14 28 7374 21.14400000 3179470399 3179470399 -2.00000000
38.48567200 12.25274658 -0.93983084 16 31 7374 40.40000000 3179470401 3179470401 -1.33300000
5.66102934 1.49359465 -2.73011398 8 0 7382 6.46000000 3179470422 3179470422 -25.00000000
39.37245178 14.62684155 -0.73314071 17 1 7382 42.00800000 3179470422 3179470422 -1.00000000
37.05357361 9.76922417 -1.11521471 7 2 7383 38.33600000 3179470424 3179470424 -1.66700000
8.44978046 2.67555952 -2.48117161 2 3 7383 9.20400000 3179470424 3179470424 -15.63900000
11.16627121 2.94191790 -2.30947733 4 4 7384 11.77600000 3179470427 3179470427 -11.31000000
40.27549362 12.74519920 0.00000000 21 5 7384 42.24400000 3179470427 3179470427 0.00000000
40.17919159 8.50371075 -0.47812256 20 6 7385 41.07200000 3179470429 3179470429 -0.66700000
13.06909847 4.13321304 -2.13250709 2 7 7385 13.87200000 3179470429 3179470429 -8.84300000
15.37191677 4.04708815 -2.02332211 2 8 7385 16.02400000 3179470431 3179470431 -7.25400000
40.30426025 14.94899559 0.24984254 27 9 7385 42.98800000 3179470431 3179470431 0.33300000
40.41209030 10.63207340 -0.24286824 23 10 7386 41.78800000 3179470433 3179470433 -0.33300000
16.51076508 5.21849918 -1.86520219 2 11 7386 17.41600000 3179470433 3179470433 -6.14800000
18.89491844 3.99211764 -1.80274320 6 12 7387 19.39600000 3179470436 3179470436 -5.33300000
40.26363373 12.71825695 0.98254198 13 13 7387 42.23600000 3179470436 3179470436 1.33300000
39.67488480 8.37527561 0.47206920 17 14 7388 40.55200000 3179470438 3179470438 0.66700000
20.58969879 6.49980974 -1.50980914 16 15 7388 21.64400000 3179470438 3179470438 -4.00000000
19.78547478 5.19431353 -1.66992450 5 16 7389 20.52400000 3179470440 3179470440 -4.66700000
40.23830795 14.89258671 1.24868214 16 17 7389 42.92400000 3179470440 3179470440 1.66700000
40.14323425 10.53138065 0.72441447 18 18 7390 41.50800000 3179470443 3179470443 1.00000000
20.59879875 7.61972713 -1.40757751 20 19 7390 22.00800000 3179470443 3179470443 -3.66700000
20.59989357 4.34107828 -1.22603571 19 20 7390 21.08800000 3179470445 3179470445 -3.33300000
40.20543671 12.67672539 2.45509458 12 21 7390 42.22800000 3179470445 3179470445 3.33300000
40.04058456 10.49698162 1.68642128 17 22 7391 41.42800000 3179470447 3179470447 2.33300000
20.65151215 6.50743437 -1.00860858 22 23 7391 21.67600000 3179470447 3179470447 -2.66700000
20.63441277 5.40563917 -1.11789608 25 24 7392 21.36000000 3179470450 3179470450 -3.00000000
43.32533646 13.64380169 5.57722855 27 25 7392 45.76400000 3179470450 3179470450 7.00000000
44.41072845 11.62608624 3.74764752 10 26 7393 46.06000000 3179470452 3179470452 4.66700000
20.67668152 7.63623142 -0.89800262 27 27 7393 22.06000000 3179470452 3179470452 -2.33300000
20.66829109 4.34042406 -0.73749614 14 28 7394 21.13200000 3179470454 3179470454 -2.00000000
38.36799240 12.06793880 -0.93592268 10 31 7394 40.23200000 3179470457 3179470457 -1.33300000
5.66270018 1.47291231 -2.72842360 8 0 7402 6.45600000 3179470477 3179470477 -25.00000000
39.33693314 14.45758438 -0.73153508 17 1 7402 41.91600000 3179470477 3179470477 -1.00000000
37.23062897 9.67703915 -1.11952007 7 2 7403 38.48400000 3179470480 3179470480 -1.66700000
8.45539188 2.64489794 -2.48009324 3 3 7403 9.20000000 3179470480 3179470480 -15.63900000
11.16887951 2.90095043 -2.30790830 4 4 7404 11.76800000 3179470482 3179470482 -11.31000000
40.27392578 12.59021187 0.00000000 14 5 7404 42.19600000 3179470482 3179470482 0.00000000
40.00500488 8.32105255 -0.47570121 20 6 7405 40.86400000 3179470484 3179470484 -0.66700000
13.07967377 4.08638954 -2.13189220 2 7 7405 13.86800000 3179470484 3179470484 -8.84300000
15.38210964 3.99240851 -2.02281690 2 8 7405 16.02000000 3179470486 3179470486 -7.25400000
40.30362320 14.78892612 0.24951708 26 9 7405 42.93200000 3179470486 3179470486 0.33300000
40.42185211 10.48391438 -0.24270551 23 10 7406 41.76000000 3179470489 3179470489 -0.33300000
16.52508354 5.15964890 -1.86477375 2 11 7406 17.41200000 3179470489 3179470489 -6.14800000
18.90873718 3.92613769 -1.80274320 6 12 7407 19.39600000 3179470491 3179470491 -5.33300000
40.24288940 12.55738258 0.98096007 13 13 7407 42.16800000 3179470491 3179470491 1.33300000
39.75870895 8.24810696 0.47272110 27 14 7408 40.60800000 3179470493 3179470493 0.66700000
20.59702492 6.42314672 -1.50869298 14 15 7408 21.62800000 3179470493 3179470493 -4.00000000
19.81506538 5.12821436 -1.67090082 5 16 7409 20.53600000 3179470496 3179470496 -4.66700000
40.25250244 14.73829079 1.24751842 25 17 7409 42.88400000 3179470496 3179470496 1.66700000
40.23214340 10.41223145 0.72539181 18 18 7409 41.56400000 3179470498 3179470498 1.00000000
20.59771538 7.54176998 -1.40578675 12 19 7409 21.98000000 3179470498 3179470498 -3.66700000
20.61101151 4.26833534 -1.22580314 19 20 7410 21.08400000 3179470500 3179470500 -3.33300000
40.23800278 12.53274250 2.45439696 12 21 7410 42.21600000 3179470500 3179470500 3.33300000
40.17759323 10.38315105 1.69065475 26 22 7411 41.53200000 3179470503 3179470503 2.33300000
20.65502739 6.42936993 -1.00767803 22 23 7411 21.65600000 3179470503 3179470503 -2.66700000
20.62994957 5.32758570 -1.11663997 29 24 7412 21.33600000 3179470505 3179470505 -3.00000000
43.38786316 13.49720192 5.57917833 18 25 7412 45.78000000 3179470505 3179470505 7.00000000
20.68068695 7.55578041 -0.89702564 24 27 7413 22.03600000 3179470507 3179470507 -2.33300000
20.66374016 4.26421261 -0.73679817 16 28 7414 21.11200000 3179470510 3179470510 -2.00000000
38.42515564 11.93868160 -0.93629485 10 31 7414 40.24800000 3179470512 3179470512 -1.33300000
5.67834187 1.45583773 -2.73349500 7 0 7422 6.46800000 3179470532 3179470532 -25.00000000
39.48112488 14.35434914 -0.73328030 17 1 7422 42.01600000 3179470532 3179470532 -1.00000000
37.32228088 9.56190586 -1.12126553 7 2 7423 38.54400000 3179470534 3179470534 -1.66700000
8.46457291 2.61536694 -2.48009324 2 3 7423 9.20000000 3179470534 3179470534 -15.63900000
11.18653774 2.86389160 -2.30947733 4 4 7424 11.77600000 3179470537 3179470537 -11.31000000
40.30615997 12.44601250 0.00000000 14 5 7424 42.18400000 3179470537 3179470537 0.00000000
39.88739014 8.15868950 -0.47397834 29 6 7424 40.71600000 3179470539 3179470539 -0.66700000
13.10070610 4.04532576 -2.13312221 2 7 7424 13.87600000 3179470539 3179470539 -8.84300000
15.40748405 3.94164085 -2.02433205 2 8 7425 16.03200000 3179470541 3179470541 -7.25400000
40.29860306 14.62767792 0.24916837 26 9 7425 42.87200000 3179470541 3179470541 0.33300000
40.40007401 10.32789230 -0.24235681 23 10 7426 41.70000000 3179470544 3179470544 -0.33300000
16.54679298 5.10310650 -1.86520219 2 11 7426 17.41600000 3179470544 3179470544 -6.14800000
18.93013191 3.86170220 -1.80348670 6 12 7427 19.40400000 3179470546 3179470546 -5.33300000
40.24826050 12.40505409 0.98002958 13 13 7427 42.12800000 3179470546 3179470546 1.33300000
39.88915634 8.13004208 0.47393179 18 14 7428 40.71200000 3179470548 3179470548 0.66700000
20.60406685 6.34651232 -1.50757694 12 15 7428 21.61200000 3179470548 3179470548 -4.00000000
19.83670807 5.06000090 -1.67122626 7 16 7429 20.54000000 3179470550 3179470550 -4.66700000
40.25107193 14.57863140 1.24588943 25 17 7429 42.82800000 3179470550 3179470550 1.66700000
40.31862259 10.28458214 0.72629935 18 18 7429 41.61600000 3179470553 3179470553 1.00000000
20.59764290 7.46030903 -1.40399587 10 19 7429 21.95200000 3179470553 3179470553 -3.66700000
20.61013222 4.19317865 -1.22487295 22 20 7430 21.06800000 3179470555 3179470555 -3.33300000
40.23188782 12.37694550 2.45137358 12 21 7430 42.16400000 3179470555 3179470555 3.33300000
40.07416153 10.20732784 1.68479288 26 22 7431 41.38800000 3179470557 3179470557 2.33300000
20.65824699 6.35136032 -1.00674736 24 23 7431 21.63600000 3179470557 3179470557 -2.66700000
20.62906647 5.25061464 -1.11559319 29 24 7432 21.31600000 3179470560 3179470560 -3.00000000
43.35122299 13.32001400 5.56845427 27 25 7432 45.69200000 3179470560 3179470560 7.00000000
45.44901657 11.55946922 3.82836127 11 26 7433 47.05200000 3179470562 3179470562 4.66700000
20.68062401 7.47403669 -0.89588583 24 27 7433 22.00800000 3179470562 3179470562 -2.33300000
20.67458153 4.19126225 -0.73665857 16 28 7434 21.10800000 3179470564 3179470564 -2.00000000
38.44366074 11.79744148 -0.93573654 10 31 7434 40.22400000 3179470567 3179470567 -1.33300000
5.67987442 1.43511975 -2.73180437 8 0 7442 6.46400000 3179470587 3179470587 -25.00000000
39.76432419 14.30035973 -0.73760849 17 1 7442 42.26400000 3179470587 3179470587 -1.00000000
37.51824951 9.47267723 -1.12615275 7 2 7443 38.71200000 3179470590 3179470590 -1.66700000
8.47733498 2.58692861 -2.48117161 3 3 7443 9.20400000 3179470590 3179470590 -15.63900000
11.19266319 2.82386637 -2.30869269 2 4 7444 11.77200000 3179470592 3179470592 -11.31000000
40.31492615 12.29474068 0.00000000 14 5 7444 42.14800000 3179470592 3179470592 0.00000000
39.90778351 8.01783085 -0.47388521 29 6 7444 40.70800000 3179470594 3179470594 -0.66700000
13.11474705 3.99957108 -2.13312221 2 7 7444 13.87600000 3179470594 3179470594 -8.84300000
15.40960693 3.88492465 -2.02281690 2 8 7445 16.02000000 3179470597 3179470597 -7.25400000
40.26659393 14.45718479 0.24865691 17 9 7445 42.78400000 3179470597 3179470597 0.33300000
40.30788040 10.15456009 -0.24158964 15 10 7446 41.56800000 3179470599 3179470599 -0.33300000
16.57592010 5.04879236 -1.86648738 2 11 7446 17.42800000 3179470599 3179470599 -6.14800000
18.95911789 3.79872990 -1.80497384 6 12 7447 19.42000000 3179470601 3179470601 -5.33300000
40.34487534 12.28078842 0.98133230 13 13 7447 42.18400000 3179470601 3179470601 1.33300000
40.08201218 8.02372742 0.47588748 18 14 7448 40.88000000 3179470603 3179470603 0.66700000
20.60318947 6.26758385 -1.50590277 11 15 7448 21.58800000 3179470603 3179470603 -4.00000000
19.85038376 4.98975515 -1.67090082 5 16 7449 20.53600000 3179470606 3179470606 -4.66700000
40.23396301 14.41376781 1.24379492 16 17 7449 42.75600000 3179470606 3179470606 1.66700000
40.31936646 10.13500690 0.72567105 18 18 7449 41.58000000 3179470608 3179470608 1.00000000
20.58973694 7.37624788 -1.40169346 20 19 7449 21.91600000 3179470608 3179470608 -3.66700000
20.61289597 4.11886311 -1.22417521 22 20 7450 21.05600000 3179470610 3179470610 -3.33300000
40.29013062 12.24107742 2.45230389 12 21 7450 42.18000000 3179470610 3179470610 3.33300000
40.00100708 10.04013729 1.68023372 26 22 7451 41.27600000 3179470613 3179470613 2.33300000
20.65735245 6.27224541 -1.00563061 24 23 7451 21.61200000 3179470613 3179470613 -2.66700000
20.63176918 5.17468691 -1.11475587 29 24 7452 21.30000000 3179470615 3179470615 -3.00000000
42.52365494 12.90346146 5.45633411 27 25 7452 44.77200000 3179470615 3179470615 7.00000000
20.67647934 7.39103985 -0.89458323 27 27 7453 21.97600000 3179470617 3179470617 -2.33300000
20.67340279 4.11594677 -0.73610020 16 28 7454 21.09200000 3179470620 3179470620 -2.00000000
110.42889404 27.65587616 20.75584793 28 30 7454 115.71600000 3179470622 3179470622 10.33300000
38.51522064 11.67245483 -0.93648100 10 31 7454 40.25600000 3179470622 3179470622 -1.33300000
5.68133116 1.41440868 -2.73011398 8 0 7462 6.46000000 3179470643 3179470643 -25.00000000
37.85761261 9.41791058 -1.13534534 8 2 7463 39.02800000 3179470645 3179470645 -1.66700000
8.49000168 2.55843282 -2.48224998 2 3 7463 9.20800000 3179470645 3179470645 -15.63900000
11.21767807 2.78856444 -2.31183052 4 4 7464 11.78800000 3179470647 3179470647 -11.31000000
40.51079941 12.20007801 0.00000000 21 5 7464 42.30800000 3179470647 3179470647 0.00000000
39.75109482 7.84209299 -0.47169670 19 6 7464 40.52000000 3179470650 3179470650 -0.66700000
13.12862873 3.95376778 -2.13312221 2 7 7464 13.87600000 3179470650 3179470650 -8.84300000
15.43847752 3.83493781 -2.02483726 2 8 7465 16.03600000 3179470652 3179470652 -7.25400000
40.26027298 14.29646301 0.24830820 17 9 7465 42.72400000 3179470652 3179470652 0.33300000
40.44013214 10.03788757 -0.24217083 23 10 7466 41.66800000 3179470654 3179470654 -0.33300000
16.57439995 4.98517370 -1.86434543 2 11 7466 17.40800000 3179470654 3179470654 -6.14800000
19.06214142 3.75020933 -1.81352460 6 12 7467 19.51200000 3179470656 3179470656 -5.33300000
40.44877243 12.15830231 0.98282117 13 13 7467 42.24800000 3179470656 3179470656 1.33300000
39.94101715 7.85059547 0.47388521 27 14 7468 40.70800000 3179470659 3179470659 0.66700000
20.60201263 6.18873930 -1.50422859 16 15 7468 21.56400000 3179470659 3179470659 -4.00000000
19.89476967 4.92714262 -1.67317903 7 16 7469 20.56400000 3179470661 3179470661 -4.66700000
40.24634552 14.25988388 1.24263120 16 17 7469 42.71600000 3179470661 3179470661 1.66700000
40.31353760 9.97659206 0.72490317 18 18 7470 41.53600000 3179470663 3179470663 1.00000000
20.58276939 7.28874063 -1.39939094 25 19 7470 21.88000000 3179470663 3179470663 -3.66700000
20.60755539 4.04304171 -1.22301245 22 20 7470 21.03600000 3179470666 3179470666 -3.33300000
40.27524185 12.08315182 2.44881558 19 21 7470 42.12000000 3179470666 3179470666 3.33300000
39.97373199 9.88509560 1.67762840 17 22 7471 41.21200000 3179470668 3179470668 2.33300000
20.65615654 6.19321442 -1.00451386 22 23 7471 21.58800000 3179470668 3179470668 -2.66700000
20.63031769 5.09784603 -1.11370909 25 24 7472 21.28000000 3179470670 3179470670 -3.00000000
42.66351318 12.78343678 5.46852112 27 25 7472 44.87200000 3179470670 3179470670 7.00000000
20.67577744 7.30949545 -0.89344341 29 27 7473 21.94800000 3179470673 3179470673 -2.33300000
20.66802788 4.03992367 -0.73540217 14 28 7474 21.07200000 3179470675 3179470675 -2.00000000
109.78356934 27.08736229 20.61665726 28 30 7474 114.94000000 3179470677 3179470677 10.33300000
38.62469101 11.55857658 -0.93815589 10 31 7474 40.32800000 3179470677 3179470677 -1.33300000
5.68975496 1.39543211 -2.73180437 6 0 7482 6.46400000 3179470698 3179470698 -25.00000000
39.53873062 13.90827274 -0.73160487 17 1 7482 41.92000000 3179470698 3179470698 -1.00000000
37.97957230 9.30759525 -1.13802171 8 2 7483 39.12000000 3179470700 3179470700 -1.66700000
8.49518776 2.52768302 -2.48117161 2 3 7483 9.20400000 3179470700 3179470700 -15.63900000
11.23496246 2.75125623 -2.31339955 2 4 7484 11.79600000 3179470702 3179470702 -11.31000000
40.52246857 12.04947472 0.00000000 21 5 7484 42.27600000 3179470702 3179470702 0.00000000
39.71281052 7.68342924 -0.47090510 19 6 7485 40.45200000 3179470705 3179470705 -0.66700000
13.14682007 3.90674829 -2.13373709 1 7 7485 13.88000000 3179470705 3179470705 -8.84300000
15.45176983 3.78102398 -2.02483726 2 8 7485 16.03600000 3179470707 3179470707 -7.25400000
40.29861069 14.15186501 0.24823846 26 9 7485 42.71200000 3179470707 3179470707 0.33300000
40.34281921 9.86436272 -0.24138039 23 10 7486 41.53200000 3179470709 3179470709 -0.33300000
16.59932518 4.92955208 -1.86520219 2 11 7486 17.41600000 3179470709 3179470709 -6.14800000
19.08293533 3.68515754 -1.81426823 6 12 7487 19.52000000 3179470712 3179470712 -5.33300000
40.45646286 12.00679588 0.98198366 20 13 7487 42.21200000 3179470712 3179470712 1.33300000
39.86606598 7.69142723 0.47267455 27 14 7488 40.60400000 3179470714 3179470714 0.66700000
20.60818672 6.11224890 -1.50311255 18 15 7488 21.54800000 3179470714 3179470714 -4.00000000
19.91959381 4.85955667 -1.67382991 7 16 7489 20.57200000 3179470716 3179470716 -4.66700000
40.20908737 14.08890152 1.23995495 16 17 7489 42.62400000 3179470716 3179470716 1.66700000
40.25703430 9.82105160 0.72329754 18 18 7489 41.44400000 3179470719 3179470719 1.00000000
20.58798981 7.21384573 -1.39811182 40 19 7489 21.86000000 3179470719 3179470719 -3.66700000
20.60193634 3.96730781 -1.22184968 19 20 7490 21.01600000 3179470721 3179470721 -3.33300000
40.19082642 11.90506458 2.44114113 31 21 7490 41.98800000 3179470721 3179470721 3.33300000
40.07012558 9.76063538 1.68023372 17 22 7491 41.27600000 3179470723 3179470723 2.33300000
20.65466118 6.11426830 -1.00339711 24 23 7491 21.56400000 3179470723 3179470723 -2.66700000
20.62470055 5.02013350 -1.11245310 24 24 7492 21.25600000 3179470726 3179470726 -3.00000000
42.93249512 12.70088482 5.49728251 18 25 7492 45.10800000 3179470726 3179470726 7.00000000
42.07727432 10.23399544 3.53512359 19 26 7493 43.44800000 3179470728 3179470728 4.66700000
20.68230247 7.23068380 -0.89262927 29 27 7493 21.92800000 3179470728 3179470728 -2.33300000
20.67022705 3.96549463 -0.73498338 13 28 7494 21.06000000 3179470730 3179470730 -2.00000000
109.97770691 26.70802116 20.63459396 28 30 7495 115.04000000 3179470732 3179470732 10.33300000
38.66679764 11.41693211 -0.93815589 10 31 7495 40.32800000 3179470732 3179470732 -1.33300000
5.69459105 1.37556267 -2.73180437 7 0 7502 6.46400000 3179470753 3179470753 -25.00000000
39.59081268 13.77148628 -0.73167467 17 1 7502 41.92400000 3179470753 3179470753 -1.00000000
38.12843323 9.20310879 -1.14151251 8 2 7503 39.24000000 3179470755 3179470755 -1.66700000
8.50026417 2.49692822 -2.48009324 2 3 7503 9.20000000 3179470755 3179470755 -15.63900000
11.23305893 2.70926332 -2.31104612 4 4 7504 11.78400000 3179470758 3179470758 -11.31000000
40.50287247 11.88992405 0.00000000 21 5 7504 42.21200000 3179470758 3179470758 0.00000000
39.56256104 7.51118708 -0.46880969 19 6 7505 40.27200000 3179470760 3179470760 -0.66700000
13.16037750 3.86083341 -2.13373709 2 7 7505 13.88000000 3179470760 3179470760 -8.84300000
15.48416138 3.73171258 -2.02736259 2 8 7505 16.05600000 3179470762 3179470762 -7.25400000
40.27975082 13.98749161 0.24782000 26 9 7505 42.64000000 3179470762 3179470762 0.33300000
40.29145432 9.70287704 -0.24086896 23 10 7506 41.44400000 3179470765 3179470765 -0.33300000
16.60879898 4.86934185 -1.86434543 2 11 7506 17.40800000 3179470765 3179470765 -6.14800000
19.08785629 3.61704040 -1.81352460 6 12 7507 19.51200000 3179470767 3179470767 -5.33300000
40.44824219 11.85088634 0.98077399 13 13 7507 42.16000000 3179470767 3179470767 1.33300000
39.87695312 7.54924631 0.47248828 27 14 7508 40.58800000 3179470769 3179470769 0.66700000
20.59493256 6.03018427 -1.50060129 20 15 7508 21.51200000 3179470769 3179470769 -4.00000000
19.94031143 4.79092598 -1.67415535 5 16 7509 20.57600000 3179470772 3179470772 -4.66700000
40.22779846 13.93798733 1.23902404 16 17 7509 42.59200000 3179470772 3179470772 1.66700000
40.03830338 9.61973763 0.71875989 27 18 7509 41.18400000 3179470774 3179470774 1.00000000
20.58664322 7.13278818 -1.39632106 30 19 7509 21.83200000 3179470774 3179470774 -3.66700000
20.60388947 3.89314508 -1.22115195 26 20 7510 21.00400000 3179470776 3179470776 -3.33300000
40.28579330 11.78039074 2.44439697 12 21 7510 42.04400000 3179470776 3179470776 3.33300000
39.97570038 9.58993816 1.67486036 26 22 7511 41.14400000 3179470779 3179470779 2.33300000
20.64136124 6.03204584 -1.00172198 22 23 7511 21.52800000 3179470779 3179470779 -2.66700000
20.62267494 4.94345331 -1.11140633 28 24 7512 21.23600000 3179470781 3179470781 -3.00000000
42.88891602 12.52534676 5.48607016 27 25 7512 45.01600000 3179470781 3179470781 7.00000000
40.51926422 9.70537853 3.40136051 27 26 7513 41.80400000 3179470783 3179470783 4.66700000
20.68852806 7.15191603 -0.89181513 27 27 7513 21.90800000 3179470783 3179470783 -2.33300000
20.65251350 3.88740206 -0.73386663 15 28 7514 21.02800000 3179470785 3179470785 -2.00000000
110.37949371 26.41828346 20.69342613 28 30 7514 115.36800000 3179470788 3179470788 10.33300000
38.59311295 11.25617504 -0.93545741 15 31 7514 40.21200000 3179470788 3179470788 -1.33300000
5.70288467 1.35651529 -2.73349500 7 0 7522 6.46800000 3179470808 3179470808 -25.00000000
39.54031372 13.59938526 -0.72985965 26 1 7522 41.82000000 3179470808 3179470808 -1.00000000
38.18755341 9.07643127 -1.14232707 8 2 7523 39.26800000 3179470811 3179470811 -1.66700000
8.51632690 2.46938705 -2.48224998 2 3 7523 9.20800000 3179470811 3179470811 -15.63900000
11.24626350 2.67094231 -2.31183052 4 4 7524 11.78800000 3179470813 3179470813 -11.31000000
40.50571060 11.73733711 0.00000000 21 5 7524 42.17200000 3179470813 3179470813 0.00000000
39.63836670 7.38948059 -0.46941504 19 6 7524 40.32400000 3179470815 3179470815 -0.66700000
13.19208908 3.82267118 -2.13681149 2 7 7524 13.90000000 3179470815 3179470815 -8.84300000
15.49709320 3.67763996 -2.02736259 2 8 7525 16.05600000 3179470818 3179470818 -7.25400000
40.28293228 13.83121681 0.24754103 17 9 7525 42.59200000 3179470818 3179470818 0.33300000
40.42237854 9.58524704 -0.24145015 23 10 7526 41.54400000 3179470820 3179470820 -0.33300000
16.64097595 4.81575871 -1.86605895 2 11 7526 17.42400000 3179470820 3179470820 -6.14800000
19.10819817 3.55184484 -1.81426823 6 12 7527 19.52000000 3179470822 3179470822 -5.33300000
40.44710541 11.69740295 0.97975039 13 13 7527 42.11600000 3179470822 3179470822 1.33300000
39.88339996 7.40635204 0.47225547 26 14 7528 40.56800000 3179470825 3179470825 0.66700000
20.58902168 5.95050240 -1.49864805 20 15 7528 21.48400000 3179470825 3179470825 -4.00000000
19.94915390 4.71945667 -1.67350447 5 16 7529 20.56800000 3179470827 3179470827 -4.66700000
40.28755188 13.80136871 1.23937309 25 17 7529 42.60400000 3179470827 3179470827 1.66700000
39.91207123 9.44216919 0.71589774 27 18 7529 41.02000000 3179470829 3179470829 1.00000000
20.59630966 7.05570936 -1.39529765 30 19 7529 21.81600000 3179470829 3179470829 -3.66700000
20.59379387 3.81683421 -1.21975660 19 20 7530 20.98000000 3179470832 3179470832 -3.33300000
40.27295685 11.62419224 2.44114113 12 21 7530 41.98800000 3179470832 3179470832 3.33300000
39.90780258 9.42645073 1.67062676 25 22 7531 41.04000000 3179470834 3179470834 2.33300000
20.64693451 5.95552778 -1.00097752 22 23 7531 21.51200000 3179470834 3179470834 -2.66700000
20.62036705 4.86684895 -1.11035967 28 24 7532 21.21600000 3179470836 3179470836 -3.00000000
42.95145035 12.38105869 5.48850775 27 25 7532 45.03600000 3179470836 3179470836 7.00000000
20.67933083 7.06802273 -0.89034963 24 27 7533 21.87200000 3179470838 3179470838 -2.33300000
20.65809441 3.81383610 -0.73358744 15 28 7534 21.02000000 3179470841 3179470841 -2.00000000
96.32618713 22.68180466 18.04307175 28 30 7535 100.59200000 3179470843 3179470843 10.33300000
38.58415222 11.10027599 -0.93424773 10 31 7535 40.16000000 3179470843 3179470843 -1.33300000
5.70758533 1.33660030 -2.73349500 8 0 7542 6.46800000 3179470864 3179470864 -25.00000000
39.59133148 13.46256828 -0.72992945 17 1 7542 41.82400000 3179470864 3179470864 -1.00000000
38.17617798 8.93305588 -1.14104712 16 2 7543 39.22400000 3179470866 3179470866 -1.66700000
8.52859783 2.44070411 -2.48332834 2 3 7543 9.21200000 3179470866 3179470866 -15.63900000
11.26315689 2.63345528 -2.31339955 2 4 7544 11.79600000 3179470868 3179470868 -11.31000000
40.51951218 11.58817577 0.00000000 21 5 7544 42.14400000 3179470868 3179470868 0.00000000
39.69932938 7.25754547 -0.46983412 19 6 7544 40.36000000 3179470871 3179470871 -0.66700000
13.20915318 3.77768564 -2.13742638 2 7 7544 13.90400000 3179470871 3179470871 -8.84300000
15.50597191 3.62261987 -2.02685761 2 8 7545 16.05200000 3179470873 3179470873 -7.25400000
40.27793884 13.67251778 0.24721555 17 9 7545 42.53600000 3179470873 3179470873 0.33300000
40.45169449 9.44317913 -0.24142690 23 10 7546 41.54000000 3179470875 3179470875 -0.33300000
16.66533279 4.75982618 -1.86691570 2 11 7546 17.43200000 3179470875 3179470875 -6.14800000
19.11656189 3.48440909 -1.81389642 6 12 7547 19.51600000 3179470878 3179470878 -5.33300000
40.44539261 11.54407215 0.97872680 13 13 7547 42.07200000 3179470878 3179470878 1.33300000
39.90113831 7.26565504 0.47216234 17 14 7548 40.56000000 3179470880 3179470880 0.66700000
20.59048080 5.87312460 -1.49725294 22 15 7548 21.46400000 3179470880 3179470880 -4.00000000
19.97327232 4.65160084 -1.67415535 7 16 7549 20.57600000 3179470882 3179470882 -4.66700000
40.22944641 13.62474346 1.23611498 16 17 7549 42.49200000 3179470882 3179470882 1.66700000
40.01490021 9.31912136 0.71715426 18 18 7549 41.09200000 3179470885 3179470885 1.00000000
20.58678627 6.97224760 -1.39299524 25 19 7549 21.78000000 3179470885 3179470885 -3.66700000
20.59913445 3.74349713 -1.21929157 19 20 7550 20.97200000 3179470887 3179470887 -3.33300000
40.28256607 11.47479057 2.43928075 18 21 7550 41.95600000 3179470887 3179470887 3.33300000
39.94824982 9.28889942 1.67095244 25 22 7551 41.04800000 3179470889 3179470889 2.33300000
20.63685226 5.87466812 -0.99948853 22 23 7551 21.48000000 3179470889 3179470889 -2.66700000
20.62166595 4.79122448 -1.10952222 31 24 7552 21.20000000 3179470891 3179470891 -3.00000000
43.28080368 12.31252956 5.52506876 18 25 7552 45.33600000 3179470891 3179470891 7.00000000
40.59379959 9.42407036 3.40201139 18 26 7553 41.81200000 3179470894 3179470894 4.66700000
20.67358589 6.98555994 -0.88904703 27 27 7553 21.84000000 3179470894 3179470894 -2.33300000
20.65554810 3.73885465 -0.73302901 15 28 7554 21.00400000 3179470896 3179470896 -2.00000000
96.46227264 22.35875511 18.05383492 28 30 7555 100.65200000 3179470898 3179470898 10.33300000
38.57265472 10.95132637 -0.93303806 15 31 7555 40.10800000 3179470898 3179470898 -1.33300000
5.70161819 1.31422615 -2.72842360 8 0 7562 6.45600000 3179470919 3179470919 -25.00000000
39.64187241 13.32556152 -0.72999924 17 1 7562 41.82800000 3179470919 3179470919 -1.00000000
38.10972214 8.77730751 -1.13813806 8 2 7563 39.12400000 3179470921 3179470921 -1.66700000
8.53335857 2.40987206 -2.48224998 2 3 7563 9.20800000 3179470921 3179470921 -15.63900000
11.26845837 2.59324384 -2.31261516 4 4 7564 11.79200000 3179470924 3179470924 -11.31000000
40.50967026 11.43254185 0.00000000 21 5 7564 42.09200000 3179470924 3179470924 0.00000000
39.75985718 7.12527466 -0.47025320 29 6 7564 40.39600000 3179470926 3179470926 -0.66700000
13.21465111 3.72940707 -2.13619661 2 7 7564 13.89600000 3179470926 3179470926 -8.84300000
15.53012466 3.57113957 -2.02837276 2 8 7565 16.06400000 3179470928 3179470928 -7.25400000
40.26853943 13.51275063 0.24686685 17 9 7565 42.47600000 3179470928 3179470928 0.33300000
40.45712280 9.29564857 -0.24126416 15 10 7566 41.51200000 3179470931 3179470931 -0.33300000
16.67036247 4.69838762 -1.86563063 2 11 7566 17.42000000 3179470931 3179470931 -6.14800000
19.12468719 3.41695809 -1.81352460 6 12 7567 19.51200000 3179470933 3179470933 -5.33300000
40.42770386 11.38655853 0.97733104 13 13 7567 42.01200000 3179470933 3179470933 1.33300000
39.72938156 7.09118986 0.46983412 17 14 7568 40.36000000 3179470935 3179470935 0.66700000
20.58781052 5.79472780 -1.49557877 24 15 7568 21.44000000 3179470935 3179470935 -4.00000000
19.98938751 4.58185291 -1.67415535 7 16 7569 20.57600000 3179470938 3179470938 -4.66700000
40.23126602 13.46900082 1.23471868 16 17 7569 42.44400000 3179470938 3179470938 1.66700000
40.04328537 9.17849255 0.71708447 27 18 7569 41.08800000 3179470940 3179470940 1.00000000
20.57692909 6.88893795 -1.39069271 27 19 7569 21.74400000 3179470940 3179470940 -3.66700000
20.58848763 3.66736841 -1.21789622 19 20 7570 20.94800000 3179470942 3179470942 -3.33300000
40.24933243 11.31357765 2.43486214 18 21 7570 41.88000000 3179470942 3179470942 3.33300000
40.03107834 9.16098785 1.67306924 25 22 7571 41.10000000 3179470944 3179470944 2.33300000
20.64184570 5.79827404 -0.99874401 24 23 7571 21.46400000 3179470944 3179470944 -2.66700000
20.62269020 4.71565056 -1.10868490 31 24 7572 21.18400000 3179470947 3179470947 -3.00000000
43.46495056 12.20107746 5.54310513 27 25 7572 45.48400000 3179470947 3179470947 7.00000000
41.04231262 9.37732983 3.43683529 18 26 7573 42.24000000 3179470949 3179470949 4.66700000
20.67509842 6.90575600 -0.88807005 25 27 7573 21.81600000 3179470949 3179470949 -2.33300000
20.65272903 3.66393733 -0.73247063 15 28 7574 20.98800000 3179470951 3179470951 -2.00000000
96.35173798 21.97901917 18.01867867 28 30 7575 100.45600000 3179470954 3179470954 10.33300000
38.53748322 10.79611969 -0.93127000 15 31 7575 40.03200000 3179470954 3179470954 -1.33300000
5.70263577 1.29351389 -2.72673297 8 0 7582 6.45200000 3179470974 3179470974 -25.00000000
39.87032318 13.24763584 -0.73335010 17 1 7582 42.02000000 3179470974 3179470974 -1.00000000
38.17132187 8.65129662 -1.13906896 16 2 7583 39.15600000 3179470977 3179470977 -1.66700000
8.54171944 2.38007045 -2.48224998 2 3 7583 9.20800000 3179470977 3179470977 -15.63900000
11.28509331 2.55562639 -2.31418395 4 4 7584 11.80000000 3179470979 3179470979 -11.31000000
40.49538422 11.27604485 0.00000000 14 5 7584 42.03600000 3179470979 3179470979 0.00000000
39.57569504 6.94977808 -0.46778530 19 6 7584 40.18400000 3179470981 3179470981 -0.66700000
13.22378063 3.68219638 -2.13558173 2 7 7584 13.89200000 3179470981 3179470981 -8.84300000
15.54249573 3.51690769 -2.02837276 2 8 7585 16.06400000 3179470984 3179470984 -7.25400000
40.26610565 13.35573483 0.24656463 17 9 7585 42.42400000 3179470984 3179470984 0.33300000
40.43860626 9.14290333 -0.24096194 23 10 7586 41.46000000 3179470986 3179470986 -0.33300000
16.68666077 4.64016867 -1.86563063 2 11 7586 17.42000000 3179470986 3179470986 -6.14800000
19.14826775 3.35224009 -1.81464005 6 12 7587 19.52400000 3179470988 3179470988 -5.33300000
40.41711807 11.23145199 0.97612137 13 13 7587 41.96000000 3179470988 3179470988 1.33300000
39.91149139 6.98002720 0.47169670 17 14 7588 40.52000000 3179470990 3179470990 0.66700000
20.58484459 5.71642160 -1.49390459 26 15 7588 21.41600000 3179470990 3179470990 -4.00000000
20.01692581 4.51468039 -1.67513180 5 16 7589 20.58800000 3179470993 3179470993 -4.66700000
40.22109604 13.30964375 1.23297322 24 17 7589 42.38400000 3179470993 3179470993 1.66700000
40.05167389 9.03338051 0.71666563 27 18 7589 41.06400000 3179470995 3179470995 1.00000000
20.57811356 6.80954504 -1.38915777 27 19 7589 21.72000000 3179470995 3179470995 -3.66700000
20.58542824 3.59273243 -1.21696603 19 20 7590 20.93200000 3179470997 3179470997 -3.33300000
40.17698669 11.14206505 2.42811799 31 21 7590 41.76400000 3179470997 3179470997 3.33300000
39.89515305 8.98344421 1.66606760 25 22 7591 40.92800000 3179471000 3179471000 2.33300000
20.64270782 5.72084999 -0.99781340 25 23 7591 21.44400000 3179471000 3179471000 -2.66700000
20.62733269 4.64100504 -1.10805690 31 24 7592 21.17200000 3179471002 3179471002 -3.00000000
43.60675430 12.07683277 5.55577946 18 25 7592 45.58800000 3179471002 3179471002 7.00000000
41.16036987 9.25324631 3.44399548 27 26 7593 42.32800000 3179471004 3179471004 4.66700000
20.67251205 6.82477379 -0.88693023 25 27 7593 21.78800000 3179471004 3179471004 -2.33300000
20.64963722 3.58908534 -0.73191226 15 28 7594 20.97200000 3179471007 3179471007 -2.00000000
96.18598175 21.58826256 17.97347832 28 30 7595 100.20400000 3179471009 3179471009 10.33300000
38.58264160 10.66366291 -0.93145615 15 31 7595 40.04000000 3179471009 3179471009 -1.33300000
5.72082281 1.27875543 -2.73349500 8 0 7600 6.46800000 3179471030 3179471030 -25.00000000
39.69518661 13.05111313 -0.72937095 17 1 7600 41.79200000 3179471030 3179471030 -1.00000000
38.19050980 8.52959156 -1.13883626 16 2 7601 39.14800000 3179471032 3179471032 -1.66700000
8.54544067 2.35220194 -2.48117161 2 3 7601 9.20400000 3179471032 3179471032 -15.63900000
11.29689407 2.52101493 -2.31496859 4 4 7602 11.80400000 3179471034 3179471034 -11.31000000
40.45732880 11.12861347 0.00000000 14 5 7602 41.96000000 3179471034 3179471034 0.00000000
39.55397415 6.81793976 -0.46727309 19 6 7602 40.14000000 3179471037 3179471037 -0.66700000
13.24290562 3.64273095 -2.13681149 2 7 7602 13.90000000 3179471037 3179471037 -8.84300000
15.56121349 3.46978927 -2.02938294 2 8 7603 16.07200000 3179471039 3179471039 -7.25400000
40.26226044 13.21420193 0.24628565 17 9 7603 42.37600000 3179471039 3179471039 0.33300000
40.33048248 8.98537254 -0.24014828 15 10 7604 41.32000000 3179471041 3179471041 -0.33300000
16.71649551 4.59193659 -1.86734414 2 11 7604 17.43600000 3179471041 3179471041 -6.14800000
19.16263008 3.29274201 -1.81501174 6 12 7605 19.52800000 3179471043 3179471043 -5.33300000
40.39821243 11.08960247 0.97481865 20 13 7605 41.90400000 3179471043 3179471043 1.33300000
