# .PCD v0.7 - Point Cloud Data file format
VERSION 0.7
FIELDS x y z intensity laser_id azimuth distance_m adjustedtime timestamp vertical_angle
SIZE 4 4 4 1 1 2 8 8 4 8
TYPE F F F U U U F U U F
COUNT 1 1 1 1 1 1 1 1 1 1
WIDTH 511
HEIGHT 1
VIEWPOINT 0 0 0 1 0 0 0
POINTS 511
DATA ascii
63.34473419 -20.20370102 8.16378403 28 25 10909 66.98800000 3179780162 3179780162 7.00000000
43.22786713 -16.16223717 3.76750064 32 26 10910 46.30400000 3179780164 3179780164 4.66700000
36.91972733 -9.82357979 -1.55648363 7 27 10910 38.23600000 3179780164 3179780164 -2.33300000
39.13942719 -16.86419868 -1.48825419 25 28 10911 42.64400000 3179780166 3179780166 -2.00000000
39.87079239 -12.73972988 -0.97398114 11 31 10912 41.86800000 3179780169 3179780169 -1.33300000
5.67381859 -2.13264823 -2.82647085 7 0 10920 6.68800000 3179780189 3179780189 -25.00000000
39.77849197 -10.65861511 -0.71882969 17 1 10920 41.18800000 3179780189 3179780189 -1.00000000
39.55350876 -14.87506580 -1.22983146 27 2 10921 42.27600000 3179780192 3179780192 -1.66700000
8.86023998 -2.84641790 -2.60517621 2 3 10921 9.66400000 3179780192 3179780192 -15.63900000
11.64455414 -4.38153982 -2.48833609 4 4 10922 12.68800000 3179780194 3179780194 -11.31000000
39.57367706 -12.72095680 0.00000000 13 5 10922 41.56800000 3179780194 3179780194 0.00000000
39.52821732 -17.12177086 -0.50149786 22 6 10922 43.08000000 3179780196 3179780196 -0.66700000
14.11435604 -4.53705931 -2.30652666 4 7 10922 15.00400000 3179780196 3179780196 -8.84300000
16.45468712 -6.19474554 -2.23797798 3 8 10923 17.72400000 3179780199 3179780199 -7.25400000
39.47697067 -10.59998035 0.23756778 17 9 10923 40.87600000 3179780199 3179780199 0.33300000
39.28853607 -14.79890251 -0.24400738 23 10 10924 41.98400000 3179780201 3179780201 -0.33300000
18.14137840 -5.83853340 -2.05283618 3 11 10924 19.16800000 3179780201 3179780201 -6.14800000
20.27829170 -8.79621792 -2.06335831 15 12 10925 22.20000000 3179780203 3179780203 -5.33300000
39.36978912 -12.67816544 0.96244264 19 13 10925 41.37200000 3179780203 3179780203 1.33300000
39.02092361 -16.93439865 0.49521169 31 14 10926 42.54000000 3179780205 3179780205 0.66700000
20.36846352 -6.56313467 -1.49641585 24 15 10926 21.45200000 3179780205 3179780205 -4.00000000
20.34027481 -7.67378092 -1.77472186 34 16 10927 21.81200000 3179780208 3179780208 -4.66700000
39.06744385 -10.51926422 1.17746842 23 17 10927 40.47600000 3179780208 3179780208 1.66700000
39.27546310 -14.81746483 0.73272181 28 18 10927 41.98400000 3179780210 3179780210 1.00000000
20.41357803 -5.49654102 -1.35487652 26 19 10927 21.18400000 3179780210 3179780210 -3.66700000
20.37865639 -8.85243511 -1.29394209 13 20 10928 22.25600000 3179780212 3179780212 -3.33300000
42.95175171 -13.85648251 2.62834883 15 21 10928 45.20800000 3179780212 3179780212 3.33300000
39.56526184 -14.94257641 1.72305775 27 22 10929 42.32800000 3179780215 3179780215 2.33300000
20.43446922 -6.59621525 -1.00023305 19 23 10929 21.49600000 3179780215 3179780215 -2.66700000
20.40209961 -7.70931053 -1.14301729 29 24 10930 21.84000000 3179780217 3179780217 -3.00000000
63.64805603 -20.55776215 8.21253109 56 25 10930 67.38800000 3179780217 3179780217 7.00000000
43.27275467 -16.36004257 3.77661347 32 26 10931 46.41600000 3179780219 3179780219 4.66700000
36.94520950 -9.97550106 -1.55908883 7 27 10931 38.30000000 3179780219 3179780219 -2.33300000
39.13233566 -17.03146744 -1.49034810 25 28 10932 42.70400000 3179780222 3179780222 -2.00000000
39.88090134 -12.90424442 -0.97537696 17 31 10933 41.92800000 3179780224 3179780224 -1.33300000
5.66972876 -2.15372777 -2.82816148 7 0 10940 6.69200000 3179780245 3179780245 -25.00000000
39.79121780 -10.81103516 -0.71973723 17 1 10940 41.24000000 3179780245 3179780245 -1.00000000
39.53498077 -15.02582741 -1.23087871 27 2 10941 42.31200000 3179780247 3179780247 -1.66700000
8.85391331 -2.87851954 -2.60625458 2 3 10941 9.66800000 3179780247 3179780247 -15.63900000
11.64385319 -4.42773676 -2.49147415 4 4 10942 12.70400000 3179780249 3179780249 -11.31000000
39.35405731 -12.80209732 0.00000000 20 5 10942 41.38400000 3179780249 3179780249 0.00000000
39.56348801 -17.30131340 -0.50270855 22 6 10942 43.18400000 3179780252 3179780252 -0.66700000
14.11346722 -4.59119081 -2.30898619 4 7 10942 15.02000000 3179780252 3179780252 -8.84300000
16.45150757 -6.25920010 -2.24050331 3 8 10943 17.74400000 3179780254 3179780254 -7.25400000
39.47060776 -10.74612236 0.23775376 17 9 10943 40.90800000 3179780254 3179780254 0.33300000
39.21047211 -14.92599392 -0.24384466 23 10 10944 41.95600000 3179780256 3179780256 -0.33300000
18.13601303 -5.90674925 -2.05454969 3 11 10944 19.18400000 3179780256 3179780256 -6.14800000
20.26935196 -8.87653446 -2.06558895 12 12 10945 22.22400000 3179780258 3179780258 -5.33300000
39.25685501 -12.79321098 0.96076769 19 13 10945 41.30000000 3179780258 3179780258 1.33300000
39.10078812 -17.13149834 0.49698111 21 14 10946 42.69200000 3179780261 3179780261 0.66700000
20.37957191 -6.64532709 -1.49892712 24 15 10946 21.48800000 3179780261 3179780261 -4.00000000
20.34689140 -7.75751734 -1.77765095 34 16 10947 21.84800000 3179780263 3179780263 -4.66700000
39.07677460 -10.66820717 1.17886484 23 17 10947 40.52400000 3179780263 3179780263 1.66700000
39.23844910 -14.96017075 0.73300105 28 18 10947 42.00000000 3179780265 3179780265 1.00000000
20.40967178 -5.57196951 -1.35589981 26 19 10947 21.20000000 3179780265 3179780265 -3.66700000
20.37688828 -8.93634605 -1.29580247 13 20 10948 22.28800000 3179780268 3179780268 -3.33300000
40.46984482 -13.21195030 2.47928047 26 21 10948 42.64400000 3179780268 3179780268 3.33300000
39.63235092 -15.12619781 1.72826827 27 22 10949 42.45600000 3179780270 3179780270 2.33300000
20.43790627 -6.67618942 -1.00153589 19 23 10949 21.52400000 3179780270 3179780270 -2.66700000
20.40864944 -7.79330540 -1.14490139 29 24 10950 21.87600000 3179780272 3179780272 -3.00000000
63.87780762 -20.87848663 8.25152969 84 25 10950 67.70800000 3179780272 3179780272 7.00000000
43.01800156 -16.43558121 3.75936413 21 26 10951 46.20400000 3179780275 3179780275 4.66700000
37.03737640 -10.13922787 -1.56446218 7 27 10951 38.43200000 3179780275 3179780275 -2.33300000
39.11290359 -17.18564987 -1.49188364 25 28 10952 42.74800000 3179780277 3179780277 -2.00000000
39.89489746 -13.05507851 -0.97677273 17 31 10952 41.98800000 3179780279 3179780279 -1.33300000
5.65879154 -2.17220664 -2.82647085 6 0 10960 6.68800000 3179780300 3179780300 -25.00000000
39.74167252 -10.94668007 -0.71952784 17 1 10960 41.22800000 3179780300 3179780300 -1.00000000
39.50841904 -15.17377281 -1.23169327 18 2 10961 42.34000000 3179780302 3179780302 -1.66700000
8.84747124 -2.91061163 -2.60733294 2 3 10961 9.67200000 3179780302 3179780302 -15.63900000
11.62832642 -4.46835423 -2.49147415 3 4 10962 12.70400000 3179780305 3179780305 -11.31000000
39.60928726 -13.03819275 0.00000000 13 5 10962 41.70000000 3179780305 3179780305 0.00000000
39.55469131 -17.47044373 -0.50340700 33 6 10963 43.24400000 3179780307 3179780307 -0.66700000
14.09654427 -4.64288807 -2.30898619 3 7 10963 15.02000000 3179780307 3179780307 -8.84300000
16.44067001 -6.32086039 -2.24201870 3 8 10963 17.75600000 3179780309 3179780309 -7.25400000
39.45598984 -10.89021969 0.23789325 25 9 10963 40.93200000 3179780309 3179780309 0.33300000
39.12826538 -15.05128479 -0.24365868 15 10 10964 41.92400000 3179780311 3179780311 -0.33300000
18.13039398 -5.97499895 -2.05626345 4 11 10964 19.20000000 3179780311 3179780311 -6.14800000
20.27102661 -8.96172714 -2.06893492 12 12 10965 22.26000000 3179780314 3179780314 -5.33300000
38.86636353 -12.81620407 0.95229989 12 13 10965 40.93600000 3179780314 3179780314 1.33300000
38.82493210 -17.17242432 0.49423382 31 14 10966 42.45600000 3179780316 3179780316 0.66700000
20.37519836 -6.72267580 -1.50032222 26 15 10966 21.50800000 3179780316 3179780316 -4.00000000
20.34201050 -7.83709383 -1.77960372 34 16 10967 21.87200000 3179780318 3179780318 -4.66700000
39.22811508 -10.85680294 1.18456650 23 17 10967 40.72000000 3179780318 3179780318 1.66700000
39.28784561 -15.14416313 0.73495573 19 18 10968 42.11200000 3179780321 3179780321 1.00000000
20.40065384 -5.64993382 -1.35666728 26 19 10968 21.21200000 3179780321 3179780321 -3.66700000
20.36747742 -9.01711941 -1.29719782 16 20 10968 22.31200000 3179780323 3179780323 -3.33300000
40.35902023 -13.33184242 2.47532701 19 21 10968 42.57600000 3179780323 3179780323 3.33300000
39.62032700 -15.28026772 1.73005939 27 22 10969 42.50000000 3179780325 3179780325 2.33300000
20.44482803 -6.75752211 -1.00302494 19 23 10969 21.55600000 3179780325 3179780325 -2.66700000
20.41486168 -7.87743950 -1.14678550 30 24 10970 21.91200000 3179780328 3179780328 -3.00000000
64.17394257 -21.22350121 8.29930210 56 25 10970 68.10000000 3179780328 3179780328 7.00000000
42.48803329 -16.40328789 3.71803093 31 26 10971 45.69600000 3179780330 3179780330 4.66700000
37.14810181 -10.30906296 -1.57064974 7 27 10971 38.58400000 3179780330 3179780330 -2.33300000
39.17326355 -17.37556267 -1.49649036 17 28 10972 42.88000000 3179780332 3179780332 -2.00000000
39.79973602 -13.17791748 -0.97556305 17 31 10972 41.93600000 3179780335 3179780335 -1.33300000
5.65455484 -2.19325733 -2.82816148 6 0 10980 6.69200000 3179780355 3179780355 -25.00000000
39.75714874 -11.10039520 -0.72050512 26 1 10980 41.28400000 3179780355 3179780355 -1.00000000
39.47757721 -15.32026958 -1.23239136 28 2 10981 42.36400000 3179780358 3179780358 -1.66700000
8.84091187 -2.94269371 -2.60841131 2 3 10981 9.67600000 3179780358 3179780358 -15.63900000
11.63094044 -4.51601601 -2.49539638 3 4 10982 12.72400000 3179780360 3179780360 -11.31000000
39.57112122 -13.17890358 0.00000000 13 5 10982 41.70800000 3179780360 3179780360 0.00000000
39.65055084 -17.67844582 -0.50540924 33 6 10983 43.41600000 3179780362 3179780362 -0.66700000
14.09900093 -4.69831371 -2.31206083 3 7 10983 15.04000000 3179780362 3179780362 -8.84300000
16.42960167 -6.38252115 -2.24353385 3 8 10983 17.76800000 3179780364 3179780364 -7.25400000
39.50633240 -11.05266762 0.23842795 17 9 10983 41.02400000 3179780364 3179780364 0.33300000
39.19852066 -15.23559570 -0.24442585 23 10 10984 42.05600000 3179780367 3179780367 -0.33300000
18.12074471 -6.04202318 -2.05754852 4 11 10984 19.21200000 3179780367 3179780367 -6.14800000
20.25780678 -9.04054737 -2.07079387 7 12 10985 22.28000000 3179780369 3179780369 -5.33300000
39.14761734 -13.06063366 0.96030241 19 13 10985 41.28000000 3179780369 3179780369 1.33300000
39.03867340 -17.43014336 0.49772614 32 14 10986 42.75600000 3179780371 3179780371 0.66700000
20.38188744 -6.80386543 -1.50255442 24 15 10986 21.54000000 3179780371 3179780371 -4.00000000
20.34796524 -7.92106915 -1.78253293 31 16 10987 21.90800000 3179780374 3179780374 -4.66700000
39.17073059 -10.98826885 1.18398476 23 17 10987 40.70000000 3179780374 3179780374 1.66700000
39.31194687 -15.30338001 0.73635191 28 18 10987 42.19200000 3179780376 3179780376 1.00000000
20.40870857 -5.72510099 -1.35845816 26 19 10987 21.24000000 3179780376 3179780376 -3.66700000
20.36504364 -9.10119438 -1.29905832 17 20 10988 22.34400000 3179780378 3179780378 -3.33300000
40.59249878 -13.56630611 2.49253607 19 21 10988 42.87200000 3179780378 3179780378 3.33300000
39.64122772 -15.44749832 1.73331594 27 22 10989 42.58000000 3179780381 3179780381 2.33300000
20.44006157 -6.83518219 -1.00395548 19 23 10989 21.57600000 3179780381 3179780381 -2.66700000
20.42073441 -7.96171188 -1.14866960 30 24 10990 21.94800000 3179780383 3179780383 -3.00000000
89.64888763 -29.99609947 11.60732365 28 25 10990 95.24400000 3179780383 3179780383 7.00000000
42.37480164 -16.52976608 3.71314907 31 26 10991 45.63600000 3179780385 3179780385 4.66700000
37.14651489 -10.44841003 -1.57211518 7 27 10991 38.62000000 3179780385 3179780385 -2.33300000
39.17804718 -17.54160309 -1.49900317 25 28 10992 42.95200000 3179780388 3179780388 -2.00000000
39.87862396 -13.35868073 -0.97863376 17 31 10992 42.06800000 3179780390 3179780390 -1.33300000
5.64387512 -2.21067429 -2.82647085 6 0 10999 6.68800000 3179780411 3179780411 -25.00000000
39.80863190 -11.25720406 -0.72211075 26 1 10999 41.37600000 3179780411 3179780411 -1.00000000
39.48611832 -15.47444057 -1.23425317 18 2 11000 42.42800000 3179780413 3179780413 -1.66700000
8.83110523 -2.97199512 -2.60841131 2 3 11000 9.67600000 3179780413 3179780413 -15.63900000
11.61590099 -4.55456066 -2.49539638 3 4 11001 12.72400000 3179780416 3179780416 -11.31000000
39.29217148 -13.23091125 0.00000000 41 5 11001 41.46000000 3179780416 3179780416 0.00000000
39.04397583 -17.55525017 -0.49837804 32 6 11001 42.81200000 3179780418 3179780418 -0.66700000
14.11039162 -4.75141335 -2.31636524 3 7 11001 15.06800000 3179780418 3179780418 -8.84300000
16.43420410 -6.44711256 -2.24706936 3 8 11002 17.79600000 3179780420 3179780420 -7.25400000
39.36555481 -11.15417194 0.23780026 25 9 11002 40.91600000 3179780420 3179780420 0.33300000
39.16267395 -15.37134457 -0.24451883 23 10 11003 42.07200000 3179780423 3179780423 -0.33300000
18.11568260 -6.10716248 -2.05926204 4 11 11003 19.22800000 3179780423 3179780423 -6.14800000
20.26403046 -9.12402630 -2.07451153 7 12 11004 22.32000000 3179780425 3179780425 -5.33300000
39.30112839 -13.25684357 0.96514118 19 13 11004 41.48800000 3179780425 3179780425 1.33300000
38.91501236 -17.52993584 0.49688798 32 14 11005 42.68400000 3179780427 3179780427 0.66700000
20.37811661 -6.87779713 -1.50394952 24 15 11005 21.56000000 3179780427 3179780427 -4.00000000
20.34384918 -7.99725294 -1.78448558 34 16 11006 21.93200000 3179780429 3179780429 -4.66700000
39.09561539 -11.10717678 1.18282115 23 17 11006 40.66000000 3179780429 3179780429 1.66700000
39.25354004 -15.43073273 0.73621231 28 18 11006 42.18400000 3179780432 3179780432 1.00000000
20.40113068 -5.79602003 -1.35922563 26 19 11006 21.25200000 3179780432 3179780432 -3.66700000
20.36387444 -9.18180847 -1.30091870 17 20 11007 22.37600000 3179780434 3179780434 -3.33300000
40.27868652 -13.61008167 2.47602463 19 21 11007 42.58800000 3179780434 3179780434 3.33300000
39.55630875 -15.56569672 1.73185050 27 22 11008 42.54400000 3179780436 3179780436 2.33300000
20.43999481 -6.91060495 -1.00507224 19 23 11008 21.60000000 3179780436 3179780436 -2.66700000
20.41652107 -8.03816605 -1.14992559 30 24 11009 21.97200000 3179780439 3179780439 -3.00000000
89.67679596 -30.33647728 11.62389755 28 25 11009 95.38000000 3179780439 3179780439 7.00000000
42.18251038 -16.61613274 3.70110726 20 26 11010 45.48800000 3179780441 3179780441 4.66700000
37.13856888 -10.57919979 -1.57325494 7 27 11010 38.64800000 3179780441 3179780441 -2.33300000
39.15973663 -17.68952751 -1.50053871 25 28 11011 42.99600000 3179780443 3179780443 -2.00000000
39.86819458 -13.50239468 -0.97947127 17 31 11011 42.10400000 3179780446 3179780446 -1.33300000
5.64247608 -2.23401427 -2.82985187 7 0 11020 6.69600000 3179780466 3179780466 -25.00000000
39.77095032 -11.40413666 -0.72218060 26 1 11020 41.38000000 3179780466 3179780466 -1.00000000
39.44400406 -15.62495041 -1.23471868 28 2 11021 42.44400000 3179780469 3179780469 -1.66700000
8.82015228 -3.00434279 -2.60841131 2 3 11021 9.67600000 3179780469 3179780469 -15.63900000
11.61371517 -4.60288525 -2.49853420 3 4 11022 12.74000000 3179780471 3179780471 -11.31000000
39.46300888 -13.44967747 0.00000000 13 5 11022 41.69200000 3179780471 3179780471 0.00000000
39.03764343 -17.72469330 -0.49912310 33 6 11022 42.87600000 3179780473 3179780473 -0.66700000
14.08539963 -4.80054855 -2.31513548 3 7 11022 15.06000000 3179780473 3179780473 -8.84300000
16.42890549 -6.51461649 -2.24959469 3 8 11023 17.81600000 3179780476 3179780476 -7.25400000
39.43973923 -11.33151531 0.23849769 17 9 11023 41.03600000 3179780476 3179780476 0.33300000
38.92017365 -15.44102573 -0.24335645 23 10 11024 41.87200000 3179780478 3179780478 -0.33300000
18.10823441 -6.17865610 -2.06097555 4 11 11024 19.24400000 3179780478 3179780478 -6.14800000
20.26308250 -9.21307182 -2.07785749 10 12 11025 22.35600000 3179780480 3179780480 -5.33300000
39.28255081 -13.41113663 0.96588558 19 13 11025 41.52000000 3179780480 3179780480 1.33300000
39.00341415 -17.74200630 0.49884370 32 14 11026 42.85200000 3179780482 3179780482 0.66700000
20.37920380 -6.96146965 -1.50590277 24 15 11026 21.58800000 3179780482 3179780482 -4.00000000
20.34403992 -8.08354092 -1.78708923 25 16 11027 21.96400000 3179780485 3179780485 -4.66700000
39.15069580 -11.27806377 1.18573022 23 17 11027 40.76000000 3179780485 3179780485 1.66700000
39.33052063 -15.62766552 0.73872548 29 18 11027 42.32800000 3179780487 3179780487 1.00000000
20.40276527 -5.87738466 -1.36076057 26 19 11027 21.27600000 3179780487 3179780487 -3.66700000
20.36642647 -9.27293110 -1.30324435 14 20 11028 22.41600000 3179780489 3179780489 -3.33300000
40.93887329 -14.00054550 2.51974511 20 21 11028 43.34000000 3179780489 3179780489 3.33300000
39.63640213 -15.76522636 1.73787522 27 22 11029 42.69200000 3179780492 3179780492 2.33300000
20.43343163 -6.99194288 -1.00600290 19 23 11029 21.62000000 3179780492 3179780492 -2.66700000
20.40547943 -8.12032700 -1.15097237 30 24 11030 21.99200000 3179780494 3179780494 -3.00000000
64.55666351 -22.10268784 8.37827396 28 25 11030 68.74800000 3179780494 3179780494 7.00000000
42.55098343 -16.94169617 3.73886037 31 26 11031 45.95200000 3179780496 3179780496 4.66700000
37.26465225 -10.76293564 -1.58025658 7 27 11031 38.82000000 3179780496 3179780496 -2.33300000
39.17101669 -17.86777687 -1.50347030 25 28 11032 43.08000000 3179780499 3179780499 -2.00000000
39.80330658 -13.64324188 -0.97909904 17 31 11032 42.08800000 3179780501 3179780501 -1.33300000
5.64216280 -2.25441980 -2.83323288 6 0 11038 6.70400000 3179780522 3179780522 -25.00000000
39.90008926 -11.57694530 -0.72518241 26 1 11038 41.55200000 3179780522 3179780522 -1.00000000
39.61748123 -15.83784199 -1.24170041 28 2 11039 42.68400000 3179780524 3179780524 -1.66700000
8.82888222 -3.03830433 -2.61380267 5 3 11039 9.69600000 3179780524 3179780524 -15.63900000
11.60283947 -4.64080477 -2.49931884 3 4 11040 12.74400000 3179780526 3179780526 -11.31000000
39.57184219 -13.62567806 0.00000000 14 5 11040 41.85200000 3179780526 3179780526 0.00000000
39.45090103 -18.06203270 -0.50512987 33 6 11040 43.39200000 3179780529 3179780529 -0.66700000
14.08893394 -4.85120916 -2.31820989 3 7 11040 15.08000000 3179780529 3179780529 -8.84300000
16.41941071 -6.57062006 -2.25110984 3 8 11041 17.82800000 3179780531 3179780531 -7.25400000
39.04674149 -11.35151768 0.23633566 25 9 11041 40.66400000 3179780531 3179780531 0.33300000
39.18710709 -15.68959427 -0.24533249 24 10 11042 42.21200000 3179780533 3179780533 -0.33300000
18.12257195 -6.24717903 -2.06483102 3 11 11042 19.28000000 3179780533 3179780533 -6.14800000
20.25938225 -9.28830338 -2.08046007 7 12 11043 22.38400000 3179780535 3179780535 -5.33300000
39.34985733 -13.57229233 0.96858412 19 13 11043 41.63600000 3179780535 3179780535 1.33300000
38.92930603 -17.85611343 0.49861088 21 14 11044 42.83200000 3179780538 3179780538 0.66700000
20.37609291 -7.03196716 -1.50729787 26 15 11044 21.60800000 3179780538 3179780538 -4.00000000
20.33704567 -8.15483189 -1.78871655 40 16 11045 21.98400000 3179780540 3179780540 -4.66700000
38.93465805 -11.34841824 1.18026114 23 17 11045 40.57200000 3179780540 3179780540 1.66700000
39.21166992 -15.73120022 0.73746890 29 18 11046 42.25600000 3179780542 3179780542 1.00000000
20.40232468 -5.95059872 -1.36203980 26 19 11046 21.29600000 3179780542 3179780542 -3.66700000
20.36985588 -9.35186291 -1.30533731 14 20 11046 22.45200000 3179780545 3179780545 -3.33300000
39.65293503 -13.70006561 2.44323421 25 21 11046 42.02400000 3179780545 3179780545 3.33300000
39.98354721 -16.04896927 1.75529790 27 22 11047 43.12000000 3179780547 3179780547 2.33300000
20.44157600 -7.06654549 -1.00749195 19 23 11047 21.65200000 3179780547 3179780547 -2.66700000
20.40210915 -8.19332409 -1.15222836 30 24 11048 22.01600000 3179780549 3179780549 -3.00000000
63.90158844 -22.10293007 8.30222702 28 25 11048 68.12400000 3179780549 3179780549 7.00000000
42.33847809 -17.01137733 3.72486567 21 26 11049 45.78000000 3179780552 3179780552 4.66700000
37.39561462 -10.92815876 -1.58725834 7 27 11049 38.99200000 3179780552 3179780552 -2.33300000
39.14011383 -18.00244141 -1.50444746 25 28 11050 43.10800000 3179780554 3179780554 -2.00000000
39.70356369 -13.74859238 -0.97770327 17 31 11050 42.02800000 3179780556 3179780556 -1.33300000
5.63386202 -2.27508426 -2.83323288 7 0 11059 6.70400000 3179780577 3179780577 -25.00000000
39.94563675 -11.74906540 -0.72678798 26 1 11059 41.64400000 3179780577 3179780577 -1.00000000
39.43682861 -15.93351364 -1.23786044 28 2 11060 42.55200000 3179780579 3179780579 -1.66700000
8.83587551 -3.07697725 -2.61919427 2 3 11060 9.71600000 3179780579 3179780579 -15.63900000
11.59302425 -4.68623972 -2.50088763 3 4 11061 12.75200000 3179780581 3179780581 -11.31000000
39.55941010 -13.78378582 0.00000000 14 5 11061 41.89200000 3179780581 3179780581 0.00000000
39.45386124 -18.24695778 -0.50606120 33 6 11062 43.47200000 3179780584 3179780584 -0.66700000
14.08139992 -4.90917444 -2.32005477 3 7 11062 15.09200000 3179780584 3179780584 -8.84300000
16.40993118 -6.63670683 -2.25313020 3 8 11062 17.84400000 3179780586 3179780586 -7.25400000
39.24659348 -11.56578827 0.23780026 25 9 11062 40.91600000 3179780586 3179780586 0.33300000
39.27394485 -15.89163017 -0.24623916 16 10 11063 42.36800000 3179780588 3179780588 -0.33300000
18.10706329 -6.31617928 -2.06568789 3 11 11063 19.28800000 3179780588 3179780588 -6.14800000
20.25411606 -9.37588024 -2.08343434 13 12 11064 22.41600000 3179780591 3179780591 -5.33300000
39.37158203 -13.74146271 0.97035211 19 13 11064 41.71200000 3179780591 3179780591 1.33300000
38.82367325 -17.98018646 0.49809867 21 14 11065 42.78800000 3179780593 3179780593 0.66700000
20.36901855 -7.11317968 -1.50869298 26 15 11065 21.62800000 3179780593 3179780593 -4.00000000
20.32549477 -8.23680305 -1.79034388 34 16 11066 22.00400000 3179780595 3179780595 -4.66700000
38.98099518 -11.51710129 1.18293750 23 17 11066 40.66400000 3179780595 3179780595 1.66700000
39.24177170 -15.90252686 0.73907453 19 18 11066 42.34800000 3179780598 3179780598 1.00000000
20.39291382 -6.02517319 -1.36280727 26 19 11066 21.30800000 3179780598 3179780598 -3.66700000
20.36442757 -9.43989468 -1.30719769 14 20 11067 22.48400000 3179780600 3179780600 -3.33300000
39.70800400 -13.88220882 2.44974589 19 21 11067 42.13600000 3179780600 3179780600 3.33300000
39.78371811 -16.13831902 1.74911046 27 22 11068 42.96800000 3179780602 3179780602 2.33300000
20.43439484 -7.14801693 -1.00842249 19 23 11068 21.67200000 3179780602 3179780602 -2.66700000
20.39414978 -8.27705956 -1.15348446 30 24 11069 22.04000000 3179780605 3179780605 -3.00000000
63.52036285 -22.23206902 8.26322937 28 25 11069 67.80400000 3179780605 3179780605 7.00000000
43.08848572 -17.49641991 3.79646635 32 26 11070 46.66000000 3179780607 3179780607 4.66700000
37.42428970 -11.08557892 -1.59018922 7 27 11070 39.06400000 3179780607 3179780607 -2.33300000
39.10287476 -18.15924454 -1.50556433 25 28 11071 43.14000000 3179780609 3179780609 -2.00000000
39.69199371 -13.91549397 -0.97872680 17 31 11072 42.07200000 3179780611 3179780611 -1.33300000
5.62588596 -2.29473615 -2.83323288 5 0 11079 6.70400000 3179780632 3179780632 -25.00000000
39.94654465 -11.90099049 -0.72755593 17 1 11079 41.68800000 3179780632 3179780632 -1.00000000
39.42169189 -16.08769417 -1.23914039 18 2 11080 42.59600000 3179780634 3179780634 -1.66700000
8.80691433 -3.10140419 -2.61380267 2 3 11080 9.69600000 3179780634 3179780634 -15.63900000
11.58749008 -4.73112631 -2.50324106 3 4 11081 12.76400000 3179780637 3179780637 -11.31000000
39.49973679 -13.91780281 0.00000000 14 5 11081 41.88000000 3179780637 3179780637 0.00000000
39.55302429 -18.46068954 -0.50815654 22 6 11082 43.65200000 3179780639 3179780639 -0.66700000
14.07536030 -4.96224022 -2.32189941 3 7 11082 15.10400000 3179780639 3179780639 -8.84300000
16.39768600 -6.69844961 -2.25464535 3 8 11082 17.85600000 3179780641 3179780641 -7.25400000
39.23281097 -11.71072292 0.23796299 17 9 11082 40.94400000 3179780641 3179780641 0.33300000
39.11085892 -15.98474026 -0.24556498 24 10 11083 42.25200000 3179780644 3179780644 -0.33300000
18.10365868 -6.38596106 -2.06782985 4 11 11083 19.30800000 3179780644 3179780644 -6.14800000
20.25013161 -9.46000862 -2.08640838 13 12 11084 22.44800000 3179780646 3179780646 -5.33300000
39.25926971 -13.85618591 0.96877021 19 13 11084 41.64400000 3179780646 3179780646 1.33300000
38.70270157 -18.08850098 0.49735364 32 14 11085 42.72400000 3179780648 3179780648 0.66700000
20.36287689 -7.19088078 -1.51008809 28 15 11085 21.64800000 3179780648 3179780648 -4.00000000
20.32982635 -8.32129383 -1.79327297 31 16 11086 22.04000000 3179780651 3179780651 -4.66700000
39.18570328 -11.72646236 1.19038463 23 17 11086 40.92000000 3179780651 3179780651 1.66700000
39.08978653 -16.00001907 0.73725945 19 18 11086 42.24400000 3179780653 3179780653 1.00000000
20.39087868 -6.10204315 -1.36408639 26 19 11086 21.32800000 3179780653 3179780653 -3.66700000
20.36028671 -9.52445889 -1.30905819 17 20 11087 22.51600000 3179780655 3179780655 -3.33300000
39.86637115 -14.09393597 2.46253633 19 21 11087 42.35600000 3179780655 3179780655 3.33300000
39.61619568 -16.23163223 1.74422550 27 22 11088 42.84800000 3179780658 3179780658 2.33300000
20.43568802 -7.22863007 -1.00972533 22 23 11088 21.70000000 3179780658 3179780658 -2.66700000
20.39470100 -8.36031914 -1.15515924 26 24 11089 22.07200000 3179780660 3179780660 -3.00000000
64.19465637 -22.71990967 8.36121178 28 25 11089 68.60800000 3179780660 3179780660 7.00000000
42.87223053 -17.58318329 3.78279710 21 26 11090 46.49200000 3179780662 3179780662 4.66700000
37.50786209 -11.25289822 -1.59539974 7 27 11090 39.19200000 3179780662 3179780662 -2.33300000
39.15507889 -18.34991455 -1.51003146 25 28 11091 43.26800000 3179780664 3179780664 -2.00000000
39.81147766 -14.10580444 -0.98282117 17 31 11091 42.24800000 3179780667 3179780667 -1.33300000
5.62159777 -2.31475997 -2.83492327 7 0 11098 6.70800000 3179780687 3179780687 -25.00000000
39.86091232 -12.01953793 -0.72671819 26 1 11098 41.64000000 3179780687 3179780687 -1.00000000
39.46424484 -16.25793076 -1.24216580 28 2 11099 42.70000000 3179780690 3179780690 -1.66700000
8.80021000 -3.13188338 -2.61488104 2 3 11099 9.70000000 3179780690 3179780690 -15.63900000
11.57173729 -4.76952600 -2.50324106 4 4 11100 12.76400000 3179780692 3179780692 -11.31000000
39.49104691 -14.06212997 0.00000000 14 5 11100 41.92000000 3179780692 3179780692 0.00000000
39.62150192 -18.64446259 -0.50978631 22 6 11100 43.79200000 3179780694 3179780694 -0.66700000
14.07459545 -5.01173782 -2.32435894 3 7 11100 15.12000000 3179780694 3179780694 -8.84300000
16.40106010 -6.76337862 -2.25818086 3 8 11101 17.88400000 3179780697 3179780697 -7.25400000
39.65324402 -11.97957230 0.24075271 25 9 11101 41.42400000 3179780697 3179780697 0.33300000
39.19444656 -16.17079353 -0.24642514 24 10 11102 42.40000000 3179780699 3179780699 -0.33300000
18.10485840 -6.45397234 -2.07040024 3 11 11102 19.33200000 3179780699 3179780699 -6.14800000
20.25467682 -9.54408455 -2.09012628 15 12 11103 22.48800000 3179780701 3179780701 -5.33300000
39.24323654 -13.99704552 0.96951461 19 13 11103 41.67600000 3179780701 3179780701 1.33300000
38.70038986 -18.24403191 0.49809867 21 14 11104 42.78800000 3179780704 3179780704 0.66700000
20.36522675 -7.26775503 -1.51204133 26 15 11104 21.67600000 3179780704 3179780704 -4.00000000
20.33159637 -8.40084362 -1.79587662 31 16 11105 22.07200000 3179780706 3179780706 -4.66700000
39.11981583 -11.84822941 1.18957007 15 17 11105 40.89200000 3179780706 3179780706 1.66700000
39.16588211 -16.18301201 0.73970282 29 18 11105 42.38400000 3179780708 3179780708 1.00000000
20.38963318 -6.17541361 -1.36536551 26 19 11105 21.34800000 3179780708 3179780708 -3.66700000
20.36470604 -9.60896397 -1.31138372 10 20 11106 22.55600000 3179780711 3179780711 -3.33300000
39.58626938 -14.14276409 2.44811797 19 21 11106 42.10800000 3179780711 3179780711 3.33300000
39.46243286 -16.32167244 1.73982918 27 22 11107 42.74000000 3179780713 3179780713 2.33300000
20.42665482 -7.30173731 -1.01046991 19 23 11107 21.71600000 3179780713 3179780713 -2.66700000
20.39639282 -8.44012260 -1.15683401 26 24 11108 22.10400000 3179780715 3179780715 -3.00000000
63.92830658 -22.86447525 8.33635044 56 25 11108 68.40400000 3179780715 3179780715 7.00000000
42.72896576 -17.69017982 3.77531147 32 26 11109 46.40000000 3179780717 3179780717 4.66700000
37.64625931 -11.43063164 -1.60288990 7 27 11109 39.37600000 3179780717 3179780717 -2.33300000
39.15184021 -18.50699043 -1.51226497 25 28 11110 43.33200000 3179780720 3179780720 -2.00000000
39.83729172 -14.27165985 -0.98468220 18 31 11111 42.32800000 3179780722 3179780722 -1.33300000
5.61683083 -2.33576083 -2.83661366 7 0 11118 6.71200000 3179780743 3179780743 -25.00000000
39.76133728 -12.14108562 -0.72567105 26 1 11118 41.58000000 3179780743 3179780743 -1.00000000
39.70257950 -16.51845932 -1.25147474 28 2 11119 43.02000000 3179780745 3179780745 -1.66700000
8.79284859 -3.16388702 -2.61595941 2 3 11119 9.70400000 3179780745 3179780745 -15.63900000
11.55863953 -4.81139708 -2.50402546 4 4 11120 12.76800000 3179780747 3179780747 -11.31000000
39.31752396 -14.15517998 0.00000000 21 5 11120 41.78800000 3179780747 3179780747 0.00000000
39.39720154 -18.70716667 -0.50773746 33 6 11120 43.61600000 3179780750 3179780750 -0.66700000
14.06445312 -5.06351471 -2.32558894 3 7 11120 15.12800000 3179780750 3179780750 -8.84300000
16.39933014 -6.82974052 -2.26121140 3 8 11121 17.90800000 3179780752 3179780752 -7.25400000
39.19808960 -11.99153996 0.23824197 42 9 11121 40.99200000 3179780752 3179780752 0.33300000
39.09714890 -16.29058647 -0.24616942 24 10 11122 42.35600000 3179780754 3179780754 -0.33300000
18.09344482 -6.52117586 -2.07168531 4 11 11122 19.34400000 3179780754 3179780754 -6.14800000
20.25720787 -9.63183022 -2.09384394 18 12 11123 22.52800000 3179780757 3179780757 -5.33300000
39.31451797 -14.17735481 0.97249234 19 13 11123 41.80400000 3179780757 3179780757 1.33300000
38.69064713 -18.40478325 0.49879712 21 14 11124 42.84800000 3179780759 3179780759 0.66700000
20.36600685 -7.34827852 -1.51399446 26 15 11124 21.70400000 3179780759 3179780759 -4.00000000
20.32790375 -8.48251057 -1.79815483 31 16 11125 22.10000000 3179780761 3179780761 -4.66700000
39.02470398 -11.96829796 1.18794107 23 17 11125 40.83600000 3179780761 3179780761 1.66700000
39.07593536 -16.30576515 0.73907453 29 18 11125 42.34800000 3179780764 3179780764 1.00000000
20.39848328 -6.25591230 -1.36741221 26 19 11125 21.38000000 3179780764 3179780764 -3.66700000
20.35627747 -9.69200802 -1.31301165 17 20 11126 22.58400000 3179780766 3179780766 -3.33300000
39.52914810 -14.27814674 2.44765282 19 21 11126 42.10000000 3179780766 3179780766 3.33300000
39.45684814 -16.48088837 1.74210882 27 22 11127 42.79600000 3179780768 3179780768 2.33300000
20.42734718 -7.38250160 -1.01177275 21 23 11127 21.74400000 3179780768 3179780768 -2.66700000
20.39629364 -8.52359009 -1.15850878 26 24 11128 22.13600000 3179780770 3179780770 -3.00000000
63.67262650 -23.02403259 8.31343937 28 25 11128 68.21600000 3179780770 3179780770 7.00000000
42.68534470 -17.84691429 3.77693892 32 26 11129 46.42000000 3179780773 3179780773 4.66700000
37.64433289 -11.57371712 -1.60451818 7 27 11129 39.41600000 3179780773 3179780773 -2.33300000
39.19163513 -18.69345093 -1.51631331 17 28 11130 43.44800000 3179780775 3179780775 -2.00000000
39.83234787 -14.42697239 -0.98579884 18 31 11131 42.37600000 3179780777 3179780777 -1.33300000
5.60530090 -2.35394955 -2.83492327 8 0 11138 6.70800000 3179780798 3179780798 -25.00000000
39.84480286 -12.31878757 -0.72797477 17 1 11138 41.71200000 3179780798 3179780798 -1.00000000
39.52303314 -16.60583687 -1.24763477 28 2 11139 42.88800000 3179780800 3179780800 -1.66700000
8.78899097 -3.19719410 -2.61811590 2 3 11139 9.71200000 3179780800 3179780800 -15.63900000
11.57070065 -4.86387444 -2.51030135 4 4 11140 12.80000000 3179780803 3179780803 -11.31000000
39.30170441 -14.30465031 0.00000000 21 5 11140 41.82400000 3179780803 3179780803 0.00000000
39.39659119 -18.87568283 -0.50857562 34 6 11140 43.68800000 3179780805 3179780805 -0.66700000
14.05412102 -5.11528158 -2.32681870 3 7 11140 15.13600000 3179780805 3179780805 -8.84300000
16.38636208 -6.89155817 -2.26272655 3 8 11141 17.92000000 3179780807 3179780807 -7.25400000
39.07193375 -12.10225773 0.23773052 17 9 11141 40.90400000 3179780807 3179780807 0.33300000
39.08060074 -16.44402695 -0.24642514 24 10 11142 42.40000000 3179780810 3179780810 -0.33300000
18.09672737 -6.59382486 -2.07468414 3 11 11142 19.37200000 3179780810 3179780810 -6.14800000
20.25218964 -9.71626472 -2.09681821 15 12 11143 22.56000000 3179780812 3179780812 -5.33300000
39.30236053 -14.32819843 0.97342283 26 13 11143 41.84400000 3179780812 3179780812 1.33300000
38.80285645 -18.62453270 0.50107878 22 14 11144 43.04400000 3179780814 3179780814 0.66700000
20.36647224 -7.42889595 -1.51594770 28 15 11144 21.73200000 3179780814 3179780814 -4.00000000
20.32756042 -8.56580162 -1.80075848 31 16 11145 22.13200000 3179780817 3179780817 -4.66700000
39.14688492 -12.15543079 1.19294465 23 17 11145 41.00800000 3179780817 3179780817 1.66700000
39.01509476 -16.44051361 0.73900467 29 18 11145 42.34400000 3179780819 3179780819 1.00000000
20.40320778 -6.33536434 -1.36920297 26 19 11145 21.40800000 3179780819 3179780819 -3.66700000
20.37271500 -9.78721428 -1.31626749 21 20 11146 22.64000000 3179780821 3179780821 -3.33300000
39.77164459 -14.52287865 2.46579218 19 21 11146 42.41200000 3179780821 3179780821 3.33300000
39.38434982 -16.61230469 1.74145746 27 22 11147 42.78000000 3179780823 3179780823 2.33300000
20.42772484 -7.46335936 -1.01307559 19 23 11147 21.77200000 3179780823 3179780823 -2.66700000
20.39585686 -8.60715866 -1.16018343 26 24 11148 22.16800000 3179780826 3179780826 -3.00000000
63.40542603 -23.17799759 8.28906536 28 25 11148 68.01600000 3179780826 3179780826 7.00000000
41.87721252 -17.68101501 3.71087098 21 26 11149 45.60800000 3179780828 3179780828 4.66700000
37.74489594 -11.74899960 -1.61054289 7 27 11149 39.56400000 3179780828 3179780828 -2.33300000
39.23781204 -18.88388252 -1.52064085 17 28 11150 43.57200000 3179780830 3179780830 -2.00000000
39.83432007 -14.58517456 -0.98710155 18 31 11151 42.43200000 3179780833 3179780833 -1.33300000
5.60038710 -2.37491655 -2.83661366 7 0 11158 6.71200000 3179780853 3179780853 -25.00000000
39.90843201 -12.49124718 -0.72992945 26 1 11158 41.82400000 3179780853 3179780853 -1.00000000
39.75560379 -16.86706543 -1.25682747 28 2 11159 43.20400000 3179780856 3179780856 -1.66700000
8.78862286 -3.23184228 -2.62135077 2 3 11159 9.72400000 3179780856 3179780856 -15.63900000
11.55365181 -4.90423441 -2.51030135 3 4 11160 12.80000000 3179780858 3179780858 -11.31000000
39.41295242 -14.50114346 0.00000000 21 5 11160 41.99600000 3179780858 3179780858 0.00000000
39.32325745 -19.00960541 -0.50848252 34 6 11160 43.68000000 3179780860 3179780860 -0.66700000
14.05101681 -5.16976738 -2.32927823 2 7 11160 15.15200000 3179780860 3179780860 -8.84300000
16.37316322 -6.95336866 -2.26424170 3 8 11161 17.93200000 3179780863 3179780863 -7.25400000
39.49508667 -12.38458061 0.24056673 17 9 11161 41.39200000 3179780863 3179780863 0.33300000
39.00087357 -16.57095718 -0.24628565 24 10 11162 42.37600000 3179780865 3179780865 -0.33300000
18.09226036 -6.66382694 -2.07682586 3 11 11162 19.39200000 3179780865 3179780865 -6.14800000
20.25399780 -9.80425167 -2.10053587 13 12 11163 22.60000000 3179780867 3179780867 -5.33300000
39.24460220 -14.46253681 0.97323674 19 13 11163 41.83600000 3179780867 3179780867 1.33300000
38.84560394 -18.81216621 0.50247574 33 14 11164 43.16400000 3179780869 3179780869 0.66700000
20.36662483 -7.50960636 -1.51790082 28 15 11164 21.76000000 3179780869 3179780869 -4.00000000
20.32321548 -8.64763165 -1.80303669 31 16 11165 22.16000000 3179780872 3179780872 -4.66700000
39.09658432 -12.28960609 1.19271195 23 17 11165 41.00000000 3179780872 3179780872 1.66700000
39.04947281 -16.61574936 0.74074996 29 18 11165 42.44400000 3179780874 3179780874 1.00000000
20.39620209 -6.41133451 -1.37022638 26 19 11165 21.42400000 3179780874 3179780874 -3.66700000
20.36358070 -9.87046051 -1.31789529 17 20 11166 22.66800000 3179780876 3179780876 -3.33300000
39.61206818 -14.62151814 2.45904803 19 21 11166 42.29600000 3179780876 3179780876 3.33300000
39.50262070 -16.82485390 1.74927330 18 22 11167 42.97200000 3179780879 3179780879 2.33300000
20.43528175 -7.54707861 -1.01475072 19 23 11167 21.80800000 3179780879 3179780879 -2.66700000
20.38773727 -8.68769646 -1.16143954 22 24 11168 22.19200000 3179780881 3179780881 -3.00000000
63.27199554 -23.37991714 8.28224087 28 25 11168 67.96000000 3179780881 3179780881 7.00000000
41.95093155 -17.88493538 3.72291279 31 26 11169 45.75600000 3179780883 3179780883 4.66700000
37.75321198 -11.89629745 -1.61265957 7 27 11169 39.61600000 3179780883 3179780883 -2.33300000
39.19682693 -19.03295708 -1.52161801 26 28 11170 43.60000000 3179780886 3179780886 -2.00000000
39.61439896 -14.66167259 -0.98291421 17 31 11171 42.25200000 3179780888 3179780888 -1.33300000
5.58539820 -2.39159727 -2.83323288 8 0 11178 6.70400000 3179780909 3179780909 -25.00000000
39.75020599 -12.59423828 -0.72783518 26 1 11178 41.70400000 3179780909 3179780909 -1.00000000
39.55315018 -16.94433022 -1.25228930 28 2 11179 43.04800000 3179780911 3179780911 -1.66700000
8.77367783 -3.26115847 -2.62027264 2 3 11179 9.72000000 3179780911 3179780911 -15.63900000
11.54727840 -4.94916964 -2.51265478 3 4 11180 12.81200000 3179780913 3179780913 -11.31000000
39.27961349 -14.60795689 0.00000000 21 5 11180 41.90800000 3179780913 3179780913 0.00000000
39.35372543 -19.19409561 -0.50973976 22 6 11180 43.78800000 3179780916 3179780916 -0.66700000
14.03658962 -5.22016096 -2.32989335 3 7 11180 15.15600000 3179780916 3179780916 -8.84300000
16.36702728 -7.01829815 -2.26676726 3 8 11181 17.95200000 3179780918 3179780918 -7.25400000
39.21524429 -12.44734097 0.23912537 25 9 11181 41.14400000 3179780918 3179780918 0.33300000
39.10085678 -16.77480698 -0.24728531 16 10 11182 42.54800000 3179780920 3179780920 -0.33300000
18.08379745 -6.73249006 -2.07853961 3 11 11182 19.40800000 3179780920 3179780920 -6.14800000
20.24827957 -9.88887310 -2.10351014 13 12 11183 22.63200000 3179780922 3179780922 -5.33300000
39.14891052 -14.58268738 0.97212011 19 13 11183 41.78800000 3179780922 3179780922 1.33300000
38.82641602 -18.97047424 0.50308102 22 14 11184 43.21600000 3179780925 3179780925 0.66700000
20.36646080 -7.59040785 -1.51985407 30 15 11184 21.78800000 3179780925 3179780925 -4.00000000
20.31854820 -8.72953701 -1.80531490 31 16 11185 22.18800000 3179780927 3179780927 -4.66700000
39.29729462 -12.50359058 1.20015907 23 17 11185 41.25600000 3179780927 3179780927 1.66700000
39.05002975 -16.77721596 0.74186689 29 18 11185 42.50800000 3179780929 3179780929 1.00000000
20.39652061 -6.48975325 -1.37176132 26 19 11185 21.44800000 3179780929 3179780929 -3.66700000
20.35411263 -9.95376301 -1.31952322 14 20 11186 22.69600000 3179780932 3179780932 -3.33300000
39.31386185 -14.66757488 2.44369936 19 21 11186 42.03200000 3179780932 3179780932 3.33300000
39.34819031 -16.92158890 1.74503970 27 22 11187 42.86800000 3179780934 3179780934 2.33300000
20.42753029 -7.62535191 -1.01568139 16 23 11187 21.82800000 3179780934 3179780934 -2.66700000
20.39031219 -8.77301884 -1.16332364 22 24 11188 22.22800000 3179780936 3179780936 -3.00000000
41.96880722 -18.06594086 3.73007298 31 26 11189 45.84400000 3179780939 3179780939 4.66700000
37.85995483 -12.07537270 -1.61900997 7 27 11189 39.77200000 3179780939 3179780939 -2.33300000
39.12656021 -19.16790390 -1.52147841 26 28 11190 43.59600000 3179780941 3179780941 -2.00000000
39.56930923 -14.79435825 -0.98300725 17 31 11190 42.25600000 3179780943 3179780943 -1.33300000
5.58367109 -2.41395640 -2.83661366 6 0 11198 6.71200000 3179780964 3179780964 -25.00000000
39.70600510 -12.73291588 -0.72783518 26 1 11198 41.70400000 3179780964 3179780964 -1.00000000
39.67724991 -17.16165733 -1.25810742 28 2 11199 43.24800000 3179780966 3179780966 -1.66700000
8.76945210 -3.29447365 -2.62242913 3 3 11199 9.72800000 3179780966 3179780966 -15.63900000
11.52633190 -4.98788929 -2.51187015 3 4 11200 12.80800000 3179780969 3179780969 -11.31000000
39.13103104 -14.70838833 0.00000000 21 5 11200 41.80400000 3179780969 3179780969 0.00000000
39.36564636 -19.37883568 -0.51081073 23 6 11201 43.88000000 3179780971 3179780971 -0.66700000
14.03216076 -5.27713776 -2.33235288 4 7 11201 15.17200000 3179780971 3179780971 -8.84300000
16.35699463 -7.08169317 -2.26878738 3 8 11201 17.96800000 3179780973 3179780973 -7.25400000
39.38862228 -12.65388775 0.24045049 17 9 11201 41.37200000 3179780973 3179780973 0.33300000
39.13015366 -16.94934845 -0.24784325 24 10 11202 42.64400000 3179780975 3179780975 -0.33300000
18.08624077 -6.80537748 -2.08153820 3 11 11202 19.43600000 3179780975 3179780975 -6.14800000
20.23864555 -9.97181511 -2.10611248 13 12 11203 22.66000000 3179780978 3179780978 -5.33300000
39.31483459 -14.80097198 0.97751713 27 13 11203 42.02000000 3179780978 3179780978 1.33300000
38.92140198 -19.18546677 0.50517642 34 14 11204 43.39600000 3179780980 3179780980 0.66700000
20.35851097 -7.66848660 -1.52124918 30 15 11204 21.80800000 3179780980 3179780980 -4.00000000
20.32452583 -8.81627369 -1.80856955 31 16 11205 22.22800000 3179780982 3179780982 -4.66700000
39.28766251 -12.65171814 1.20120633 24 17 11205 41.29200000 3179780982 3179780982 1.66700000
39.03963852 -16.94252014 0.74284422 29 18 11206 42.56400000 3179780985 3179780985 1.00000000
20.39159584 -6.57058811 -1.37304044 26 19 11206 21.46800000 3179780985 3179780985 -3.66700000
20.35147285 -10.04065228 -1.32161617 17 20 11206 22.73200000 3179780987 3179780987 -3.33300000
40.58885574 -15.30487633 2.52625680 13 21 11206 43.45200000 3179780987 3179780987 3.33300000
39.20456314 -17.02222633 1.74129462 27 22 11207 42.77600000 3179780989 3179780989 2.33300000
20.42321968 -7.70507336 -1.01679814 15 23 11207 21.85200000 3179780989 3179780989 -2.66700000
20.38154602 -8.85369015 -1.16457975 26 24 11208 22.25200000 3179780992 3179780992 -3.00000000
41.77020264 -18.15353394 3.71803093 21 26 11209 45.69600000 3179780994 3179780994 4.66700000
37.84419632 -12.21604919 -1.62014973 7 27 11209 39.80000000 3179780994 3179780994 -2.33300000
39.15617371 -19.35218811 -1.52524757 26 28 11210 43.70400000 3179780996 3179780996 -2.00000000
39.58102036 -14.95642090 -0.98458916 29 31 11210 42.32400000 3179780999 3179780999 -1.33300000
5.58475256 -2.43875766 -2.84168530 7 0 11219 6.72400000 3179781019 3179781019 -25.00000000
39.73134232 -12.90182972 -0.72916156 26 1 11219 41.78000000 3179781019 3179781019 -1.00000000
39.70201492 -17.34538460 -1.26090014 28 2 11220 43.34400000 3179781022 3179781022 -1.66700000
8.76452065 -3.32932901 -2.62458563 2 3 11220 9.73600000 3179781022 3179781022 -15.63900000
11.51516151 -5.03324366 -2.51343918 3 4 11221 12.81600000 3179781024 3179781024 -11.31000000
38.96469116 -14.80907917 0.00000000 20 5 11221 41.68400000 3179781024 3179781024 0.00000000
14.02750206 -5.33415222 -2.33481240 2 7 11222 15.18800000 3179781026 3179781026 -8.84300000
16.36001205 -7.15431547 -2.27282810 3 8 11222 18.00000000 3179781028 3179781028 -7.25400000
39.44468307 -12.83157825 0.24107818 17 9 11222 41.48000000 3179781028 3179781028 0.33300000
39.01646423 -17.07020760 -0.24751778 16 10 11223 42.58800000 3179781031 3179781031 -0.33300000
18.06861115 -6.87444973 -2.08239508 3 11 11223 19.44400000 3179781031 3179781031 -6.14800000
20.24118805 -10.06543255 -2.11020207 13 12 11224 22.70400000 3179781033 3179781033 -5.33300000
39.32385635 -14.96915436 0.97909904 20 13 11224 42.08800000 3179781033 3179781033 1.33300000
38.68251038 -19.24425888 0.50298792 33 14 11225 43.20800000 3179781035 3179781035 0.66700000
20.34891319 -7.75015402 -1.52264428 28 15 11225 21.82800000 3179781035 3179781035 -4.00000000
20.31763840 -8.90190697 -1.81084776 34 16 11226 22.25600000 3179781038 3179781038 -4.66700000
39.29044342 -12.81174374 1.20271909 24 17 11226 41.34400000 3179781038 3179781038 1.66700000
38.95095444 -17.06585121 0.74228573 29 18 11226 42.53200000 3179781040 3179781040 1.00000000
20.38371658 -6.64667797 -1.37406373 26 19 11226 21.48400000 3179781040 3179781040 -3.66700000
20.34670639 -10.13119602 -1.32370925 14 20 11227 22.76800000 3179781042 3179781042 -3.33300000
39.48773956 -15.05521488 2.46114111 12 21 11227 42.33200000 3179781042 3179781042 3.33300000
39.28465652 -17.22840691 1.74764502 18 22 11228 42.93200000 3179781045 3179781045 2.33300000
20.42097473 -7.78984499 -1.01810098 15 23 11228 21.88000000 3179781045 3179781045 -2.66700000
20.38553810 -8.94438267 -1.16667318 26 24 11229 22.29200000 3179781047 3179781047 -3.00000000
41.59022141 -18.25683022 3.70794177 21 26 11230 45.57200000 3179781049 3179781049 4.66700000
37.85235214 -12.37205601 -1.62242937 15 27 11230 39.85600000 3179781049 3179781049 -2.33300000
39.21734238 -19.56159210 -1.53041267 17 28 11231 43.85200000 3179781052 3179781052 -2.00000000
39.49605179 -15.08997440 -0.98384470 23 31 11231 42.29200000 3179781054 3179781054 -1.33300000
5.57620573 -2.45823741 -2.84168530 7 0 11239 6.72400000 3179781075 3179781075 -25.00000000
39.75445557 -13.06291199 -0.73041809 26 1 11239 41.85200000 3179781075 3179781075 -1.00000000
39.60098648 -17.46611595 -1.25962007 28 2 11240 43.30000000 3179781077 3179781077 -1.66700000
8.75284576 -3.35990262 -2.62458563 2 3 11240 9.73600000 3179781077 3179781077 -15.63900000
11.50828743 -5.07815886 -2.51579261 3 4 11241 12.82800000 3179781080 3179781080 -11.31000000
39.02104568 -14.98659134 0.00000000 21 5 11241 41.80000000 3179781080 3179781080 0.00000000
38.65723038 -19.36653900 -0.50336045 22 6 11241 43.24000000 3179781082 3179781082 -0.66700000
14.01342583 -5.38205671 -2.33542752 3 7 11241 15.19200000 3179781082 3179781082 -8.84300000
16.34582901 -7.21618652 -2.27434325 3 8 11242 18.01200000 3179781084 3179781084 -7.25400000
39.24767685 -12.91916180 0.24014828 25 9 11242 41.32000000 3179781084 3179781084 0.33300000
39.02981949 -17.23861885 -0.24798274 24 10 11243 42.66800000 3179781087 3179781087 -0.33300000
18.08162498 -6.95175076 -2.08667898 3 11 11243 19.48400000 3179781087 3179781087 -6.14800000
20.24152946 -10.15388393 -2.11391997 10 12 11244 22.74400000 3179781089 3179781089 -5.33300000
39.12953568 -15.05177212 0.97556305 20 13 11244 41.93600000 3179781089 3179781089 1.33300000
38.63655090 -19.38993263 0.50326729 33 14 11245 43.23200000 3179781091 3179781091 0.66700000
20.34780312 -7.83117008 -1.52459753 26 15 11245 21.85600000 3179781091 3179781091 -4.00000000
20.31925583 -8.98728848 -1.81377685 31 16 11246 22.29200000 3179781093 3179781093 -4.66700000
38.96071243 -12.85485554 1.19399190 23 17 11246 41.04400000 3179781093 3179781093 1.66700000
38.74850082 -17.13861847 0.73956317 29 18 11246 42.37600000 3179781096 3179781096 1.00000000
20.37934494 -6.72404385 -1.37534297 26 19 11246 21.50400000 3179781096 3179781096 -3.66700000
20.35047150 -10.22187328 -1.32626736 17 20 11247 22.81200000 3179781098 3179781098 -3.33300000
40.61989594 -15.64948273 2.53509378 20 21 11247 43.60400000 3179781098 3179781098 3.33300000
39.31564331 -17.40587997 1.75171566 36 22 11248 43.03200000 3179781100 3179781100 2.33300000
20.42721176 -7.87401438 -1.01977611 13 23 11248 21.91600000 3179781100 3179781100 -2.66700000
20.39071465 -9.03166389 -1.16876662 26 24 11249 22.33200000 3179781103 3179781103 -3.00000000
41.62829590 -18.44712257 3.71705461 31 26 11250 45.68400000 3179781105 3179781105 4.66700000
37.93036270 -12.54426765 -1.62763989 7 27 11250 39.98400000 3179781105 3179781105 -2.33300000
39.20238495 -19.72531891 -1.53250670 17 28 11251 43.91200000 3179781107 3179781107 -2.00000000
39.56624603 -15.27527714 -0.98691547 18 31 11251 42.42400000 3179781110 3179781110 -1.33300000
5.56471109 -2.47524190 -2.83999467 7 0 11258 6.72000000 3179781130 3179781130 -25.00000000
