# .PCD v0.7 - Point Cloud Data file format
VERSION 0.7
FIELDS x y z intensity laser_id azimuth distance_m adjustedtime timestamp vertical_angle
SIZE 4 4 4 1 1 2 8 8 4 8
TYPE F F F U U U F U U F
COUNT 1 1 1 1 1 1 1 1 1 1
WIDTH 527
HEIGHT 1
VIEWPOINT 0 0 0 1 0 0 0
POINTS 527
DATA ascii
3.27275515 33.80333328 -1.77984118 14 24 413 34.00800000 3176451066 3176451066 -3.00000000
-0.01147196 10.95490646 -0.44631463 8 27 414 10.96400000 3176451068 3176451068 -2.33300000
3.88777471 26.48788643 -0.93488771 10 28 415 26.78800000 3176451070 3176451070 -2.00000000
2.44871664 50.97940826 -1.18762982 8 31 415 51.05200000 3176451073 3176451073 -1.33300000
0.53631961 5.44047737 -2.54923344 21 0 423 6.03200000 3176451093 3176451093 -25.00000000
0.00574405 10.97032738 -0.19148780 6 1 423 10.97200000 3176451093 3176451093 -1.00000000
3.94987631 39.99642181 -1.16967225 17 2 424 40.20800000 3176451096 3176451096 -1.66700000
0.42903340 8.64847469 -2.42402172 18 3 424 8.99200000 3176451096 3176451096 -15.63900000
1.18473256 11.97522163 -2.40675139 21 4 425 12.27200000 3176451098 3176451098 -11.31000000
4.96259069 99.68454742 0.00000000 28 5 425 99.80800000 3176451098 3176451098 0.00000000
8.99544144 60.55132294 -0.71266711 29 6 425 61.22000000 3176451100 3176451100 -0.66700000
0.70335007 14.12833309 -2.20076227 16 7 425 14.31600000 3176451100 3176451100 -8.84300000
1.68120801 16.96335411 -2.16979313 17 8 426 17.18400000 3176451103 3176451103 -7.25400000
0.01151060 10.99180794 0.06388456 5 9 426 10.99200000 3176451103 3176451103 0.33300000
7.89151382 79.48385620 -0.46423241 28 10 427 79.87600000 3176451105 3176451105 -0.33300000
0.93490654 18.64856720 -2.01128268 15 11 427 18.78000000 3176451105 3176451105 -6.14800000
3.10096192 20.79868126 -1.96297872 22 12 428 21.12000000 3176451107 3176451107 -5.33300000
1.30708754 25.89172363 -1.81283128 30 15 429 25.98800000 3176451110 3176451110 -4.00000000
2.30449748 23.08808899 -1.89416492 18 16 430 23.28000000 3176451112 3176451112 -4.66700000
11.51695251 115.38498688 2.02406025 28 18 430 115.97600000 3176451114 3176451114 1.00000000
0.01911054 10.94951916 -0.70174211 6 19 430 10.97200000 3176451114 3176451114 -3.66700000
3.75415826 25.08970451 -1.47742879 11 20 431 25.41200000 3176451117 3176451117 -3.33300000
1.69227743 33.17684555 -1.54743910 10 23 432 33.25600000 3176451119 3176451119 -2.66700000
3.39432025 33.82747269 -1.78172529 21 24 433 34.04400000 3176451121 3176451121 -3.00000000
0.02683623 10.98285580 -0.44745442 6 27 434 10.99200000 3176451123 3176451123 -2.33300000
6.22676897 41.41701126 -1.46256816 8 28 435 41.90800000 3176451126 3176451126 -2.00000000
2.63265800 50.91418076 -1.18632710 8 31 436 50.99600000 3176451128 3176451128 -1.33300000
0.55582839 5.45309496 -2.55599523 15 0 442 6.04800000 3176451149 3176451149 -25.00000000
0.04232257 11.02223969 -0.19239533 3 1 442 11.02400000 3176451149 3176451149 -1.00000000
4.07923841 39.95128250 -1.16874135 8 2 443 40.17600000 3176451151 3176451151 -1.66700000
0.44976971 8.49698925 -2.38196778 20 3 443 8.83600000 3176451151 3176451151 -15.63900000
1.23281837 12.05316830 -2.42322516 15 4 444 12.35600000 3176451153 3176451153 -11.31000000
5.26555204 99.14827728 0.00000000 28 5 444 99.28800000 3176451153 3176451153 0.00000000
9.17756081 60.39857483 -0.71122360 29 6 444 61.09600000 3176451156 3176451156 -0.66700000
0.77178741 14.53245258 -2.26409793 18 7 444 14.72800000 3176451156 3176451156 -8.84300000
1.75929081 17.17084122 -2.19706702 16 8 445 17.40000000 3176451158 3176451158 -7.25400000
8.07337093 78.66144562 -0.45958290 28 10 446 79.07600000 3176451160 3176451160 -0.33300000
0.99546850 18.62153816 -2.00871229 16 11 446 18.75600000 3176451160 3176451160 -6.14800000
3.22094655 21.12294388 -1.99457967 9 12 447 21.46000000 3176451163 3176451163 -5.33300000
1.38522208 25.74380493 -1.80278635 15 15 448 25.84400000 3176451165 3176451165 -4.00000000
2.38554811 23.12394142 -1.89774501 9 16 449 23.32400000 3176451167 3176451167 -4.66700000
0.05574362 11.01326370 -0.70583540 3 19 449 11.03600000 3176451170 3176451170 -3.66700000
3.74552703 24.47712898 -1.44208026 7 20 450 24.80400000 3176451172 3176451172 -3.33300000
3.51512933 33.89946747 -1.78612149 14 24 452 34.12800000 3176451176 3176451176 -3.00000000
0.06341768 11.01068306 -0.44859424 2 27 453 11.02000000 3176451179 3176451179 -2.33300000
6.36529303 41.40403748 -1.46284735 8 28 454 41.91600000 3176451181 3176451181 -2.00000000
2.80148101 50.90517044 -1.18632710 8 31 455 50.99600000 3176451183 3176451183 -1.33300000
0.58930743 5.58812094 -2.62023330 13 0 462 6.20000000 3176451204 3176451204 -25.00000000
5.27291727 49.91702271 -1.46081030 12 2 463 50.21600000 3176451206 3176451206 -1.66700000
0.47552040 8.42614365 -2.36255836 22 3 463 8.76400000 3176451206 3176451206 -15.63900000
1.21875465 11.51831722 -2.31653738 11 4 464 11.81200000 3176451209 3176451209 -11.31000000
0.79749107 14.08770275 -2.19522810 14 7 464 14.28000000 3176451211 3176451211 -8.84300000
1.80290723 17.01070595 -2.17736936 13 8 465 17.24400000 3176451213 3176451213 -7.25400000
0.86246943 109.81076050 0.63824111 28 9 465 109.81600000 3176451213 3176451213 0.33300000
8.39012909 79.03054810 -0.46190766 28 10 466 79.47600000 3176451216 3176451216 -0.33300000
1.06362998 18.67353630 -2.01470971 13 11 466 18.81200000 3176451216 3176451216 -6.14800000
3.25474310 20.85579300 -1.97041428 14 12 467 21.20000000 3176451218 3176451218 -5.33300000
1.48854625 25.97385216 -1.81924880 15 15 468 26.08000000 3176451220 3176451220 -4.00000000
2.46413636 23.09565353 -1.89611769 28 16 469 23.30400000 3176451223 3176451223 -4.66700000
1.56633854 183.14775085 5.33031654 28 17 469 183.23200000 3176451223 3176451223 1.66700000
0.24517912 28.66813469 -1.83737218 8 19 469 28.72800000 3176451225 3176451225 -3.66700000
3.83279872 24.47574043 -1.44277799 11 20 470 24.81600000 3176451227 3176451227 -3.33300000
3.61257195 33.69237518 -1.77586365 20 24 472 33.93200000 3176451232 3176451232 -3.00000000
0.33431774 36.14047241 -1.47246373 12 27 473 36.17200000 3176451234 3176451234 -2.33300000
6.48369026 41.21570587 -1.45698416 8 28 474 41.74800000 3176451236 3176451236 -2.00000000
2.97167850 50.76733398 -1.18334937 8 31 475 50.86800000 3176451239 3176451239 -1.33300000
0.60488218 5.54999065 -2.60332847 12 0 482 6.16000000 3176451259 3176451259 -25.00000000
0.65369499 60.40726089 -1.05447435 28 1 482 60.42000000 3176451259 3176451259 -1.00000000
5.42413139 49.68765259 -1.45464301 12 2 483 50.00400000 3176451262 3176451262 -1.66700000
0.50516069 8.42827702 -2.36363673 25 3 483 8.76800000 3176451262 3176451262 -15.63900000
1.28112280 11.71674538 -2.35732985 16 4 484 12.02000000 3176451264 3176451264 -11.31000000
9.47330475 59.54302216 -0.70191073 29 6 484 60.29600000 3176451266 3176451266 -0.66700000
0.84571284 14.06905270 -2.19276834 14 7 484 14.26400000 3176451266 3176451266 -8.84300000
1.85190713 16.90964317 -2.16524744 13 8 485 17.14800000 3176451269 3176451269 -7.25400000
1.24441397 109.68708801 0.63754368 28 9 485 109.69600000 3176451269 3176451269 0.33300000
8.53509998 77.80795288 -0.45493335 28 10 486 78.27600000 3176451271 3176451271 -0.33300000
1.12352586 18.58237648 -2.00528502 16 11 486 18.72400000 3176451271 3176451271 -6.14800000
3.32752371 20.84430504 -1.97041428 19 12 487 21.20000000 3176451273 3176451273 -5.33300000
1.56830347 25.78926659 -1.80669272 9 15 488 25.90000000 3176451275 3176451275 -4.00000000
2.52770543 22.93236351 -1.88342488 12 16 489 23.14800000 3176451278 3176451278 -4.66700000
0.32746169 27.19024086 -1.74271500 11 19 489 27.24800000 3176451280 3176451280 -3.66700000
3.91884327 24.46615601 -1.44301045 11 20 490 24.82000000 3176451282 3176451282 -3.33300000
2.10965228 34.39399719 -1.60513759 10 23 491 34.49600000 3176451285 3176451285 -2.66700000
3.09915781 27.98226357 -1.47545528 10 24 492 28.19200000 3176451287 3176451287 -3.00000000
0.46016398 36.11510468 -1.47148681 12 27 493 36.14800000 3176451289 3176451289 -2.33300000
6.59894514 41.01521683 -1.45070231 8 28 494 41.56800000 3176451292 3176451292 -2.00000000
3.24940157 52.37709808 -1.22112870 9 31 495 52.49200000 3176451294 3176451294 -1.33300000
0.62141407 5.52262831 -2.59149528 14 0 502 6.13200000 3176451315 3176451315 -25.00000000
0.88303894 61.69628143 -1.07702291 28 1 502 61.71200000 3176451315 3176451315 -1.00000000
5.57515240 49.46975708 -1.44882500 12 2 503 49.80400000 3176451317 3176451317 -1.66700000
0.53896755 8.49565792 -2.38304615 21 3 503 8.84000000 3176451317 3176451317 -15.63900000
1.36908746 12.12924194 -2.44126797 15 4 504 12.44800000 3176451319 3176451319 -11.31000000
0.91363764 14.36185074 -2.23888659 14 7 504 14.56400000 3176451322 3176451322 -8.84300000
1.90423536 16.84393311 -2.15767145 13 8 505 17.08800000 3176451324 3176451324 -7.25400000
1.62580228 109.58209229 0.63696247 28 9 505 109.59600000 3176451324 3176451324 0.33300000
8.71664238 76.98278046 -0.45028383 28 10 506 77.47600000 3176451326 3176451326 -0.33300000
1.20945513 18.90775871 -2.04084134 13 11 506 19.05600000 3176451326 3176451326 -6.14800000
3.39128160 20.77753258 -1.96520936 15 12 507 21.14400000 3176451328 3176451328 -5.33300000
1.61452043 25.10270882 -1.75897920 16 15 508 25.21600000 3176451331 3176451331 -4.00000000
2.61720181 23.00658607 -1.89025939 9 16 509 23.23200000 3176451333 3176451333 -4.66700000
0.41995320 27.03326988 -1.73273766 11 19 509 27.09200000 3176451335 3176451335 -3.66700000
4.00809431 24.47597122 -1.44440579 23 20 510 24.84400000 3176451338 3176451338 -3.33300000
2.24831223 34.67350769 -1.61853862 26 23 511 34.78400000 3176451340 3176451340 -2.66700000
3.67670035 32.17014313 -1.69694102 18 24 512 32.42400000 3176451342 3176451342 -3.00000000
0.58421546 35.98939896 -1.46643913 19 27 513 36.02400000 3176451345 3176451345 -2.33300000
6.73234320 40.93276215 -1.44860828 8 28 514 41.50800000 3176451347 3176451347 -2.00000000
3.40142226 52.03483200 -1.21340537 18 31 514 52.16000000 3176451349 3176451349 -1.33300000
0.64737475 5.57804251 -2.61854267 15 0 522 6.19600000 3176451370 3176451370 -25.00000000
1.10052967 61.81278610 -1.07911718 28 1 522 61.83200000 3176451370 3176451370 -1.00000000
5.72148705 49.22361755 -1.44219232 12 2 523 49.57600000 3176451372 3176451372 -1.66700000
0.56939155 8.50525475 -2.38628101 21 3 523 8.85200000 3176451372 3176451372 -15.63900000
1.35563266 11.64517975 -2.34477830 13 4 524 11.95600000 3176451375 3176451375 -11.31000000
9.86630440 59.27643585 -0.69958252 29 6 525 60.09600000 3176451377 3176451377 -0.66700000
0.94238555 14.00348759 -2.18354464 14 7 525 14.20400000 3176451377 3176451377 -8.84300000
1.95566785 16.77412224 -2.14959025 15 8 525 17.02400000 3176451379 3176451379 -7.25400000
2.00280786 109.27580261 0.63521892 28 9 525 109.29600000 3176451379 3176451379 0.33300000
8.93891907 76.55458832 -0.44795907 28 10 526 77.07600000 3176451381 3176451381 -0.33300000
1.28963768 19.11372375 -2.06354594 14 11 526 19.26800000 3176451381 3176451381 -6.14800000
3.44871688 20.67521477 -1.95665848 6 12 527 21.05200000 3176451384 3176451384 -5.33300000
1.71536577 25.29199409 -1.77265155 48 15 528 25.41200000 3176451386 3176451386 -4.00000000
2.74997616 23.44474411 -1.92703617 16 16 529 23.68400000 3176451388 3176451388 -4.66700000
3.27139783 171.94006348 5.00485182 28 17 529 172.04400000 3176451388 3176451388 1.66700000
20.73529816 176.51118469 3.10220003 28 18 530 177.75200000 3176451391 3176451391 1.00000000
0.51520067 26.83199692 -1.71994615 11 19 530 26.89200000 3176451391 3176451391 -3.66700000
4.09482479 24.46970940 -1.44487095 11 20 530 24.85200000 3176451393 3176451393 -3.33300000
2.36633444 34.62159729 -1.61649120 11 23 531 34.74000000 3176451395 3176451395 -2.66700000
3.17710924 26.96421051 -1.42290998 14 24 532 27.18800000 3176451398 3176451398 -3.00000000
0.71291226 36.14298248 -1.47278941 19 27 533 36.18000000 3176451400 3176451400 -2.33300000
6.84735775 40.74343872 -1.44274521 8 28 534 41.34000000 3176451402 3176451402 -2.00000000
3.56957316 51.82715607 -1.20884585 27 31 534 51.96400000 3176451405 3176451405 -1.33300000
0.67157727 5.61534405 -2.63713789 14 0 542 6.24000000 3176451425 3176451425 -25.00000000
1.32846665 62.38035202 -1.08910000 28 1 542 62.40400000 3176451425 3176451425 -1.00000000
5.86094093 48.93339157 -1.43427968 11 2 543 49.30400000 3176451428 3176451428 -1.66700000
0.59474564 8.44173717 -2.36902833 13 3 543 8.78800000 3176451428 3176451428 -15.63900000
1.42617047 11.88961887 -2.39498425 21 4 544 12.21200000 3176451430 3176451430 -11.31000000
0.99656498 14.07502174 -2.19522810 17 7 545 14.28000000 3176451432 3176451432 -8.84300000
1.93659341 16.12108994 -2.06675839 11 8 545 16.36800000 3176451434 3176451434 -7.25400000
2.35675311 108.00846863 0.62789589 28 9 545 108.03600000 3176451434 3176451434 0.33300000
9.15831280 76.12578583 -0.44563431 28 10 546 76.67600000 3176451437 3176451437 -0.33300000
1.33804679 18.85124969 -2.03570080 17 11 546 19.00800000 3176451437 3176451437 -6.14800000
3.55297709 20.85150337 -1.97450376 23 12 547 21.24400000 3176451439 3176451439 -5.33300000
1.82606924 25.60028458 -1.79469454 43 15 548 25.72800000 3176451441 3176451441 -4.00000000
2.77727485 22.98379517 -1.88993394 12 16 549 23.22800000 3176451444 3176451444 -4.66700000
0.61253357 27.20128441 -1.74373841 15 19 549 27.26400000 3176451446 3176451446 -3.66700000
4.18492508 24.48281860 -1.44649887 3 20 550 24.88000000 3176451448 3176451448 -3.33300000
2.48144460 34.53342056 -1.61276877 11 23 551 34.66000000 3176451451 3176451451 -2.66700000
3.26639986 26.91330147 -1.42081654 61 24 552 27.14800000 3176451453 3176451453 -3.00000000
0.86513776 37.26303864 -1.51854444 13 27 553 37.30400000 3176451455 3176451455 -2.33300000
6.96180868 40.55775070 -1.43702173 8 28 554 41.17600000 3176451458 3176451458 -2.00000000
3.76778364 52.05368805 -1.21442902 27 31 554 52.20400000 3176451460 3176451460 -1.33300000
0.69028831 5.60576916 -2.63375711 14 0 562 6.23200000 3176451481 3176451481 -25.00000000
1.51270759 61.02395630 -1.06550431 28 1 562 61.05200000 3176451481 3176451481 -1.00000000
6.01556587 48.78168106 -1.43043971 11 2 563 49.17200000 3176451483 3176451483 -1.66700000
0.61852682 8.36278152 -2.34746218 18 3 563 8.70800000 3176451483 3176451483 -15.63900000
1.49122000 12.07531261 -2.43342328 13 4 564 12.40800000 3176451486 3176451486 -11.31000000
1.07187176 14.45792007 -2.25548911 16 7 564 14.67200000 3176451488 3176451488 -8.84300000
2.12386107 17.17354965 -2.20262289 25 8 565 17.44400000 3176451490 3176451490 -7.25400000
2.68315029 106.00025940 0.61627209 28 9 565 106.03600000 3176451490 3176451490 0.33300000
9.39940453 75.89487457 -0.44447193 28 10 566 76.47600000 3176451493 3176451493 -0.33300000
1.40650058 18.88215828 -2.03955626 19 11 566 19.04400000 3176451493 3176451493 -6.14800000
3.46667504 19.92474365 -1.88787997 6 12 567 20.31200000 3176451495 3176451495 -5.33300000
1.94341254 25.96779251 -1.82092297 12 15 568 26.10400000 3176451497 3176451497 -4.00000000
3.12074709 25.09055710 -2.06405401 10 16 569 25.36800000 3176451499 3176451499 -4.66700000
0.70841420 27.23489380 -1.74604082 15 19 569 27.30000000 3176451502 3176451502 -3.66700000
5.44436646 31.19481277 -1.84416974 5 20 570 31.72000000 3176451504 3176451504 -3.33300000
2.59927082 34.48868561 -1.61109364 10 23 571 34.62400000 3176451506 3176451506 -2.66700000
3.37616849 27.02857399 -1.42751551 14 24 572 27.27600000 3176451509 3176451509 -3.00000000
0.96105665 35.98130798 -1.46643913 19 27 573 36.02400000 3176451511 3176451511 -2.33300000
7.07987785 40.39932632 -1.43227530 8 28 574 41.04000000 3176451513 3176451513 -2.00000000
3.94825149 52.02426910 -1.21405673 18 31 574 52.18800000 3176451516 3176451516 -1.33300000
0.72215354 5.70043087 -2.67939973 11 0 582 6.34000000 3176451536 3176451536 -25.00000000
1.71824944 60.75444794 -1.06089687 28 1 582 60.78800000 3176451536 3176451536 -1.00000000
3.52489972 27.78544617 -0.81511676 12 2 583 28.02000000 3176451539 3176451539 -1.66700000
0.64890468 8.37593269 -2.35177541 15 3 583 8.72400000 3176451539 3176451539 -15.63900000
1.53978765 12.12061787 -2.44362140 13 4 584 12.46000000 3176451541 3176451541 -11.31000000
10.32624722 58.32492447 -0.68957120 27 6 584 59.23600000 3176451543 3176451543 -0.66700000
1.12386262 14.47379303 -2.25856376 14 7 584 14.69200000 3176451543 3176451543 -8.84300000
2.07412958 16.30398941 -2.09201193 17 8 585 16.56800000 3176451546 3176451546 -7.25400000
1.47920680 18.96436310 -2.04898071 17 11 586 19.13200000 3176451548 3176451548 -6.14800000
1.96765673 25.11352158 -1.76149046 8 15 588 25.25200000 3176451552 3176451552 -4.00000000
2.94069839 22.98757362 -1.89188671 21 16 589 23.25200000 3176451555 3176451555 -4.66700000
0.79535431 26.95694160 -1.72838855 11 19 589 27.02400000 3176451557 3176451557 -3.66700000
5.55322313 31.17561722 -1.84416974 5 20 590 31.72000000 3176451559 3176451559 -3.33300000
2.80761671 35.59472656 -1.66320848 27 23 591 35.74400000 3176451562 3176451562 -2.66700000
3.43944955 26.77494621 -1.41474557 14 24 592 27.03200000 3176451564 3176451564 -3.00000000
1.09292328 36.18546677 -1.47490621 13 27 593 36.23200000 3176451566 3176451566 -2.33300000
7.20607519 40.29172897 -1.42934382 8 28 594 40.95600000 3176451569 3176451569 -2.00000000
4.26751852 53.74424362 -1.25453460 9 31 594 53.92800000 3176451571 3176451571 -1.33300000
0.71676624 5.50375223 -2.58811426 15 0 602 6.12400000 3176451592 3176451592 -25.00000000
1.93450320 60.87999344 -1.06320059 28 1 602 60.92000000 3176451592 3176451592 -1.00000000
0.67502886 8.33522320 -2.34099245 24 3 603 8.68400000 3176451594 3176451594 -15.63900000
1.58056343 12.10350132 -2.44126797 13 4 604 12.44800000 3176451596 3176451596 -11.31000000
10.54115295 58.35150146 -0.69031626 27 6 604 59.30000000 3176451599 3176451599 -0.66700000
1.16670525 14.37523365 -2.24380589 14 7 604 14.59600000 3176451599 3176451599 -8.84300000
2.24473119 17.16617203 -2.20363307 12 8 605 17.45200000 3176451601 3176451601 -7.25400000
1.55218089 19.04232407 -2.05797696 14 11 606 19.21600000 3176451603 3176451603 -6.14800000
3.63906336 20.08424377 -1.90535343 10 12 607 20.50000000 3176451605 3176451605 -5.33300000
3.04742599 23.17875862 -1.90848505 12 16 609 23.45600000 3176451610 3176451610 -4.66700000
0.90487140 27.27700424 -1.74911082 11 19 610 27.34800000 3176451612 3176451612 -3.66700000
5.65630054 31.12461281 -1.84230936 5 20 610 31.68800000 3176451615 3176451615 -3.33300000
2.94005084 35.68426514 -1.66786158 11 23 611 35.84400000 3176451617 3176451617 -2.66700000
3.53236794 26.75881577 -1.41453624 14 24 612 27.02800000 3176451619 3176451619 -3.00000000
1.26431918 37.51956177 -1.52945399 20 27 613 37.57200000 3176451622 3176451622 -2.33300000
7.31869221 40.11295700 -1.42389941 7 28 614 40.80000000 3176451624 3176451624 -2.00000000
4.46038246 53.79278183 -1.25602341 19 31 614 53.99200000 3176451626 3176451626 -1.33300000
0.72876287 5.44731808 -2.56275725 14 0 622 6.06400000 3176451647 3176451647 -25.00000000
2.14756608 60.88885880 -1.06347978 28 1 622 60.93600000 3176451647 3176451647 -1.00000000
6.44006538 48.07402039 -1.41158903 11 2 623 48.52400000 3176451649 3176451649 -1.66700000
0.70152551 8.30211067 -2.33236599 18 3 623 8.65200000 3176451649 3176451649 -15.63900000
1.62019563 12.07847214 -2.43734574 13 4 624 12.42800000 3176451651 3176451651 -11.31000000
10.68240547 57.91913223 -0.68565983 27 6 625 58.90000000 3176451654 3176451654 -0.66700000
1.22773945 14.46931839 -2.25917864 16 7 625 14.69600000 3176451654 3176451654 -8.84300000
2.28667927 17.02452278 -2.18646049 16 8 625 17.31600000 3176451656 3176451656 -7.25400000
3.74751425 104.69518280 0.60887933 28 9 625 104.76400000 3176451656 3176451656 0.33300000
1.59505606 18.75940132 -2.02798963 13 11 626 18.93600000 3176451658 3176451658 -6.14800000
3.76342845 20.36514664 -1.93323660 18 12 627 20.80000000 3176451661 3176451661 -5.33300000
9.94125652 116.67755890 2.72485805 28 13 627 117.13200000 3176451661 3176451661 1.33300000
2.15107942 25.19459152 -1.76818705 11 15 628 25.34800000 3176451663 3176451663 -4.00000000
3.12191463 23.12056923 -1.90457964 9 16 629 23.40800000 3176451665 3176451665 -4.66700000
0.97508484 26.71936035 -1.71355045 15 19 629 26.79200000 3176451668 3176451668 -3.66700000
5.72197676 30.87302399 -1.82858849 5 20 630 31.45200000 3176451670 3176451670 -3.33300000
3.04578471 35.45483017 -1.65762472 11 23 631 35.62400000 3176451672 3176451672 -2.66700000
3.61663008 26.67903137 -1.41097736 14 24 632 26.96000000 3176451675 3176451675 -3.00000000
1.37775087 37.04363632 -1.51024008 20 27 633 37.10000000 3176451677 3176451677 -2.33300000
7.44696808 40.02428436 -1.42166591 7 28 634 40.73600000 3176451679 3176451679 -2.00000000
4.66406870 53.85176849 -1.25779152 9 31 635 54.06800000 3176451681 3176451681 -1.33300000
0.75171912 5.47347355 -2.57628083 15 0 642 6.09600000 3176451702 3176451702 -25.00000000
2.28635168 58.97871017 -1.03025043 26 1 642 59.03200000 3176451702 3176451702 -1.00000000
6.58713675 47.90073013 -1.40716732 11 2 643 48.37200000 3176451704 3176451704 -1.66700000
0.73759323 8.38018990 -2.35501027 23 3 643 8.73600000 3176451704 3176451704 -15.63900000
1.66930294 12.12325668 -2.44754386 13 4 644 12.48000000 3176451707 3176451707 -11.31000000
10.79950905 57.42944717 -0.68030488 26 6 645 58.44000000 3176451709 3176451709 -0.66700000
1.25666857 14.22084427 -2.22105432 14 7 645 14.44800000 3176451709 3176451709 -8.84300000
2.34446597 17.00464439 -2.18494534 13 8 645 17.30400000 3176451711 3176451711 -7.25400000
4.28835583 109.14594269 0.63484699 28 9 645 109.23200000 3176451711 3176451711 0.33300000
1.67035031 18.86464119 -2.03998446 14 11 646 19.04800000 3176451714 3176451714 -6.14800000
3.85145354 20.44190407 -1.94178748 20 12 647 20.89200000 3176451716 3176451716 -5.33300000
10.30712986 116.17610168 2.71397090 28 13 647 116.66400000 3176451716 3176451716 1.33300000
19.55624580 103.69689941 1.22850680 28 14 648 105.53200000 3176451718 3176451718 0.66700000
2.41426039 27.15832329 -1.90658391 13 15 648 27.33200000 3176451718 3176451718 -4.00000000
3.20479035 23.12532616 -1.90588140 9 16 649 23.42400000 3176451721 3176451721 -4.66700000
1.06643283 26.66793060 -1.71048045 11 19 649 26.74400000 3176451723 3176451723 -3.66700000
5.83563995 30.88425255 -1.83044899 5 20 650 31.48400000 3176451725 3176451725 -3.33300000
3.17486477 35.50367737 -1.66041660 11 23 651 35.68400000 3176451728 3176451728 -2.66700000
3.84348392 27.62765312 -1.46184790 34 24 652 27.93200000 3176451730 3176451730 -3.00000000
1.51159859 37.15041733 -1.51479936 20 27 653 37.21200000 3176451732 3176451732 -2.33300000
7.55609035 39.83701706 -1.41594243 7 28 654 40.57200000 3176451734 3176451734 -2.00000000
4.84548807 53.86787033 -1.25853586 9 31 654 54.10000000 3176451737 3176451737 -1.33300000
0.77132630 5.47440577 -2.57797146 14 0 662 6.10000000 3176451757 3176451757 -25.00000000
2.49575806 59.05428314 -1.03171647 26 1 662 59.11600000 3176451757 3176451757 -1.00000000
6.73363590 47.73095703 -1.40286195 11 2 663 48.22400000 3176451760 3176451760 -1.66700000
0.76859665 8.39674377 -2.36040187 28 3 663 8.75600000 3176451760 3176451760 -15.63900000
1.64687681 11.65907097 -2.35497642 13 4 664 12.00800000 3176451762 3176451762 -11.31000000
10.98688412 57.37760544 -0.68011862 26 6 664 58.42400000 3176451764 3176451764 -0.66700000
1.31284392 14.31499672 -2.23642683 18 7 664 14.54800000 3176451764 3176451764 -8.84300000
2.29656553 16.23808098 -2.08746624 19 8 665 16.53200000 3176451767 3176451767 -7.25400000
1.72415853 18.72800827 -2.02584767 10 11 666 18.91600000 3176451769 3176451769 -6.14800000
3.76806712 19.62262344 -1.86520159 12 12 667 20.06800000 3176451771 3176451771 -5.33300000
10.68725300 115.86465454 2.70755029 28 13 667 116.38800000 3176451771 3176451771 1.33300000
19.90073204 103.53766632 1.22743583 28 14 668 105.44000000 3176451774 3176451774 0.66700000
2.49435830 26.99079704 -1.89542294 9 15 668 27.17200000 3176451774 3176451774 -4.00000000
3.26192927 22.94822121 -1.89221215 31 16 669 23.25600000 3176451776 3176451776 -4.66700000
1.18969059 27.35796547 -1.75499487 11 19 669 27.44000000 3176451778 3176451778 -3.66700000
5.93510437 30.82056046 -1.82789087 5 20 670 31.44000000 3176451781 3176451781 -3.33300000
3.28435516 35.33721542 -1.65315771 11 23 671 35.52800000 3176451783 3176451783 -2.66700000
3.79546046 26.60172462 -1.40825593 13 24 672 26.90800000 3176451785 3176451785 -3.00000000
7.68296289 39.74759674 -1.41370881 7 28 674 40.50800000 3176451790 3176451790 -2.00000000
5.03394270 53.75419235 -1.25630260 9 31 675 54.00400000 3176451792 3176451792 -1.33300000
0.78524774 5.43580008 -2.56106663 28 0 682 6.06000000 3176451813 3176451813 -25.00000000
2.68816948 58.74557114 -1.02648079 26 1 682 58.81600000 3176451813 3176451813 -1.00000000
3.82499027 26.44550133 -0.77764815 3 2 683 26.73200000 3176451815 3176451815 -1.66700000
0.79206997 8.33265495 -2.34314895 19 3 683 8.69200000 3176451815 3176451815 -15.63900000
1.69262385 11.68818855 -2.36203671 13 4 684 12.04400000 3176451817 3176451817 -11.31000000
11.10591412 56.92277908 -0.67518282 26 6 684 58.00000000 3176451820 3176451820 -0.66700000
1.38603640 14.55427551 -2.27455139 17 7 684 14.79600000 3176451820 3176451820 -8.84300000
2.45173526 16.90932274 -2.17484379 19 8 685 17.22400000 3176451822 3176451822 -7.25400000
1.77741170 18.59518814 -2.01213932 16 11 686 18.78800000 3176451824 3176451824 -6.14800000
3.87401056 19.80087090 -1.88341856 21 12 687 20.26400000 3176451827 3176451827 -5.33300000
2.67124915 27.84385490 -1.95597148 24 15 688 28.04000000 3176451829 3176451829 -4.00000000
3.36615634 23.10238838 -1.90588140 12 16 689 23.42400000 3176451831 3176451831 -4.66700000
1.25595474 26.73160934 -1.71508539 11 19 689 26.81600000 3176451834 3176451834 -3.66700000
6.01036310 30.63507652 -1.81812346 5 20 690 31.27200000 3176451836 3176451836 -3.33300000
3.39847708 35.23008347 -1.64869082 11 23 691 35.43200000 3176451838 3176451838 -2.66700000
3.87442231 26.49345398 -1.40323162 18 24 692 26.81200000 3176451840 3176451840 -3.00000000
1.74255478 36.54412842 -1.49053776 13 27 693 36.61600000 3176451843 3176451843 -2.33300000
7.79076672 39.56364822 -1.40812492 7 28 694 40.34800000 3176451845 3176451845 -2.00000000
5.19757032 53.48952103 -1.25053334 9 31 695 53.75600000 3176451847 3176451847 -1.33300000
0.81695747 5.51909399 -2.60163808 12 0 702 6.15600000 3176451868 3176451868 -25.00000000
2.91387343 59.15525436 -1.03381073 26 1 702 59.23600000 3176451868 3176451868 -1.00000000
0.82493043 8.36817265 -2.35393214 24 3 703 8.73200000 3176451870 3176451870 -15.63900000
1.75183511 11.80636406 -2.38713956 13 4 704 12.17200000 3176451873 3176451873 -11.31000000
8.81511402 89.26178741 0.00000000 28 5 704 89.69600000 3176451873 3176451873 0.00000000
11.24607182 56.58943939 -0.67169052 25 6 704 57.70000000 3176451875 3176451875 -0.66700000
1.43877399 14.56901550 -2.27762580 15 7 704 14.81600000 3176451875 3176451875 -8.84300000
2.53056955 17.03410912 -2.19201636 18 8 705 17.36000000 3176451877 3176451877 -7.25400000
10.81011486 72.67922211 -0.42705941 28 10 706 73.48000000 3176451880 3176451880 -0.33300000
1.83799565 18.54533768 -2.00742698 15 11 706 18.74400000 3176451880 3176451880 -6.14800000
3.74618316 18.79903793 -1.78935921 6 12 707 19.25200000 3176451882 3176451882 -5.33300000
11.50338078 115.86283112 2.70931840 28 13 707 116.46400000 3176451882 3176451882 1.33300000
2.75302386 27.67950439 -1.94508946 10 15 708 27.88400000 3176451884 3176451884 -4.00000000
3.47797346 23.29948044 -1.92313063 13 16 709 23.63600000 3176451887 3176451887 -4.66700000
1.37602568 27.25729752 -1.74911082 15 19 709 27.34800000 3176451889 3176451889 -3.66700000
6.11491537 30.60216331 -1.81742585 5 20 710 31.26000000 3176451891 3176451891 -3.33300000
3.38149738 33.81850815 -1.58317494 10 23 711 34.02400000 3176451893 3176451893 -2.66700000
3.96687818 26.47976875 -1.40323162 4 24 712 26.81200000 3176451896 3176451896 -3.00000000
1.90422404 37.20439529 -1.51773024 20 27 713 37.28400000 3176451898 3176451898 -2.33300000
7.91703176 39.47742081 -1.40603089 23 28 714 40.28800000 3176451900 3176451900 -2.00000000
4.04970741 40.21768188 -0.94057530 5 31 715 40.43200000 3176451903 3176451903 -1.33300000
0.84436804 5.56997252 -2.62699509 17 0 722 6.21600000 3176451923 3176451923 -25.00000000
3.15637684 59.82767105 -1.04574823 27 1 722 59.92000000 3176451923 3176451923 -1.00000000
0.85257071 8.34991455 -2.34961891 24 3 723 8.71600000 3176451926 3176451926 -15.63900000
1.79951787 11.84283257 -2.39576888 15 4 724 12.21600000 3176451928 3176451928 -11.31000000
11.41577148 56.41262817 -0.67006075 25 6 724 57.56000000 3176451930 3176451930 -0.66700000
1.47634912 14.43415070 -2.25733399 14 7 724 14.68400000 3176451930 3176451930 -8.84300000
2.58344984 16.98202133 -2.18646049 13 8 725 17.31600000 3176451933 3176451933 -7.25400000
1.90962243 18.60606384 -2.01470971 13 11 726 18.81200000 3176451935 3176451935 -6.14800000
3.81098938 18.78194237 -1.78898740 22 12 727 19.24800000 3176451937 3176451937 -5.33300000
2.75765038 26.77664185 -1.88230872 6 15 728 26.98400000 3176451939 3176451939 -4.00000000
3.52615333 23.07044411 -1.90523052 15 16 729 23.41600000 3176451942 3176451942 -4.66700000
1.47525132 27.32806206 -1.75397158 11 19 729 27.42400000 3176451944 3176451944 -3.66700000
6.23682594 30.65497971 -1.82184434 5 20 730 31.33600000 3176451946 3176451946 -3.33300000
3.50693107 33.87804031 -1.58652520 10 23 731 34.09600000 3176451949 3176451949 -2.66700000
4.06413031 26.49734688 -1.40490639 13 24 732 26.84400000 3176451951 3176451951 -3.00000000
2.03146124 37.14963531 -1.51577628 20 27 733 37.23600000 3176451953 3176451953 -2.33300000
8.02199650 39.28895569 -1.40030742 7 28 734 40.12400000 3176451956 3176451956 -2.00000000
5.52775669 53.03828430 -1.24085593 9 31 735 53.34000000 3176451958 3176451958 -1.33300000
0.85324436 5.49892664 -2.59487605 14 0 742 6.14000000 3176451979 3176451979 -25.00000000
3.35351348 59.60864639 -1.04211807 27 1 742 59.71200000 3176451979 3176451979 -1.00000000
7.28770494 46.91321945 -1.38168395 11 2 743 47.49600000 3176451981 3176451981 -1.66700000
0.88333076 8.36221027 -2.35393214 23 3 743 8.73200000 3176451981 3176451981 -15.63900000
1.77635026 11.42177582 -2.31183052 11 4 744 11.78800000 3176451983 3176451983 -11.31000000
11.56016445 56.11780167 -0.66703409 24 6 744 57.30000000 3176451986 3176451986 -0.66700000
1.50884151 14.25989723 -2.23089266 14 7 744 14.51200000 3176451986 3176451986 -8.84300000
2.64210176 16.96897888 -2.18595552 15 8 745 17.31200000 3176451988 3176451988 -7.25400000
11.19402981 71.81154633 -0.42240989 28 10 746 72.68000000 3176451990 3176451990 -0.33300000
1.98085582 18.65860748 -2.02113557 15 11 746 18.87200000 3176451990 3176451990 -6.14800000
3.87652731 18.76852608 -1.78898740 18 12 747 19.24800000 3176451992 3176451992 -5.33300000
2.85067892 26.76288414 -1.88202965 16 15 748 26.98000000 3176451995 3176451995 -4.00000000
3.61035943 23.08162880 -1.90718329 9 16 749 23.44000000 3176451997 3176451997 -4.66700000
1.54406083 26.86046028 -1.72429526 11 19 749 26.96000000 3176451999 3176451999 -3.66700000
6.29277802 30.38667488 -1.80719328 5 20 750 31.08400000 3176452002 3176452002 -3.33300000
3.63707399 33.97683334 -1.59173667 7 23 751 34.20800000 3176452004 3176452004 -2.66700000
5.38357258 34.30043793 -1.81961656 7 24 752 34.76800000 3176452006 3176452006 -3.00000000
2.11376595 36.32836914 -1.48255920 19 27 753 36.42000000 3176452009 3176452009 -2.33300000
8.12167645 39.08067322 -1.39388585 7 28 754 39.94000000 3176452011 3176452011 -2.00000000
5.68051100 52.80496216 -1.23583102 9 31 754 53.12400000 3176452013 3176452013 -1.33300000
0.87221688 5.50696039 -2.59994745 14 0 760 6.15200000 3176452034 3176452034 -25.00000000
3.53649330 59.52595520 -1.04086149 27 1 760 59.64000000 3176452034 3176452034 -1.00000000
7.41626596 46.77162552 -1.37819314 11 2 761 47.37600000 3176452036 3176452036 -1.66700000
0.90918034 8.35556412 -2.35285378 20 3 761 8.72800000 3176452036 3176452036 -15.63900000
1.82759738 11.51298428 -2.33144236 30 4 762 11.88800000 3176452039 3176452039 -11.31000000
11.69289589 55.82469940 -0.66400737 24 6 763 57.04000000 3176452041 3176452041 -0.66700000
1.55354726 14.23124027 -2.22720337 14 7 763 14.48800000 3176452041 3176452041 -8.84300000
2.70411730 17.01545715 -2.19302654 15 8 763 17.36800000 3176452043 3176452043 -7.25400000
11.38815212 71.57850647 -0.42124751 28 10 764 72.48000000 3176452045 3176452045 -0.33300000
2.03081822 18.57322311 -2.01256776 13 11 764 18.79200000 3176452045 3176452045 -6.14800000
3.93792462 18.76794815 -1.79010272 14 12 765 19.26000000 3176452048 3176452048 -5.33300000
2.89558387 26.39681435 -1.85691738 9 15 766 26.62000000 3176452050 3176452050 -4.00000000
3.53516316 22.14500237 -1.83070064 9 16 767 22.50000000 3176452052 3176452052 -4.66700000
1.60380602 26.37307358 -1.69333982 14 19 768 26.47600000 3176452055 3176452055 -3.66700000
6.38245487 30.33940315 -1.80556548 5 20 768 31.05600000 3176452057 3176452057 -3.33300000
3.84098196 34.84693909 -1.63305628 7 23 769 35.09600000 3176452059 3176452059 -2.66700000
5.50330734 34.35829544 -1.82359409 7 24 770 34.84400000 3176452062 3176452062 -3.00000000
2.26948118 36.99971008 -1.51024008 20 27 771 37.10000000 3176452064 3176452064 -2.33300000
8.23532867 39.01194000 -1.39235032 7 28 772 39.89600000 3176452066 3176452066 -2.00000000
5.80675602 52.42913818 -1.22745633 9 31 772 52.76400000 3176452069 3176452069 -1.33300000
0.90109849 5.55740404 -2.62530470 14 0 781 6.21200000 3176452089 3176452089 -25.00000000
3.73953390 59.27310562 -1.03667295 27 1 781 59.40000000 3176452089 3176452089 -1.00000000
7.55561113 46.54679871 -1.37237501 11 2 782 47.17600000 3176452092 3176452092 -1.66700000
0.94582874 8.40576458 -2.36794996 22 3 782 8.78400000 3176452092 3176452092 -15.63900000
1.90753031 11.73850060 -2.37851048 16 4 783 12.12800000 3176452094 3176452094 -11.31000000
11.89659023 55.77755356 -0.66396081 24 6 784 57.03600000 3176452096 3176452096 -0.66700000
1.59239745 14.10762501 -2.20875597 18 7 784 14.36800000 3176452096 3176452096 -8.84300000
2.78812671 17.13859367 -2.21019888 12 8 784 17.50400000 3176452098 3176452098 -7.25400000
2.08368897 18.43129349 -1.99800253 16 11 785 18.65600000 3176452101 3176452101 -6.14800000
4.01084709 18.77286339 -1.79196167 8 12 786 19.28000000 3176452103 3176452103 -5.33300000
2.99141431 26.37809563 -1.85635924 9 15 787 26.61200000 3176452105 3176452105 -4.00000000
3.60216117 22.04533768 -1.82354057 9 16 788 22.41200000 3176452108 3176452108 -4.66700000
1.73018765 26.90111351 -1.72762108 11 19 788 27.01200000 3176452110 3176452110 -3.66700000
6.45597458 30.14009666 -1.79510045 5 20 789 30.87600000 3176452112 3176452112 -3.33300000
3.88499689 34.09818268 -1.59862328 18 23 790 34.35600000 3176452115 3176452115 -2.66700000
5.60464334 34.18810272 -1.81563902 7 24 791 34.69200000 3176452117 3176452117 -3.00000000
2.35995722 36.29718781 -1.48190784 19 27 792 36.40400000 3176452119 3176452119 -2.33300000
8.36985970 38.94241333 -1.39095438 7 28 793 39.85600000 3176452122 3176452122 -2.00000000
5.97250271 52.17707062 -1.22205925 9 31 793 52.53200000 3176452124 3176452124 -1.33300000
0.92662770 5.59730387 -2.64559031 15 0 800 6.26000000 3176452145 3176452145 -25.00000000
3.95303369 59.51577759 -1.04114079 27 1 800 59.65600000 3176452145 3176452145 -1.00000000
7.68573666 46.37553787 -1.36806965 11 2 801 47.02800000 3176452147 3176452147 -1.66700000
0.96571696 8.33370781 -2.34854054 27 3 801 8.71200000 3176452147 3176452147 -15.63900000
1.96121132 11.82110786 -2.39655328 15 4 802 12.22000000 3176452150 3176452150 -11.31000000
11.98964119 55.36072159 -0.65944409 24 6 802 56.64800000 3176452152 3176452152 -0.66700000
1.66496038 14.34597111 -2.24688053 15 7 802 14.61600000 3176452152 3176452152 -8.84300000
2.87094998 17.28582764 -2.23040199 21 8 803 17.66400000 3176452154 3176452154 -7.25400000
11.72422695 70.51476288 -0.41545883 28 10 804 71.48400000 3176452157 3176452157 -0.33300000
2.07167983 17.79618073 -1.92988884 15 11 804 18.02000000 3176452157 3176452157 -6.14800000
4.07561302 18.77113533 -1.79307699 8 12 805 19.29200000 3176452159 3176452159 -5.33300000
3.10293531 26.57412338 -1.87086868 9 15 806 26.82000000 3176452161 3176452161 -4.00000000
3.76445460 22.56807709 -1.86780286 27 16 807 22.95600000 3176452163 3176452163 -4.66700000
1.82154083 26.92708969 -1.72966766 11 19 807 27.04400000 3176452166 3176452166 -3.66700000
6.55418873 30.11071777 -1.79463530 5 20 808 30.86800000 3176452168 3176452168 -3.33300000
5.71139145 34.12993240 -1.81354558 7 24 810 34.65200000 3176452173 3176452173 -3.00000000
2.51328635 36.77163315 -1.50161016 19 27 811 36.88800000 3176452175 3176452175 -2.33300000
8.50236320 38.93006516 -1.39151275 7 28 812 39.87200000 3176452177 3176452177 -2.00000000
6.12163019 51.95443726 -1.21731365 9 31 812 52.32800000 3176452180 3176452180 -1.33300000
0.95621461 5.64748573 -2.67094731 13 0 821 6.32000000 3176452200 3176452200 -25.00000000
4.26679373 60.86533356 -1.06501567 28 1 821 61.02400000 3176452200 3176452200 -1.00000000
7.82225180 46.14995193 -1.36225152 11 2 822 46.82800000 3176452203 3176452203 -1.66700000
0.99808466 8.34541130 -2.35285378 21 3 822 8.72800000 3176452203 3176452203 -15.63900000
2.01305461 11.86411190 -2.40675139 13 4 823 12.27200000 3176452205 3176452205 -11.31000000
12.14856052 55.11720276 -0.65706933 23 6 823 56.44400000 3176452207 3176452207 -0.66700000
1.68697715 14.08468628 -2.20691133 15 7 823 14.35600000 3176452207 3176452207 -8.84300000
2.92498398 17.22042274 -2.22333097 15 8 824 17.60800000 3176452210 3176452210 -7.25400000
11.93834496 70.21105957 -0.41392449 28 10 825 71.22000000 3176452212 3176452212 -0.33300000
2.15871167 17.97010422 -1.94959462 15 11 825 18.20400000 3176452212 3176452212 -6.14800000
4.14524460 18.75996017 -1.79344869 6 12 826 19.29600000 3176452214 3176452214 -5.33300000
3.19076753 26.48333931 -1.86528814 25 15 827 26.74000000 3176452216 3176452216 -4.00000000
3.53073955 20.69918060 -1.71418667 23 16 828 21.06800000 3176452219 3176452219 -4.66700000
1.93612611 27.14320755 -1.74399424 38 19 828 27.26800000 3176452221 3176452221 -3.66700000
6.66191530 30.07479668 -1.79393768 5 20 829 30.85600000 3176452223 3176452223 -3.33300000
3.23346090 26.71988106 -1.25373459 7 23 830 26.94400000 3176452226 3176452226 -2.66700000
5.81623411 33.99065018 -1.80726528 7 24 831 34.53200000 3176452228 3176452228 -3.00000000
2.67245150 37.10101700 -1.51545060 20 27 832 37.22800000 3176452230 3176452230 -2.33300000
8.60422993 38.71522903 -1.38495159 7 28 833 39.68400000 3176452233 3176452233 -2.00000000
6.27341175 51.61407471 -1.20986938 9 31 833 52.00800000 3176452235 3176452235 -1.33300000
0.95025510 5.50139046 -2.60332847 14 0 840 6.16000000 3176452256 3176452256 -25.00000000
4.46948576 60.86281586 -1.06522512 28 1 840 61.03600000 3176452256 3176452256 -1.00000000
7.94595432 45.95434570 -1.35724795 10 2 841 46.65600000 3176452258 3176452258 -1.66700000
1.02716386 8.35352516 -2.35608864 18 3 841 8.74000000 3176452258 3176452258 -15.63900000
2.07713795 12.00037003 -2.43577671 10 4 842 12.42000000 3176452260 3176452260 -11.31000000
12.29980946 54.93610001 -0.65539300 23 6 842 56.30000000 3176452263 3176452263 -0.66700000
1.77231860 14.39284039 -2.25610399 15 7 842 14.67600000 3176452263 3176452263 -8.84300000
2.99968600 17.31228065 -2.23646283 12 8 843 17.71200000 3176452265 3176452265 -7.25400000
12.06788731 69.57598114 -0.41041410 28 10 844 70.61600000 3176452267 3176452267 -0.33300000
2.22267771 17.99837112 -1.95345020 15 11 844 18.24000000 3176452267 3176452267 -6.14800000
4.17864990 18.61787224 -1.78118014 4 12 845 19.16400000 3176452269 3176452269 -5.33300000
21.98252296 97.86265564 1.16769373 28 14 846 100.30800000 3176452272 3176452272 0.66700000
3.29034233 26.56765366 -1.87198472 31 15 846 26.83600000 3176452272 3176452272 -4.00000000
3.57817650 20.56559944 -1.70409751 7 16 847 20.94400000 3176452274 3176452274 -4.66700000
22.55178452 129.48274231 2.29415369 28 18 848 131.45200000 3176452276 3176452276 1.00000000
2.04665112 27.34725952 -1.75755322 11 19 848 27.48000000 3176452276 3176452276 -3.66700000
6.72216606 29.87722778 -1.78347266 5 20 848 30.67600000 3176452279 3176452279 -3.33300000
3.37432623 27.12931252 -1.27346385 22 23 849 27.36800000 3176452281 3176452281 -2.66700000
5.91655731 33.90034485 -1.80349708 7 24 850 34.46000000 3176452283 3176452283 -3.00000000
2.79306531 37.06006622 -1.51414800 20 27 851 37.19600000 3176452286 3176452286 -2.33300000
8.73344707 38.69038391 -1.38509119 7 28 852 39.68800000 3176452288 3176452288 -2.00000000
6.43809223 51.54140091 -1.20865977 9 31 852 51.95600000 3176452290 3176452290 -1.33300000
0.96882325 5.49446964 -2.60163808 13 0 860 6.15600000 3176452311 3176452311 -25.00000000
4.67761374 60.79101562 -1.06424773 28 1 860 60.98000000 3176452311 3176452311 -1.00000000
8.07504177 45.74914551 -1.35201168 10 2 861 46.47600000 3176452313 3176452313 -1.66700000
1.04084682 8.22760201 -2.32158303 25 3 861 8.61200000 3176452313 3176452313 -15.63900000
2.08079720 11.77674675 -2.39184642 16 4 862 12.19600000 3176452315 3176452315 -11.31000000
12.50107765 54.89065170 -0.65539300 23 6 863 56.30000000 3176452318 3176452318 -0.66700000
1.80516207 14.22940731 -2.23150778 14 7 863 14.51600000 3176452318 3176452318 -8.84300000
3.10156369 17.53614426 -2.26676726 16 8 863 17.95200000 3176452320 3176452320 -7.25400000
12.24094582 69.13956451 -0.40808934 28 10 864 70.21600000 3176452322 3176452322 -0.33300000
2.33109975 18.34952354 -1.99243355 18 11 864 18.60400000 3176452322 3176452322 -6.14800000
4.20552588 18.43620682 -1.76519370 4 12 865 18.99200000 3176452325 3176452325 -5.33300000
22.01241684 96.42053986 1.15139627 28 14 866 98.90800000 3176452327 3176452327 0.66700000
3.39818835 26.67475510 -1.88035548 13 15 866 26.95600000 3176452327 3176452327 -4.00000000
3.63669729 20.47840118 -1.69791389 7 16 867 20.86800000 3176452329 3176452329 -4.66700000
2.18772650 27.98502922 -1.79899764 12 19 867 28.12800000 3176452332 3176452332 -3.66700000
6.82552576 29.84968758 -1.78324008 5 20 868 30.67200000 3176452334 3176452334 -3.33300000
3.42438722 26.76859283 -1.25708485 19 23 869 27.01600000 3176452336 3176452336 -2.66700000
6.02785063 33.84016037 -1.80140364 7 24 870 34.42000000 3176452339 3176452339 -3.00000000
2.96609569 37.60391235 -1.53678131 20 27 871 37.75200000 3176452341 3176452341 -2.33300000
8.82018280 38.44926071 -1.37755299 7 28 872 39.47200000 3176452343 3176452343 -2.00000000
0.99184847 5.51246214 -2.61178088 13 0 880 6.18000000 3176452366 3176452366 -25.00000000
4.86027670 60.40755844 -1.05782521 28 1 880 60.61200000 3176452366 3176452366 -1.00000000
8.21555138 45.61443329 -1.34886992 10 2 881 46.36800000 3176452368 3176452368 -1.66700000
1.06161165 8.16280270 -2.30433011 27 3 881 8.54800000 3176452368 3176452368 -15.63900000
2.19566178 12.17858124 -2.47500014 13 4 882 12.62000000 3176452371 3176452371 -11.31000000
12.67006111 54.74925995 -0.65422887 23 6 883 56.20000000 3176452373 3176452373 -0.66700000
1.86402094 14.29356575 -2.24257612 19 7 883 14.58800000 3176452373 3176452373 -8.84300000
3.15852904 17.50178146 -2.26373672 16 8 883 17.92800000 3176452375 3176452375 -7.25400000
12.42319393 68.76970673 -0.40615979 28 10 884 69.88400000 3176452378 3176452378 -0.33300000
2.37659836 18.19930840 -1.97701156 13 11 884 18.46000000 3176452378 3176452378 -6.14800000
4.15294600 17.91703606 -1.71686280 2 12 885 18.47200000 3176452380 3176452380 -5.33300000
22.07770729 95.17423248 1.13742697 28 14 886 97.70800000 3176452382 3176452382 0.66700000
3.50060534 26.73394585 -1.88537800 22 15 886 27.02800000 3176452382 3176452382 -4.00000000
3.71242285 20.48912048 -1.69986653 21 16 887 20.89200000 3176452385 3176452385 -4.66700000
9.55101490 116.92087555 3.41406512 28 17 887 117.36000000 3176452385 3176452385 1.66700000
22.43507576 123.82073975 2.19649005 28 18 887 125.85600000 3176452387 3176452387 1.00000000
2.27012420 27.79022980 -1.78697360 12 19 887 27.94000000 3176452387 3176452387 -3.66700000
6.92244959 29.79456329 -1.78137958 5 20 888 30.64000000 3176452389 3176452389 -3.33300000
3.51468110 26.73270607 -1.25596809 23 23 889 26.99200000 3176452392 3176452392 -2.66700000
6.11879730 33.66956711 -1.79344857 7 24 890 34.26800000 3176452394 3176452394 -3.00000000
3.08552551 37.44993210 -1.53091943 20 27 891 37.60800000 3176452396 3176452396 -2.33300000
8.91623020 38.25472260 -1.37168980 7 28 892 39.30400000 3176452398 3176452398 -2.00000000
1.00287533 5.45887184 -2.58811426 15 0 901 6.12400000 3176452421 3176452421 -25.00000000
5.06253386 60.16217804 -1.05384612 28 1 901 60.38400000 3176452421 3176452421 -1.00000000
8.35881805 45.45425034 -1.34502995 10 2 902 46.23600000 3176452424 3176452424 -1.66700000
1.08794737 8.13213158 -2.29678202 27 3 902 8.52000000 3176452424 3176452424 -15.63900000
2.24880457 12.21674252 -2.48441386 15 4 903 12.66800000 3176452426 3176452426 -11.31000000
12.74667168 54.21800232 -0.64840835 22 6 903 55.70000000 3176452428 3176452428 -0.66700000
1.92282486 14.35356903 -2.25302958 17 7 903 14.65600000 3176452428 3176452428 -8.84300000
3.26723456 17.73203087 -2.29505134 16 8 904 18.17600000 3176452431 3176452431 -7.25400000
12.63888931 68.52703094 -0.40499741 28 10 905 69.68400000 3176452433 3176452433 -0.33300000
2.43375659 18.11952591 -1.96930051 10 11 905 18.38800000 3176452433 3176452433 -6.14800000
5.32210684 22.58451271 -2.16596866 5 12 906 23.30400000 3176452435 3176452435 -5.33300000
22.03711510 93.44207001 1.11768365 28 14 907 96.01200000 3176452438 3176452438 0.66700000
3.40471148 25.28147888 -1.78381252 8 15 907 25.57200000 3176452438 3176452438 -4.00000000
3.82157660 20.65962601 -1.71516311 26 16 908 21.08000000 3176452440 3176452440 -4.66700000
2.38724613 27.96070290 -1.79848599 8 19 908 28.12000000 3176452442 3176452442 -3.66700000
7.00498438 29.65628815 -1.77463543 4 20 909 30.52400000 3176452445 3176452445 -3.33300000
3.71114492 27.44821930 -1.29021502 15 23 910 27.72800000 3176452447 3176452447 -2.66700000
6.23633242 33.61549377 -1.79177380 7 24 911 34.23600000 3176452449 3176452449 -3.00000000
3.21385360 37.33484268 -1.52668583 20 27 912 37.50400000 3176452451 3176452451 -2.33300000
9.05822468 38.22956467 -1.37196898 7 28 913 39.31200000 3176452454 3176452454 -2.00000000
6.88556862 50.66036987 -1.18967700 8 31 914 51.14000000 3176452456 3176452456 -1.33300000
1.00229990 5.35574198 -2.54078102 14 0 920 6.01200000 3176452477 3176452477 -25.00000000
5.22959375 59.77453232 -1.04735386 28 1 920 60.01200000 3176452477 3176452477 -1.00000000
8.49330807 45.33982086 -1.34246993 10 2 921 46.14800000 3176452479 3176452479 -1.66700000
1.15259552 8.40324497 -2.37441969 18 3 921 8.80800000 3176452479 3176452479 -15.63900000
2.24593258 11.97790909 -2.43734574 12 4 922 12.42800000 3176452481 3176452481 -11.31000000
11.36167145 82.72744751 0.00000000 28 5 922 83.50400000 3176452481 3176452481 0.00000000
12.91339874 54.12096786 -0.64775646 22 6 922 55.64400000 3176452484 3176452484 -0.66700000
1.96342134 14.29620934 -2.24503565 16 7 922 14.60400000 3176452484 3176452484 -8.84300000
3.23452330 17.23361206 -2.23191714 15 8 923 17.67600000 3176452486 3176452486 -7.25400000
12.84760094 68.38646698 -0.40441620 28 10 924 69.58400000 3176452488 3176452488 -0.33300000
2.56164098 18.60383415 -2.02284908 16 11 924 18.88800000 3176452488 3176452488 -6.14800000
5.38122272 22.50089073 -2.15964842 5 12 925 23.23600000 3176452491 3176452491 -5.33300000
22.02100945 92.00702667 1.10138619 28 14 926 94.61200000 3176452493 3176452493 0.66700000
3.49016619 25.28190613 -1.78464961 25 15 926 25.58400000 3176452493 3176452493 -4.00000000
3.90039945 20.70168877 -1.71971953 28 16 927 21.13600000 3176452495 3176452495 -4.66700000
22.41109848 118.94873810 2.11278844 28 18 927 121.06000000 3176452498 3176452498 1.00000000
2.50817561 28.27072716 -1.81895244 24 19 927 28.44000000 3176452498 3176452498 -3.66700000
7.09770489 29.60959625 -1.77324009 4 20 928 30.50000000 3176452500 3176452500 -3.33300000
