# .PCD v0.7 - Point Cloud Data file format
VERSION 0.7
FIELDS x y z intensity laser_id azimuth distance_m adjustedtime timestamp vertical_angle
SIZE 4 4 4 1 1 2 8 8 4 8
TYPE F F F U U U F U U F
COUNT 1 1 1 1 1 1 1 1 1 1
WIDTH 523
HEIGHT 1
VIEWPOINT 0 0 0 1 0 0 0
POINTS 523
DATA ascii
39.92566681 16.25273323 2.51044297 20 21 6925 43.18000000 3179569148 3179569148 3.33300000
40.60021591 14.24982166 1.75301838 9 22 6926 43.06400000 3179569150 3179569150 2.33300000
20.66666222 8.40867329 -1.03931916 24 23 6926 22.33600000 3179569150 3179569150 -2.66700000
20.65974236 7.24708509 -1.14741349 30 24 6927 21.92400000 3179569153 3179569153 -3.00000000
43.70587158 17.77377701 5.79318094 19 25 6927 47.53600000 3179569153 3179569153 7.00000000
42.64860153 14.95204258 3.68939066 31 26 6928 45.34400000 3179569155 3179569155 4.66700000
20.70723152 9.62076378 -0.93024278 25 27 6928 22.85200000 3179569155 3179569155 -2.33300000
20.68915367 6.13233471 -0.75354993 15 28 6929 21.59200000 3179569157 3179569157 -2.00000000
49.60016632 17.36973000 9.58188438 17 30 6930 53.42000000 3179569160 3179569160 10.33300000
34.67613983 14.08051968 -0.87087893 4 31 6930 37.43600000 3179569160 3179569160 -1.33300000
5.53458595 1.93168020 -2.73349500 6 0 6936 6.46800000 3179569180 3179569180 -25.00000000
38.75094223 17.93828964 -0.74535739 9 1 6936 42.70800000 3179569180 3179569180 -1.00000000
21.06193924 7.34691095 -0.64918435 2 2 6937 22.31600000 3179569183 3179569183 -1.66700000
8.20899200 3.32164884 -2.47901511 4 3 6937 9.19600000 3179569183 3179569183 -15.63900000
10.87775993 3.79229474 -2.30398583 4 4 6938 11.74800000 3179569185 3179569185 -11.31000000
40.38613892 16.33345985 0.00000000 15 5 6938 43.56400000 3179569185 3179569185 0.00000000
40.73319626 12.00388336 -0.49437353 10 6 6938 42.46800000 3179569187 3179569187 -0.66700000
12.66691017 5.12290812 -2.12574315 1 7 6938 13.82800000 3179569187 3179569187 -8.84300000
14.96943665 5.21583891 -2.01776624 2 8 6939 15.98000000 3179569190 3179569190 -7.25400000
40.70077133 18.81501770 0.26060620 18 9 6939 44.84000000 3179569190 3179569190 0.33300000
40.34685516 14.05026150 -0.24830820 24 10 6940 42.72400000 3179569192 3179569192 -0.33300000
15.99227524 6.46129847 -1.85791957 2 11 6940 17.34800000 3179569192 3179569192 -6.14800000
18.46994972 5.43249893 -1.79716647 4 12 6941 19.33600000 3179569194 3179569194 -5.33300000
40.33925629 16.28992844 1.01231885 14 13 6941 43.51600000 3179569194 3179569194 1.33300000
40.48830032 11.90099907 0.49130028 20 14 6942 42.20400000 3179569196 3179569196 0.66700000
20.30682182 8.19624424 -1.53129411 6 15 6942 21.95200000 3179569196 3179569196 -4.00000000
19.26515198 6.69752693 -1.66504252 5 16 6943 20.46400000 3179569199 3179569199 -4.66700000
40.72639847 18.79236603 1.30535042 27 17 6943 44.87200000 3179569199 3179569199 1.66700000
40.28074265 14.00359440 0.74438006 19 18 6943 42.65200000 3179569201 3179569201 1.00000000
20.60920143 9.50969601 -1.45465028 11 19 6943 22.74400000 3179569201 3179569201 -3.66700000
20.62524033 6.05469513 -1.25184941 19 20 6944 21.53200000 3179569203 3179569203 -3.33300000
40.07192993 16.15757751 2.51625681 13 21 6944 43.28000000 3179569203 3179569203 3.33300000
40.51132965 14.06790924 1.74715650 18 22 6945 42.92000000 3179569206 3179569206 2.33300000
20.66107941 8.32665157 -1.03764403 24 23 6945 22.30000000 3179569206 3179569206 -2.66700000
20.65347099 7.16805744 -1.14573872 30 24 6946 21.89200000 3179569208 3179569208 -3.00000000
43.72406006 17.61242867 5.78781891 29 25 6946 47.49200000 3179569208 3179569208 7.00000000
42.70924759 14.81445217 3.69036698 31 26 6947 45.35600000 3179569210 3179569210 4.66700000
20.70635033 9.53699589 -0.92877734 25 27 6947 22.81600000 3179569210 3179569210 -2.33300000
20.68635750 6.05695343 -0.75271237 16 28 6948 21.56800000 3179569213 3179569213 -2.00000000
49.69467545 17.21803856 9.58905983 17 30 6949 53.46000000 3179569215 3179569215 10.33300000
35.07880783 14.10870266 -0.87981194 4 31 6949 37.82000000 3179569215 3179569215 -1.33300000
5.53068113 1.90976655 -2.72842360 8 0 6955 6.45600000 3179569236 3179569236 -25.00000000
38.79930878 17.80468369 -0.74514794 9 1 6955 42.69600000 3179569236 3179569236 -1.00000000
21.12776184 7.29137468 -0.65046436 2 2 6956 22.36000000 3179569238 3179569238 -1.66700000
8.22711277 3.29727459 -2.48117161 3 3 6956 9.20400000 3179569238 3179569238 -15.63900000
10.89027596 3.75620198 -2.30398583 4 4 6957 11.74800000 3179569240 3179569240 -11.31000000
40.39180756 16.18010902 0.00000000 22 5 6957 43.51200000 3179569240 3179569240 0.00000000
40.61148453 11.82178974 -0.49241781 31 6 6957 42.30000000 3179569243 3179569243 -0.66700000
12.69116688 5.08381414 -2.12697291 1 7 6957 13.83600000 3179569243 3179569243 -8.84300000
14.99040222 5.16746330 -2.01827121 2 8 6958 15.98400000 3179569245 3179569245 -7.25400000
40.72657776 18.66328239 0.26037374 18 9 6958 44.80000000 3179569245 3179569245 0.33300000
40.32515335 13.89293671 -0.24788974 24 10 6959 42.65200000 3179569247 3179569247 -0.33300000
16.00992203 6.40675306 -1.85749125 2 11 6959 17.34400000 3179569247 3179569247 -6.14800000
18.48403931 5.37010956 -1.79679477 4 12 6960 19.33200000 3179569249 3179569249 -5.33300000
40.32250977 16.12785339 1.01055086 14 13 6960 43.44000000 3179569249 3179569249 1.33300000
40.46992493 11.74994087 0.49060181 20 14 6961 42.14400000 3179569252 3179569252 0.66700000
20.33389091 8.12885952 -1.53129411 6 15 6961 21.95200000 3179569252 3179569252 -4.00000000
19.27971458 6.63101149 -1.66439164 5 16 6962 20.45600000 3179569254 3179569254 -4.66700000
40.43216324 18.49422073 1.29394698 17 17 6962 44.48000000 3179569254 3179569254 1.66700000
40.27779388 13.85303211 0.74347252 19 18 6962 42.60000000 3179569256 3179569256 1.00000000
20.60432243 9.42469692 -1.45209193 11 19 6962 22.70400000 3179569256 3179569256 -3.66700000
20.62602997 5.98070574 -1.25068665 19 20 6963 21.51200000 3179569259 3179569259 -3.33300000
40.19945908 16.05422592 2.52090788 13 21 6963 43.36000000 3179569259 3179569259 3.33300000
40.53129959 13.92440128 1.74601662 18 22 6964 42.89200000 3179569261 3179569261 2.33300000
20.65517807 8.24475956 -1.03596890 22 23 6964 22.26400000 3179569261 3179569261 -2.66700000
20.64690399 7.08915138 -1.14406395 25 24 6965 21.86000000 3179569263 3179569263 -3.00000000
43.64210129 17.41143227 5.76929474 19 25 6965 47.34000000 3179569263 3179569263 7.00000000
42.78076553 14.68050575 3.69231987 31 26 6966 45.38000000 3179569266 3179569266 4.66700000
20.70150566 9.45167923 -0.92714900 27 27 6966 22.77600000 3179569266 3179569266 -2.33300000
20.69480896 5.98498964 -0.75229353 16 28 6967 21.55600000 3179569268 3179569268 -2.00000000
49.67779922 17.03757668 9.57542706 17 30 6967 53.38400000 3179569270 3179569270 10.33300000
35.32727051 14.07985973 -0.88492984 4 31 6967 38.04000000 3179569270 3179569270 -1.33300000
5.54417515 1.89279175 -2.73180437 7 0 6975 6.46400000 3179569291 3179569291 -25.00000000
38.84666061 17.66251945 -0.74486870 9 1 6975 42.68000000 3179569291 3179569291 -1.00000000
34.54877853 11.78828430 -1.06238627 7 2 6976 36.52000000 3179569293 3179569293 -1.66700000
8.23499203 3.26711607 -2.48009324 2 3 6976 9.20000000 3179569293 3179569293 -15.63900000
10.92188263 3.72449470 -2.30790830 4 4 6977 11.76800000 3179569296 3179569296 -11.31000000
40.37739182 16.01100159 0.00000000 22 5 6977 43.43600000 3179569296 3179569296 0.00000000
40.52383423 11.63533211 -0.49083462 21 6 6978 42.16400000 3179569298 3179569298 -0.66700000
12.69501686 5.03143978 -2.12451339 1 7 6978 13.82000000 3179569298 3179569298 -8.84300000
15.00459290 5.11382532 -2.01776624 2 8 6978 15.98000000 3179569300 3179569300 -7.25400000
40.41269684 18.34902573 0.25795597 27 9 6978 44.38400000 3179569300 3179569300 0.33300000
40.33554077 13.73919392 -0.24765727 16 10 6979 42.61200000 3179569302 3179569302 -0.33300000
16.02849007 6.34936428 -1.85706282 2 11 6979 17.34000000 3179569302 3179569302 -6.14800000
18.51032829 5.30775118 -1.79753828 4 12 6980 19.34000000 3179569305 3179569305 -5.33300000
40.33394241 15.96933746 1.00943422 14 13 6980 43.39200000 3179569305 3179569305 1.33300000
40.44917679 11.59097481 0.48985678 20 14 6981 42.08000000 3179569307 3179569307 0.66700000
20.35843086 8.05636311 -1.53101504 6 15 6981 21.94800000 3179569307 3179569307 -4.00000000
19.30651855 6.56495571 -1.66471708 5 16 6982 20.46000000 3179569309 3179569309 -4.66700000
40.47826767 18.34472084 1.29336512 26 17 6982 44.46000000 3179569309 3179569309 1.66700000
40.27907181 13.68858433 0.74256498 19 18 6983 42.54800000 3179569312 3179569312 1.00000000
20.60236740 9.33264351 -1.44953370 8 19 6983 22.66400000 3179569312 3179569312 -3.66700000
20.61990547 5.90098047 -1.24905872 19 20 6983 21.48400000 3179569314 3179569314 -3.33300000
40.19583511 15.89031696 2.51718712 13 21 6983 43.29600000 3179569314 3179569314 3.33300000
40.55694962 13.77512455 1.74503970 18 22 6984 42.86800000 3179569316 3179569316 2.33300000
20.66896820 8.16673660 -1.03522444 24 23 6984 22.24800000 3179569316 3179569316 -2.66700000
20.64882851 7.00933313 -1.14280796 25 24 6985 21.83600000 3179569319 3179569319 -3.00000000
44.16419220 17.44127464 5.83022928 9 25 6985 47.84000000 3179569319 3179569319 7.00000000
42.75624084 14.50546646 3.68581057 31 26 6986 45.30000000 3179569321 3179569321 4.66700000
20.69431686 9.36124039 -0.92535788 23 27 6986 22.73200000 3179569321 3179569321 -2.33300000
20.69635391 5.90722895 -0.75159556 16 28 6987 21.53600000 3179569323 3179569323 -2.00000000
49.68851852 16.84763908 9.56610012 17 30 6987 53.33200000 3179569326 3179569326 10.33300000
35.52127838 14.01369286 -0.88855892 5 31 6987 38.19600000 3179569326 3179569326 -1.33300000
5.55107546 1.87245858 -2.73180437 6 0 6996 6.46400000 3179569346 3179569346 -25.00000000
38.91843033 17.52330399 -0.74500835 9 1 6996 42.68800000 3179569346 3179569346 -1.00000000
34.65237427 11.68201447 -1.06424809 7 2 6997 36.58400000 3179569349 3179569349 -1.66700000
8.25408268 3.23972607 -2.48224998 2 3 6997 9.20800000 3179569349 3179569349 -15.63900000
10.94661140 3.68819618 -2.31026173 4 4 6998 11.78000000 3179569351 3179569351 -11.31000000
40.37250137 15.83806992 0.00000000 22 5 6998 43.36800000 3179569351 3179569351 0.00000000
40.51232910 11.47147083 -0.49018273 21 6 6999 42.10800000 3179569353 3179569353 -0.66700000
12.72809219 4.99064732 -2.12697291 2 7 6999 13.83600000 3179569353 3179569353 -8.84300000
15.02699566 5.06006289 -2.01827121 2 8 6999 15.98400000 3179569355 3179569355 -7.25400000
40.33740234 18.13681030 0.25704932 18 9 6999 44.22800000 3179569355 3179569355 0.33300000
40.32876205 13.57212734 -0.24730855 24 10 7000 42.55200000 3179569358 3179569358 -0.33300000
16.05535698 6.29202557 -1.85749125 2 11 7000 17.34400000 3179569358 3179569358 -6.14800000
18.54498672 5.24420643 -1.79902542 4 12 7001 19.35600000 3179569360 3179569360 -5.33300000
40.32145691 15.79368877 1.00766623 14 13 7001 43.31600000 3179569360 3179569360 1.33300000
40.47599030 11.43829250 0.48967052 20 14 7002 42.06400000 3179569362 3179569362 0.66700000
20.39153862 7.98314619 -1.53129411 6 15 7002 21.95200000 3179569362 3179569362 -4.00000000
19.31911278 6.49034071 -1.66374075 5 16 7003 20.44800000 3179569365 3179569365 -4.66700000
40.31177139 18.09146500 1.28591800 17 17 7003 44.20400000 3179569365 3179569365 1.66700000
40.27732086 13.53134346 0.74165744 19 18 7003 42.49600000 3179569367 3179569367 1.00000000
20.61660957 9.25249958 -1.44825447 8 19 7003 22.64400000 3179569367 3179569367 -3.66700000
20.62602425 5.82102680 -1.24812853 16 20 7004 21.46800000 3179569369 3179569369 -3.33300000
40.21661758 15.72834015 2.51486158 20 21 7004 43.25600000 3179569369 3179569369 3.33300000
40.57306671 13.61493969 1.74357426 18 22 7005 42.83200000 3179569372 3179569372 2.33300000
20.67271233 8.08074284 -1.03392160 24 23 7005 22.22000000 3179569372 3179569372 -2.66700000
20.64787102 6.92471313 -1.14134252 25 24 7006 21.80800000 3179569374 3179569374 -3.00000000
44.32397079 17.31685066 5.84290361 9 25 7006 47.94400000 3179569374 3179569374 7.00000000
42.75241852 14.32965469 3.68092871 20 26 7007 45.24000000 3179569376 3179569376 4.66700000
20.69930840 9.27225780 -0.92405528 26 27 7007 22.70000000 3179569376 3179569376 -2.33300000
20.68708038 5.82266855 -0.75047880 14 28 7008 21.50400000 3179569379 3179569379 -2.00000000
49.64172745 16.62915993 9.54529381 17 30 7008 53.21600000 3179569381 3179569381 10.33300000
35.62455750 13.90376186 -0.88986164 5 31 7008 38.25200000 3179569381 3179569381 -1.33300000
5.55413866 1.85192358 -2.73011398 7 0 7016 6.46000000 3179569401 3179569401 -25.00000000
38.97935867 17.38734627 -0.74500835 18 1 7016 42.68800000 3179569401 3179569401 -1.00000000
34.56776428 11.51926994 -1.06040812 14 2 7017 36.45200000 3179569403 3179569403 -1.66700000
8.26534081 3.21089411 -2.48224998 2 3 7017 9.20800000 3179569403 3179569403 -15.63900000
10.95569706 3.64872336 -2.30947733 2 4 7018 11.77600000 3179569406 3179569406 -11.31000000
40.37533951 15.67677784 0.00000000 14 5 7018 43.31200000 3179569406 3179569406 0.00000000
40.50006866 11.32306385 -0.48957738 21 6 7018 42.05600000 3179569408 3179569408 -0.66700000
12.74457169 4.94841194 -2.12697291 1 7 7018 13.83600000 3179569408 3179569408 -8.84300000
15.04833221 5.00883102 -2.01877642 2 8 7019 15.98800000 3179569410 3179569410 -7.25400000
40.35662079 17.97636604 0.25677034 18 9 7019 44.18000000 3179569410 3179569410 0.33300000
40.31895828 13.41233253 -0.24695984 16 10 7020 42.49200000 3179569413 3179569413 -0.33300000
16.06609917 6.23162889 -1.85620606 2 11 7020 17.33200000 3179569413 3179569413 -6.14800000
18.56317902 5.17944050 -1.79902542 6 12 7021 19.35600000 3179569415 3179569415 -5.33300000
40.32041168 15.63116264 1.00627041 14 13 7021 43.25600000 3179569415 3179569415 1.33300000
40.48870087 11.28941536 0.48934457 20 14 7022 42.03600000 3179569417 3179569417 0.66700000
20.41555977 7.91047621 -1.53101504 6 15 7022 21.94800000 3179569417 3179569417 -4.00000000
19.35300255 6.42663431 -1.66471708 5 16 7023 20.46000000 3179569419 3179569419 -4.66700000
40.30160904 17.91815186 1.28359067 17 17 7023 44.12400000 3179569419 3179569419 1.66700000
40.26737595 13.37176037 0.74061030 19 18 7023 42.43600000 3179569422 3179569422 1.00000000
20.61230469 9.16426086 -1.44569623 8 19 7023 22.60400000 3179569422 3179569422 -3.66700000
20.62313652 5.74256611 -1.24673319 16 20 7024 21.44400000 3179569424 3179569424 -3.33300000
40.19679642 15.55903339 2.51021028 13 21 7024 43.17600000 3179569424 3179569424 3.33300000
40.51412582 13.43799973 1.73901498 18 22 7025 42.72000000 3179569426 3179569426 2.33300000
20.67843437 7.99988270 -1.03280485 26 23 7025 22.19600000 3179569426 3179569426 -2.66700000
20.65674973 6.84756899 -1.14050519 25 24 7026 21.79200000 3179569429 3179569429 -3.00000000
42.55240631 14.09758377 3.65944862 51 26 7027 44.97600000 3179569431 3179569431 4.66700000
20.69866943 9.18535709 -0.92258978 26 27 7027 22.66400000 3179569431 3179569431 -2.33300000
20.68031693 5.74293423 -0.74950159 14 28 7028 21.47600000 3179569433 3179569433 -2.00000000
49.51268768 16.39393234 9.50941944 16 30 7028 53.01600000 3179569436 3179569436 10.33300000
35.79970169 13.82831478 -0.89302540 5 31 7028 38.38800000 3179569436 3179569436 -1.33300000
5.56777573 1.83382249 -2.73349500 7 0 7037 6.46800000 3179569456 3179569456 -25.00000000
39.02453232 17.23628426 -0.74465930 18 1 7037 42.66800000 3179569456 3179569456 -1.00000000
34.49961472 11.35624218 -1.05703366 14 2 7038 36.33600000 3179569459 3179569459 -1.66700000
8.26626682 3.17643380 -2.47901511 2 3 7038 9.19600000 3179569459 3179569459 -15.63900000
10.89447975 3.58402967 -2.29378772 6 4 7039 11.69600000 3179569461 3179569461 -11.31000000
40.31676865 15.48423195 0.00000000 22 5 7039 43.18800000 3179569461 3179569461 0.00000000
40.50659561 11.16498184 -0.48915830 10 6 7039 42.02000000 3179569463 3179569463 -0.66700000
12.77369213 4.90591908 -2.12881780 1 7 7039 13.84800000 3179569463 3179569463 -8.84300000
15.07035828 4.95488167 -2.01928139 4 8 7040 15.99200000 3179569466 3179569466 -7.25400000
40.36367798 17.80250359 0.25639838 18 9 7040 44.11600000 3179569466 3179569466 0.33300000
40.20064545 13.20952511 -0.24593695 16 10 7041 42.31600000 3179569468 3179569468 -0.33300000
16.14824104 6.19549513 -1.86306024 2 11 7041 17.39600000 3179569468 3179569468 -6.14800000
18.58203888 5.11136818 -1.79902542 6 12 7042 19.35600000 3179569470 3179569470 -5.33300000
40.32889557 15.46466255 1.00506067 14 13 7042 43.20400000 3179569470 3179569470 1.33300000
40.46038818 11.12185860 0.48850641 30 14 7043 41.96400000 3179569472 3179569472 0.66700000
20.44068909 7.83416843 -1.53073609 6 15 7043 21.94400000 3179569472 3179569472 -4.00000000
19.39157867 6.36062908 -1.66601896 5 16 7044 20.47600000 3179569475 3179569475 -4.66700000
40.31211853 17.74615479 1.28184533 17 17 7044 44.06400000 3179569475 3179569475 1.66700000
40.28191376 13.21286488 0.73998201 19 18 7044 42.40000000 3179569477 3179569477 1.00000000
20.60922050 9.07256794 -1.44313788 8 19 7044 22.56400000 3179569477 3179569477 -3.66700000
20.62093925 5.66059732 -1.24533784 13 20 7045 21.42000000 3179569479 3179569479 -3.33300000
40.24236298 15.40731716 2.50951266 13 21 7045 43.16400000 3179569479 3179569479 3.33300000
40.54791260 13.28444004 1.73836374 18 22 7046 42.70400000 3179569482 3179569482 2.33300000
20.67029762 7.90975857 -1.03094363 22 23 7046 22.15600000 3179569482 3179569482 -2.66700000
20.66272736 6.76559734 -1.13945842 25 24 7047 21.77200000 3179569484 3179569484 -3.00000000
42.51663971 13.91300869 3.65196300 20 26 7048 44.88400000 3179569486 3179569486 4.66700000
20.69926643 9.09496117 -0.92112434 26 27 7048 22.62800000 3179569486 3179569486 -2.33300000
20.68580437 5.66287661 -0.74894321 14 28 7049 21.46000000 3179569489 3179569489 -2.00000000
49.68838882 16.25026703 9.53166103 16 30 7049 53.14000000 3179569491 3179569491 10.33300000
35.93232727 13.72840786 -0.89507258 5 31 7049 38.47600000 3179569491 3179569491 -1.33300000
5.57037926 1.81422627 -2.73180437 7 0 7056 6.46400000 3179569512 3179569512 -25.00000000
38.82867813 16.99612236 -0.73984241 18 1 7056 42.39200000 3179569512 3179569512 -1.00000000
34.50666809 11.23187447 -1.05610275 14 2 7057 36.30400000 3179569514 3179569514 -1.66700000
8.29115582 3.15448332 -2.48332834 4 3 7057 9.21200000 3179569514 3179569514 -15.63900000
10.91003418 3.54909611 -2.29457235 11 4 7058 11.70000000 3179569516 3179569516 -11.31000000
40.33424759 15.33765602 0.00000000 22 5 7058 43.15200000 3179569516 3179569516 0.00000000
40.53953934 11.02954578 -0.48911175 10 6 7058 42.01600000 3179569519 3179569519 -0.66700000
12.77511215 4.85791349 -2.12635803 1 7 7058 13.83200000 3179569519 3179569519 -8.84300000
15.09048080 4.90610647 -2.01978660 2 8 7059 15.99600000 3179569521 3179569521 -7.25400000
40.31987000 17.62369919 0.25574744 18 9 7059 44.00400000 3179569521 3179569521 0.33300000
40.19857788 13.06130981 -0.24565797 16 10 7060 42.26800000 3179569523 3179569523 -0.33300000
16.17241478 6.14332390 -1.86348867 2 11 7060 17.40000000 3179569523 3179569523 -6.14800000
18.60657310 5.05180693 -1.79976892 6 12 7061 19.36400000 3179569525 3179569525 -5.33300000
40.32013702 15.30813122 1.00357187 14 13 7061 43.14000000 3179569525 3179569525 1.33300000
40.35422134 10.94887447 0.48678353 30 14 7062 41.81600000 3179569528 3179569528 0.66700000
20.47028732 7.76775694 -1.53101504 6 15 7062 21.94800000 3179569528 3179569528 -4.00000000
19.39739609 6.29136944 -1.66471708 5 16 7063 20.46000000 3179569530 3179569530 -4.66700000
40.29378510 17.57880402 1.27940166 17 17 7063 43.98000000 3179569530 3179569530 1.66700000
40.27833176 13.05614185 0.73907453 19 18 7064 42.34800000 3179569532 3179569532 1.00000000
20.59685516 8.98142624 -1.44006801 7 19 7064 22.51600000 3179569532 3179569532 -3.66700000
20.61647224 5.58591890 -1.24394250 13 20 7064 21.39600000 3179569535 3179569535 -3.33300000
40.28576660 15.27095318 2.50904751 6 21 7064 43.15600000 3179569535 3179569535 3.33300000
40.54991913 13.13635635 1.73657262 18 22 7065 42.66000000 3179569537 3179569537 2.33300000
20.66278458 7.82842922 -1.02926850 22 23 7065 22.12000000 3179569537 3179569537 -2.66700000
20.66224861 6.68965769 -1.13820243 29 24 7066 21.74800000 3179569539 3179569539 -3.00000000
43.47440338 16.46230125 5.70787239 9 25 7066 46.83600000 3179569539 3179569539 7.00000000
42.66116714 13.80385303 3.66042495 20 26 7067 44.98800000 3179569542 3179569542 4.66700000
20.69266891 9.01031399 -0.91949606 26 27 7067 22.58800000 3179569542 3179569542 -2.33300000
20.68903351 5.59007788 -0.74838483 14 28 7068 21.44400000 3179569544 3179569544 -2.00000000
49.63341904 16.05029297 9.51085472 16 30 7068 53.02400000 3179569546 3179569546 10.33300000
36.10108566 13.65586567 -0.89814329 5 31 7068 38.60800000 3179569546 3179569546 -1.33300000
5.57981539 1.79685545 -2.73349500 6 0 7075 6.46800000 3179569567 3179569567 -25.00000000
38.92885208 16.88636780 -0.74068016 27 1 7075 42.44000000 3179569567 3179569567 -1.00000000
34.56655884 11.12473392 -1.05680096 7 2 7076 36.32800000 3179569569 3179569569 -1.66700000
8.29796600 3.12561369 -2.48224998 3 3 7076 9.20800000 3179569569 3179569569 -15.63900000
10.94788170 3.52130437 -2.30006361 4 4 7077 11.72800000 3179569571 3179569571 -11.31000000
40.34370804 15.18831539 0.00000000 14 5 7077 43.10800000 3179569571 3179569571 0.00000000
40.77480698 10.94083309 -0.49148652 21 6 7078 42.22000000 3179569574 3179569574 -0.66700000
12.80309010 4.81746626 -2.12820292 1 7 7078 13.84400000 3179569574 3179569574 -8.84300000
15.10666656 4.85603762 -2.01978660 2 8 7078 15.99600000 3179569576 3179569576 -7.25400000
40.32303238 17.46604919 0.25539872 18 9 7078 43.94400000 3179569576 3179569576 0.33300000
40.26451874 12.93527508 -0.24579746 24 10 7079 42.29200000 3179569578 3179569578 -0.33300000
16.19269753 6.08966064 -1.86348867 2 11 7079 17.40000000 3179569578 3179569578 -6.14800000
18.61553001 4.98801613 -1.79902542 6 12 7080 19.35600000 3179569581 3179569581 -5.33300000
40.31827545 15.15464306 1.00226915 14 13 7080 43.08400000 3179569581 3179569581 1.33300000
40.37485123 10.81085682 0.48659727 30 14 7081 41.80000000 3179569583 3179569583 0.66700000
20.48472786 7.69562244 -1.53017795 6 15 7081 21.93600000 3179569583 3179569583 -4.00000000
19.43333817 6.23188019 -1.66601896 5 16 7082 20.47600000 3179569585 3179569585 -4.66700000
40.28946686 17.41811562 1.27742350 17 17 7082 43.91200000 3179569585 3179569585 1.66700000
40.27725983 12.91610622 0.73830658 19 18 7082 42.30400000 3179569588 3179569588 1.00000000
20.60298538 8.90717030 -1.43853295 7 19 7082 22.49200000 3179569588 3179569588 -3.66700000
20.62331009 5.51442719 -1.24324477 13 20 7083 21.38400000 3179569590 3179569590 -3.33300000
40.45208359 15.18076992 2.51625681 13 21 7083 43.28000000 3179569590 3179569590 3.33300000
40.44481659 12.95427036 1.73022223 18 22 7084 42.50400000 3179569592 3179569592 2.33300000
20.65496063 7.74723673 -1.02759337 22 23 7084 22.08400000 3179569592 3179569592 -2.66700000
20.65388298 6.61136007 -1.13652766 29 24 7085 21.71600000 3179569595 3179569595 -3.00000000
43.55105972 16.32640648 5.71079731 19 25 7085 46.86000000 3179569595 3179569595 7.00000000
42.68392181 13.65501881 3.65847206 20 26 7086 44.96400000 3179569597 3179569597 4.66700000
20.68940735 8.92739391 -0.91803062 26 27 7086 22.55200000 3179569597 3179569597 -2.33300000
20.67269325 5.51217031 -0.74712843 14 28 7087 21.40800000 3179569599 3179569599 -2.00000000
49.69289017 15.87813950 9.51157188 16 30 7088 53.02800000 3179569601 3179569601 10.33300000
36.29459381 13.58443546 -0.90177238 5 31 7088 38.76400000 3179569601 3179569601 -1.33300000
5.58290911 1.77529383 -2.73180437 7 0 7096 6.46400000 3179569622 3179569622 -25.00000000
38.96475983 16.73252678 -0.74019146 18 1 7096 42.41200000 3179569622 3179569622 -1.00000000
34.74809265 11.04277229 -1.06110632 7 2 7097 36.47600000 3179569624 3179569624 -1.66700000
8.31658554 3.09786820 -2.48440647 3 3 7097 9.21600000 3179569624 3179569624 -15.63900000
40.35037231 15.02220345 0.00000000 14 5 7098 43.05600000 3179569627 3179569627 0.00000000
40.78756714 10.78415585 -0.49116057 21 6 7099 42.19200000 3179569629 3179569629 -0.66700000
12.81695652 4.76912975 -2.12758780 1 7 7099 13.84000000 3179569629 3179569629 -8.84300000
15.11679935 4.79823542 -2.01877642 4 8 7099 15.98800000 3179569631 3179569631 -7.25400000
40.33163452 17.29449463 0.25505003 18 9 7099 43.88400000 3179569631 3179569631 0.33300000
40.31166077 12.78761101 -0.24579746 24 10 7100 42.29200000 3179569634 3179569634 -0.33300000
16.21490860 6.03027010 -1.86348867 2 11 7100 17.40000000 3179569634 3179569634 -6.14800000
18.64138794 4.92178679 -1.79976892 4 12 7101 19.36400000 3179569636 3179569636 -5.33300000
40.30607986 14.98168945 1.00059414 14 13 7101 43.01200000 3179569636 3179569636 1.33300000
40.37939835 10.65361977 0.48617819 20 14 7102 41.76400000 3179569638 3179569638 0.66700000
20.48661232 7.61076355 -1.52822483 8 15 7102 21.90800000 3179569638 3179569638 -4.00000000
19.45224762 6.15940809 -1.66569352 5 16 7103 20.47200000 3179569641 3179569641 -4.66700000
40.29055023 17.24358559 1.27544534 17 17 7103 43.84400000 3179569641 3179569641 1.66700000
40.24806976 12.74424934 0.73691040 19 18 7103 42.22400000 3179569643 3179569643 1.00000000
20.59512520 8.81432056 -1.43571889 7 19 7103 22.44800000 3179569643 3179569643 -3.66700000
20.61248970 5.43066311 -1.24138439 16 20 7104 21.35200000 3179569645 3179569645 -3.33300000
40.37267685 14.98238850 2.50788474 13 21 7104 43.13600000 3179569645 3179569645 3.33300000
40.47678375 12.80112553 1.72957098 18 22 7105 42.48800000 3179569648 3179569648 2.33300000
20.66073990 7.66314363 -1.02647662 22 23 7105 22.06000000 3179569648 3179569648 -2.66700000
20.65131378 6.52718830 -1.13506222 29 24 7106 21.68800000 3179569650 3179569650 -3.00000000
43.47119522 13.73144341 3.72161102 21 26 7107 45.74000000 3179569652 3179569652 4.66700000
20.69993591 8.84208393 -0.91705364 28 27 7107 22.52800000 3179569652 3179569652 -2.33300000
20.67342567 5.43128538 -0.74643046 14 28 7108 21.38800000 3179569654 3179569654 -2.00000000
49.74801254 15.70458221 9.51157188 16 30 7108 53.02800000 3179569657 3179569657 10.33300000
36.45429230 13.49932098 -0.90456396 5 31 7108 38.88400000 3179569657 3179569657 -1.33300000
5.58215475 1.75362194 -2.72842360 8 0 7116 6.45600000 3179569677 3179569677 -25.00000000
38.99716568 16.58545494 -0.73970282 18 1 7116 42.38400000 3179569677 3179569677 -1.00000000
35.11830521 11.02560711 -1.07122982 7 2 7117 36.82400000 3179569680 3179569680 -1.66700000
8.32011986 3.06615520 -2.48224998 3 3 7117 9.20800000 3179569680 3179569680 -15.63900000
11.04764748 3.46635842 -2.31575298 4 4 7118 11.80800000 3179569682 3179569682 -11.31000000
40.34250641 14.85914326 0.00000000 21 5 7118 42.99200000 3179569682 3179569682 0.00000000
40.68764496 10.61350536 -0.48953083 21 6 7118 42.05200000 3179569684 3179569684 -0.66700000
12.84011841 4.72933340 -2.12881780 1 7 7118 13.84800000 3179569684 3179569684 -8.84300000
15.14481449 4.74900055 -2.02029157 2 8 7119 16.00000000 3179569687 3179569687 -7.25400000
40.32917023 17.12702560 0.25465482 18 9 7119 43.81600000 3179569687 3179569687 0.33300000
40.28353119 12.62409306 -0.24535576 16 10 7120 42.21600000 3179569689 3179569689 -0.33300000
16.23585892 5.97363281 -1.86348867 2 11 7120 17.40000000 3179569689 3179569689 -6.14800000
18.65845490 4.85668612 -1.79976892 6 12 7121 19.36400000 3179569691 3179569691 -5.33300000
40.28306580 14.81330013 0.99873316 14 13 7121 42.93200000 3179569691 3179569691 1.33300000
40.38537216 10.50454903 0.48580569 29 14 7122 41.73200000 3179569694 3179569694 0.66700000
20.42691231 7.50754547 -1.52180719 34 15 7122 21.81600000 3179569694 3179569694 -4.00000000
19.47362900 6.09146976 -1.66569352 5 16 7123 20.47200000 3179569696 3179569696 -4.66700000
40.29159546 17.07787514 1.27358353 17 17 7123 43.78000000 3179569696 3179569696 1.66700000
40.25414276 12.59174061 0.73621231 19 18 7123 42.18400000 3179569698 3179569698 1.00000000
20.60739136 8.73458672 -1.43443966 7 19 7123 22.42800000 3179569698 3179569698 -3.66700000
20.60813141 5.35265541 -1.23998904 16 20 7124 21.32800000 3179569701 3179569701 -3.33300000
40.22605515 14.76842976 2.49555945 19 21 7124 42.92400000 3179569701 3179569701 3.33300000
40.28851318 12.58705425 1.71963835 18 22 7125 42.24400000 3179569703 3179569703 2.33300000
20.65735435 7.57996607 -1.02498758 22 23 7125 22.02800000 3179569703 3179569703 -2.66700000
20.64728165 6.44672871 -1.13359678 29 24 7126 21.66000000 3179569705 3179569705 -3.00000000
43.31266785 15.88448143 5.66448689 19 25 7126 46.48000000 3179569705 3179569705 7.00000000
42.63211823 13.30291748 3.64577937 10 26 7127 44.80800000 3179569707 3179569707 4.66700000
20.69018555 8.75264549 -0.91526252 28 27 7127 22.48400000 3179569707 3179569707 -2.33300000
20.67677879 5.35507965 -0.74587202 14 28 7128 21.37200000 3179569710 3179569710 -2.00000000
49.40325165 15.39685917 9.43480206 16 30 7129 52.60000000 3179569712 3179569712 10.33300000
36.61242676 13.40549088 -0.90726244 5 31 7129 39.00000000 3179569712 3179569712 -1.33300000
5.58447695 1.73402619 -2.72673297 8 0 7135 6.45200000 3179569733 3179569733 -25.00000000
38.92295837 16.40168762 -0.73725945 26 1 7135 42.24400000 3179569733 3179569733 -1.00000000
35.21959305 10.92923450 -1.07320797 7 2 7136 36.89200000 3179569735 3179569735 -1.66700000
8.31576729 3.03326797 -2.47793674 2 3 7136 9.19200000 3179569735 3179569735 -15.63900000
11.01787186 3.41692400 -2.30712390 2 4 7137 11.76400000 3179569737 3179569737 -11.31000000
40.35398102 14.71158028 0.00000000 21 5 7137 42.95200000 3179569737 3179569737 0.00000000
40.52894211 10.42868614 -0.48720261 21 6 7137 41.85200000 3179569740 3179569740 -0.66700000
12.85573101 4.68672800 -2.12881780 1 7 7137 13.84800000 3179569740 3179569740 -8.84300000
15.16427040 4.69992685 -2.02079654 2 8 7138 16.00400000 3179569742 3179569742 -7.25400000
40.33781433 16.97302818 0.25435260 18 9 7138 43.76400000 3179569742 3179569742 0.33300000
40.31752777 12.48807144 -0.24530925 24 10 7139 42.20800000 3179569744 3179569744 -0.33300000
16.25557899 5.91976023 -1.86348867 2 11 7139 17.40000000 3179569744 3179569744 -6.14800000
18.66674232 4.79280472 -1.79902542 6 12 7140 19.35600000 3179569747 3179569747 -5.33300000
40.28311539 14.66185474 0.99752343 14 13 7140 42.88000000 3179569747 3179569747 1.33300000
40.30375671 10.34074783 0.48440877 19 14 7141 41.61200000 3179569749 3179569749 0.66700000
20.50419235 7.45886374 -1.52571356 14 15 7141 21.87200000 3179569749 3179569749 -4.00000000
19.50134087 6.02921438 -1.66634440 5 16 7142 20.48000000 3179569751 3179569751 -4.66700000
40.28533554 16.91785049 1.27160537 17 17 7142 43.71200000 3179569751 3179569751 1.66700000
40.28039169 12.45345783 0.73593307 19 18 7142 42.16800000 3179569754 3179569754 1.00000000
20.59943771 8.65074635 -1.43188143 7 19 7142 22.38800000 3179569754 3179569754 -3.66700000
20.61416435 5.28131390 -1.23929143 16 20 7143 21.31600000 3179569756 3179569756 -3.33300000
40.11717606 14.57767487 2.48579192 13 21 7143 42.75600000 3179569756 3179569756 3.33300000
40.30330276 12.44512939 1.71849859 8 22 7144 42.21600000 3179569758 3179569758 2.33300000
20.66359901 7.50460196 -1.02405691 22 23 7144 22.00800000 3179569758 3179569758 -2.66700000
20.63801193 6.36880112 -1.13192201 29 24 7145 21.62800000 3179569760 3179569760 -3.00000000
43.55543518 15.80985069 5.68934822 19 25 7145 46.68400000 3179569760 3179569760 7.00000000
20.68960762 8.67162704 -0.91395986 28 27 7146 22.45200000 3179569763 3179569763 -2.33300000
20.67505646 5.28153658 -0.74517405 14 28 7147 21.35200000 3179569765 3179569765 -2.00000000
49.45403671 15.23294735 9.43480206 16 30 7148 52.60000000 3179569767 3179569767 10.33300000
36.72059250 13.30716801 -0.90884435 5 31 7148 39.06800000 3179569767 3179569767 -1.33300000
5.59426117 1.71460879 -2.72842360 8 0 7156 6.45600000 3179569788 3179569788 -25.00000000
38.93113327 16.23736572 -0.73628211 17 1 7156 42.18800000 3179569788 3179569788 -1.00000000
35.40468597 10.84457302 -1.07762969 7 2 7157 37.04400000 3179569790 3179569790 -1.66700000
8.33407593 3.00538206 -2.48009324 3 3 7157 9.20000000 3179569790 3179569790 -15.63900000
11.03032207 3.37651849 -2.30712390 2 4 7158 11.76400000 3179569793 3179569793 -11.31000000
40.31731796 14.53102684 0.00000000 21 5 7158 42.85600000 3179569793 3179569793 0.00000000
40.52036667 10.26828003 -0.48664385 20 6 7158 41.80400000 3179569795 3179569795 -0.66700000
12.86910439 4.63823748 -2.12820292 1 7 7158 13.84400000 3179569795 3179569795 -8.84300000
15.18139458 4.64431524 -2.02079654 2 8 7159 16.00400000 3179569797 3179569797 -7.25400000
40.33698273 16.79892540 0.25395739 18 9 7159 43.69600000 3179569797 3179569797 0.33300000
40.39745712 12.35074139 -0.24551848 16 10 7160 42.24400000 3179569800 3179569800 -0.33300000
16.28465080 5.86283493 -1.86434543 4 11 7160 17.40800000 3179569800 3179569800 -6.14800000
18.68418312 4.72435570 -1.79902542 6 12 7161 19.35600000 3179569802 3179569802 -5.33300000
40.30271912 14.50192642 0.99668598 21 13 7161 42.84400000 3179569802 3179569802 1.33300000
40.36077499 10.19785690 0.48464158 29 14 7162 41.63200000 3179569804 3179569804 0.66700000
20.61400032 7.41336918 -1.53185213 6 15 7162 21.96000000 3179569804 3179569804 -4.00000000
19.52330780 5.95769787 -1.66634440 5 16 7163 20.48000000 3179569807 3179569807 -4.66700000
40.28799820 16.74553108 1.26974368 17 17 7163 43.64800000 3179569807 3179569807 1.66700000
40.38314438 12.32324886 0.73698020 9 18 7163 42.22800000 3179569809 3179569809 1.00000000
20.60520363 8.56446266 -1.43009055 7 19 7163 22.36000000 3179569809 3179569809 -3.66700000
20.61789513 5.20181656 -1.23836112 19 20 7164 21.30000000 3179569811 3179569811 -3.33300000
40.10269165 14.40623856 2.48160601 19 21 7164 42.68400000 3179569811 3179569811 3.33300000
40.60478973 12.37539387 1.72940814 9 22 7165 42.48400000 3179569813 3179569813 2.33300000
20.67216301 7.42206478 -1.02312636 24 23 7165 21.98800000 3179569813 3179569813 -2.66700000
20.63828850 6.28613281 -1.13066602 32 24 7166 21.60400000 3179569816 3179569816 -3.00000000
43.81114197 15.72117519 5.71518469 28 25 7166 46.89600000 3179569816 3179569816 7.00000000
41.81241608 12.72750092 3.56799483 19 26 7167 43.85200000 3179569818 3179569818 4.66700000
20.68433571 8.58042336 -0.91233158 28 27 7167 22.41200000 3179569818 3179569818 -2.33300000
20.68264580 5.20279741 -0.74475527 14 28 7168 21.34000000 3179569820 3179569820 -2.00000000
49.56601334 15.06875610 9.44556427 16 30 7169 52.66000000 3179569823 3179569823 10.33300000
36.94605637 13.23587894 -0.91321784 5 31 7169 39.25600000 3179569823 3179569823 -1.33300000
5.60021210 1.69507074 -2.72842360 8 0 7176 6.45600000 3179569843 3179569843 -25.00000000
39.24263763 16.20670891 -0.74109900 9 1 7176 42.46400000 3179569843 3179569843 -1.00000000
35.49207687 10.73597050 -1.07914245 7 2 7177 37.09600000 3179569846 3179569846 -1.66700000
8.34451580 2.97627234 -2.48009324 2 3 7177 9.20000000 3179569846 3179569846 -15.63900000
11.03828621 3.33685994 -2.30633926 4 4 7178 11.76000000 3179569848 3179569848 -11.31000000
40.30751038 14.36871433 0.00000000 21 5 7178 42.79200000 3179569848 3179569848 0.00000000
40.53656006 10.12193012 -0.48641101 20 6 7178 41.78400000 3179569850 3179569850 -0.66700000
12.89266205 4.59594202 -2.12943268 1 7 7178 13.85200000 3179569850 3179569850 -8.84300000
15.19751358 4.59129429 -2.02079654 2 8 7179 16.00400000 3179569853 3179569853 -7.25400000
40.32141876 16.62752342 0.25349241 18 9 7179 43.61600000 3179569853 3179569853 0.33300000
40.51307678 12.23161888 -0.24596019 24 10 7180 42.32000000 3179569855 3179569855 -0.33300000
16.30501747 5.80595541 -1.86434543 2 11 7180 17.40800000 3179569855 3179569855 -6.14800000
18.70829010 4.66103268 -1.79976892 4 12 7181 19.36400000 3179569857 3179569857 -5.33300000
40.29658127 14.34104347 0.99529016 21 13 7181 42.78400000 3179569857 3179569857 1.33300000
40.34567261 10.04434776 0.48403624 29 14 7182 41.58000000 3179569859 3179569859 0.66700000
20.59839630 7.32665825 -1.52878284 8 15 7182 21.91600000 3179569859 3179569859 -4.00000000
19.55161858 5.89181328 -1.66699529 5 16 7183 20.48800000 3179569862 3179569862 -4.66700000
40.28335190 16.57892799 1.26776552 17 17 7183 43.58000000 3179569862 3179569862 1.66700000
40.56377029 12.22375298 0.73949337 29 18 7183 42.37200000 3179569864 3179569864 1.00000000
20.59436798 8.47577381 -1.42727649 7 19 7183 22.31600000 3179569864 3179569864 -3.66700000
20.62042618 5.12596130 -1.23743093 16 20 7184 21.28400000 3179569866 3179569866 -3.33300000
40.06995010 14.23675442 2.47648978 19 21 7184 42.59600000 3179569866 3179569866 3.33300000
40.59033585 12.21630383 1.72696567 18 22 7185 42.42400000 3179569869 3179569869 2.33300000
20.66782188 7.33916378 -1.02163732 24 23 7185 21.95600000 3179569869 3179569869 -2.66700000
20.64863014 6.21060181 -1.13003802 25 24 7186 21.59200000 3179569871 3179569871 -3.00000000
43.06132126 15.28265476 5.61037731 28 25 7186 46.03600000 3179569871 3179569871 7.00000000
41.94440079 12.60786629 3.57548046 29 26 7187 43.94400000 3179569873 3179569873 4.66700000
20.68088722 8.49450302 -0.91086608 33 27 7187 22.37600000 3179569873 3179569873 -2.33300000
20.68515968 5.12672281 -0.74419689 14 28 7188 21.32400000 3179569876 3179569876 -2.00000000
49.72383881 14.92732716 9.46565342 16 30 7189 52.77200000 3179569878 3179569878 10.33300000
37.13526535 13.15758228 -0.91675383 5 31 7189 39.40800000 3179569878 3179569878 -1.33300000
5.60927582 1.67752910 -2.73011398 7 0 7195 6.46000000 3179569899 3179569899 -25.00000000
39.28136063 16.07042885 -0.74081975 18 1 7195 42.44800000 3179569899 3179569899 -1.00000000
35.67305756 10.66172409 -1.08356416 7 2 7196 37.24800000 3179569901 3179569901 -1.66700000
8.35070705 2.94730258 -2.47901511 2 3 7196 9.19600000 3179569901 3179569901 -15.63900000
11.04929066 3.30023718 -2.30633926 4 4 7197 11.76000000 3179569903 3179569903 -11.31000000
40.32098770 14.22299576 0.00000000 14 5 7197 42.75600000 3179569903 3179569903 0.00000000
40.60485458 9.99605560 -0.48683009 31 6 7197 41.82000000 3179569906 3179569906 -0.66700000
12.90783215 4.55316305 -2.12943268 1 7 7197 13.85200000 3179569906 3179569906 -8.84300000
15.21645737 4.54200697 -2.02130175 4 8 7198 16.00800000 3179569908 3179569908 -7.25400000
40.30598068 16.46498108 0.25305071 18 9 7198 43.54000000 3179569908 3179569908 0.33300000
40.51125336 12.08462811 -0.24570446 16 10 7199 42.27600000 3179569910 3179569910 -0.33300000
16.32418060 5.75185394 -1.86434543 2 11 7199 17.40800000 3179569910 3179569910 -6.14800000
18.72751045 4.59991789 -1.80014074 4 12 7200 19.36800000 3179569912 3179569912 -5.33300000
40.21944427 14.16350269 0.99221945 21 13 7200 42.65200000 3179569912 3179569912 1.33300000
40.41371918 9.91908264 0.48445532 19 14 7201 41.61600000 3179569915 3179569915 0.66700000
20.60375977 7.25168753 -1.52738774 16 15 7201 21.89600000 3179569915 3179569915 -4.00000000
19.57869148 5.82922077 -1.66764629 5 16 7202 20.49600000 3179569917 3179569917 -4.66700000
40.28256989 16.42261124 1.26602006 17 17 7202 43.52000000 3179569917 3179569917 1.66700000
40.49675369 12.05721664 0.73753870 29 18 7202 42.26000000 3179569919 3179569919 1.00000000
20.60387993 8.39989853 -1.42599726 15 19 7202 22.29600000 3179569919 3179569919 -3.66700000
20.61404037 5.05185032 -1.23603559 19 20 7203 21.26000000 3179569922 3179569922 -3.33300000
40.01522827 14.06803989 2.47021079 19 21 7203 42.48800000 3179569922 3179569922 3.33300000
40.42375183 12.02012157 1.71817291 17 22 7204 42.20800000 3179569924 3179569924 2.33300000
20.66942787 7.26263905 -1.02052057 24 23 7204 21.93200000 3179569924 3179569924 -2.66700000
20.64230728 6.13412952 -1.12857258 29 24 7205 21.56400000 3179569926 3179569926 -3.00000000
43.25410843 15.18976212 5.62890100 28 25 7205 46.18800000 3179569926 3179569926 7.00000000
42.35287094 12.57766056 3.60672426 30 26 7206 44.32800000 3179569929 3179569929 4.66700000
20.67932701 8.41382599 -0.90956348 28 27 7206 22.34400000 3179569929 3179569929 -2.33300000
20.67874718 5.05240774 -0.74335927 14 28 7207 21.30000000 3179569931 3179569931 -2.00000000
49.44228363 14.67363548 9.40323353 15 30 7207 52.42400000 3179569933 3179569933 10.33300000
37.35754776 13.10439014 -0.92122036 5 31 7207 39.60000000 3179569933 3179569933 -1.33300000
5.61886358 1.65798485 -2.73180437 7 0 7216 6.46400000 3179569954 3179569954 -25.00000000
39.34741211 15.92934895 -0.74095935 9 1 7216 42.45600000 3179569954 3179569954 -1.00000000
35.77325439 10.54899788 -1.08542597 7 2 7217 37.31200000 3179569956 3179569956 -1.66700000
8.36509037 2.91794467 -2.48009324 2 3 7217 9.20000000 3179569956 3179569956 -15.63900000
11.06131268 3.25971746 -2.30633926 4 4 7218 11.76000000 3179569959 3179569959 -11.31000000
40.34262848 14.06458187 0.00000000 21 5 7218 42.72400000 3179569959 3179569959 0.00000000
40.65071106 9.84195328 -0.48692322 31 6 7219 41.82800000 3179569961 3179569961 -0.66700000
12.92148685 4.50226688 -2.12881780 1 7 7219 13.84800000 3179569961 3179569961 -8.84300000
15.22919655 4.48508453 -2.02079654 2 8 7219 16.00400000 3179569963 3179569963 -7.25400000
40.30301285 16.29165649 0.25265551 18 9 7219 43.47200000 3179569963 3179569963 0.33300000
40.50155258 11.92025471 -0.24537900 24 10 7220 42.22000000 3179569965 3179569965 -0.33300000
16.34139633 5.69067621 -1.86391699 2 11 7220 17.40400000 3179569965 3179569965 -6.14800000
18.75198746 4.53311872 -1.80088425 6 12 7221 19.37600000 3179569968 3179569968 -5.33300000
40.25598145 14.01073837 0.99184722 14 13 7221 42.63600000 3179569968 3179569968 1.33300000
40.41869736 9.76337910 0.48408279 19 14 7222 41.58400000 3179569970 3179569970 0.66700000
20.60381889 7.16694546 -1.52543461 14 15 7222 21.86800000 3179569970 3179569970 -4.00000000
19.59992599 5.75742197 -1.66764629 5 16 7223 20.49600000 3179569972 3179569972 -4.66700000
40.26462555 16.24344444 1.26357639 17 17 7223 43.43600000 3179569972 3179569972 1.66700000
40.47367859 11.88135433 0.73628211 19 18 7224 42.18800000 3179569975 3179569975 1.00000000
20.60266113 8.30728912 -1.42369485 23 19 7224 22.26000000 3179569975 3179569975 -3.66700000
20.61300659 4.97158098 -1.23487282 19 20 7224 21.24000000 3179569977 3179569977 -3.33300000
40.05143356 13.91604042 2.46928048 19 21 7224 42.47200000 3179569977 3179569977 3.33300000
40.48287964 11.87638092 1.71882427 26 22 7225 42.22400000 3179569979 3179569979 2.33300000
20.65816116 7.17372561 -1.01865935 22 23 7225 21.89200000 3179569979 3179569979 -2.66700000
20.64548683 6.05281162 -1.12752581 32 24 7226 21.54400000 3179569982 3179569982 -3.00000000
43.73707199 15.17952347 5.68447351 19 25 7226 46.64400000 3179569982 3179569982 7.00000000
42.59380722 12.47951317 3.62332273 20 26 7227 44.53200000 3179569984 3179569984 4.66700000
20.69148827 8.33051300 -0.90874934 26 27 7227 22.32400000 3179569984 3179569984 -2.33300000
20.67380524 4.97097492 -0.74252170 14 28 7228 21.27600000 3179569986 3179569986 -2.00000000
37.44688797 12.98178768 -0.92224395 5 31 7228 39.64400000 3179569989 3179569989 -1.33300000
5.62809706 1.63937509 -2.73349500 7 0 7236 6.46800000 3179570009 3179570009 -25.00000000
39.38421249 15.78446484 -0.74061030 18 1 7236 42.43600000 3179570009 3179570009 -1.00000000
35.94422531 10.46317482 -1.08949864 7 2 7237 37.45200000 3179570012 3179570012 -1.66700000
8.37886620 2.88998318 -2.48117161 4 3 7237 9.20400000 3179570012 3179570012 -15.63900000
11.07639027 3.22218204 -2.30712390 2 4 7238 11.76400000 3179570014 3179570014 -11.31000000
40.33853531 13.90542412 0.00000000 21 5 7238 42.66800000 3179570014 3179570014 0.00000000
39.49427414 9.41614723 -0.47267455 9 6 7239 40.60400000 3179570016 3179570016 -0.66700000
12.94833469 4.46099710 -2.13066244 1 7 7239 13.86000000 3179570016 3179570016 -8.84300000
15.24094868 4.43078947 -2.02029157 2 8 7239 16.00000000 3179570018 3179570018 -7.25400000
40.33364105 16.14047241 0.25249279 27 9 7239 43.44400000 3179570018 3179570018 0.33300000
40.50066376 11.76653004 -0.24512327 24 10 7240 42.17600000 3179570021 3179570021 -0.33300000
16.36868095 5.63618898 -1.86477375 2 11 7240 17.41200000 3179570021 3179570021 -6.14800000
18.76769638 4.46763468 -1.80088425 6 12 7241 19.37600000 3179570023 3179570023 -5.33300000
40.27439117 13.85972309 0.99110281 13 13 7241 42.60400000 3179570023 3179570023 1.33300000
40.37860107 9.60464573 0.48319808 19 14 7242 41.50800000 3179570025 3179570025 0.66700000
20.60229683 7.08589697 -1.52348137 16 15 7242 21.84000000 3179570025 3179570025 -4.00000000
19.61607361 5.68786001 -1.66732073 5 16 7243 20.49200000 3179570028 3179570028 -4.66700000
40.26909637 16.08203697 1.26194739 17 17 7243 43.38000000 3179570028 3179570028 1.66700000
40.45523834 11.73036671 0.73523498 19 18 7243 42.12800000 3179570030 3179570030 1.00000000
20.60043907 8.22707844 -1.42164814 26 19 7243 22.22800000 3179570030 3179570030 -3.66700000
20.61469460 4.89590693 -1.23394263 16 20 7244 21.22400000 3179570032 3179570032 -3.33300000
40.00912857 13.74501133 2.46369910 19 21 7244 42.37600000 3179570032 3179570032 3.33300000
40.50105286 11.72832680 1.71784723 17 22 7245 42.20000000 3179570035 3179570035 2.33300000
20.65662384 7.09248829 -1.01735651 22 23 7245 21.86400000 3179570035 3179570035 -2.66700000
20.63579178 5.97182512 -1.12585104 29 24 7246 21.51200000 3179570037 3179570037 -3.00000000
42.47242737 12.28313065 3.60932803 30 26 7247 44.36000000 3179570039 3179570039 4.66700000
20.69816589 8.24935722 -0.90777236 26 27 7247 22.30000000 3179570039 3179570039 -2.33300000
20.67158127 4.89417458 -0.74182367 16 28 7248 21.25600000 3179570042 3179570042 -2.00000000
37.63950729 12.90156364 -0.92587298 5 31 7248 39.80000000 3179570044 3179570044 -1.33300000
5.63030148 1.61871767 -2.73180437 6 0 7256 6.46400000 3179570065 3179570065 -25.00000000
39.31267548 15.59674644 -0.73823678 17 1 7256 42.30000000 3179570065 3179570065 -1.00000000
36.07275772 10.36414051 -1.09229136 7 2 7257 37.54800000 3179570067 3179570067 -1.66700000
8.38525772 2.85947466 -2.48009324 2 3 7257 9.20000000 3179570067 3179570067 -15.63900000
11.08757019 3.18349862 -2.30712390 2 4 7258 11.76400000 3179570070 3179570070 -11.31000000
40.32624817 13.74388504 0.00000000 21 5 7258 42.60400000 3179570070 3179570070 0.00000000
39.70049667 9.32628918 -0.47476995 30 6 7258 40.78400000 3179570072 3179570072 -0.66700000
12.95183372 4.41420937 -2.12881780 2 7 7258 13.84800000 3179570072 3179570072 -8.84300000
15.26395035 4.37975073 -2.02130175 4 8 7259 16.00800000 3179570074 3179570074 -7.25400000
40.30048370 15.96422768 0.25193483 27 9 7259 43.34800000 3179570074 3179570074 0.33300000
40.51072693 11.61626434 -0.24493729 23 10 7260 42.14400000 3179570077 3179570077 -0.33300000
16.38449097 5.57773590 -1.86434543 2 11 7260 17.40800000 3179570077 3179570077 -6.14800000
18.78705406 4.40300465 -1.80125606 6 12 7261 19.38000000 3179570079 3179570079 -5.33300000
40.28466797 13.70617390 0.99017233 20 13 7261 42.56400000 3179570079 3179570079 1.33300000
40.14706421 9.40162468 0.48003170 19 14 7262 41.23600000 3179570081 3179570081 0.66700000
20.59668350 7.00366116 -1.52124918 16 15 7262 21.80800000 3179570081 3179570081 -4.00000000
19.65114021 5.62374020 -1.66862261 5 16 7263 20.50800000 3179570083 3179570083 -4.66700000
40.27293015 15.92079353 1.26031828 17 17 7263 43.32400000 3179570083 3179570083 1.66700000
40.46517944 11.58027744 0.73467648 9 18 7263 42.09600000 3179570086 3179570086 1.00000000
20.59933281 8.14337921 -1.41960156 26 19 7263 22.19600000 3179570086 3179570086 -3.66700000
20.60832977 4.81846380 -1.23254728 13 20 7264 21.20000000 3179570088 3179570088 -3.33300000
40.06064224 13.60655403 2.46393180 19 21 7264 42.38000000 3179570088 3179570088 3.33300000
40.52637482 11.58248711 1.71719587 26 22 7265 42.18400000 3179570090 3179570090 2.33300000
20.65855408 7.01263380 -1.01623976 22 23 7265 21.84000000 3179570090 3179570090 -2.66700000
20.63730621 5.89427137 -1.12480438 29 24 7266 21.49200000 3179570093 3179570093 -3.00000000
