# .PCD v0.7 - Point Cloud Data file format
VERSION 0.7
FIELDS x y z intensity laser_id azimuth distance_m adjustedtime timestamp vertical_angle
SIZE 4 4 4 1 1 2 8 8 4 8
TYPE F F F U U U F U U F
COUNT 1 1 1 1 1 1 1 1 1 1
WIDTH 524
HEIGHT 1
VIEWPOINT 0 0 0 1 0 0 0
POINTS 524
DATA ascii
17.42502022 1.76996899 -1.88662159 2 11 8560 17.61600000 3181773678 3181773678 -6.14800000
19.82171631 0.06573154 -1.85033047 4 12 8561 19.90800000 3181773680 3181773680 -5.33300000
39.64591599 4.02009439 0.92726874 18 13 8561 39.86000000 3181773680 3181773680 1.33300000
40.24107361 0.12642148 0.46848375 17 14 8562 40.24400000 3181773682 3181773682 0.66700000
20.54062271 2.07919645 -1.44367993 31 15 8562 20.69600000 3181773682 3181773682 -4.00000000
20.50411987 1.06381035 -1.67610812 18 16 8563 20.60000000 3181773685 3181773685 -4.66700000
39.59594727 5.96711922 1.16536677 22 17 8563 40.06000000 3181773685 3181773685 1.66700000
39.82435989 2.06619763 0.69607180 16 18 8563 39.88400000 3181773687 3181773687 1.00000000
20.54538536 3.09619451 -1.33159602 31 19 8563 20.82000000 3181773687 3181773687 -3.66700000
20.54111481 0.05736176 -1.19626844 21 20 8564 20.57600000 3181773689 3181773689 -3.33300000
39.72674942 4.00727749 2.32532835 33 21 8564 39.99600000 3181773689 3181773689 3.33300000
39.55066681 2.03815484 1.61347377 24 22 8565 39.63600000 3181773692 3181773692 2.33300000
20.59739304 2.07404852 -0.96431100 23 23 8565 20.72400000 3181773692 3181773692 -2.66700000
20.56064796 1.05594897 -1.07895803 37 24 8566 20.61600000 3181773694 3181773694 -3.00000000
40.92488098 4.11370373 5.05026579 16 25 8566 41.44000000 3181773694 3181773694 7.00000000
42.36741638 2.16848183 3.46319747 28 26 8567 42.56400000 3181773696 3181773696 4.66700000
20.62796402 3.09391284 -0.84980518 24 27 8567 20.87600000 3181773696 3181773696 -2.33300000
36.35775757 0.07614762 -1.26964366 6 28 8568 36.38000000 3181773699 3181773699 -2.00000000
39.59907150 3.96647358 -0.92605907 41 31 8568 39.80800000 3181773701 3181773701 -1.33300000
5.87652349 0.29152250 -2.74363780 6 0 8576 6.49200000 3181773722 3181773722 -25.00000000
39.82188034 5.90879345 -0.70270371 17 1 8576 40.26400000 3181773722 3181773722 -1.00000000
39.28337860 1.94189620 -1.14465439 24 2 8577 39.34800000 3181773724 3181773724 -1.66700000
8.89334011 0.87670118 -2.50165939 2 3 8577 9.28000000 3181773724 3181773724 -15.63900000
11.72137547 0.57737225 -2.34713173 2 4 8578 11.96800000 3181773726 3181773726 -11.31000000
39.96298218 3.93248892 0.00000000 19 5 8578 40.15600000 3181773726 3181773726 0.00000000
40.37326050 0.01409293 -0.47002038 29 6 8578 40.37600000 3181773729 3181773729 -0.66700000
13.83396053 1.36130726 -2.16263771 2 7 8578 14.06800000 3181773729 3181773729 -8.84300000
16.18180084 0.79425311 -2.06221271 2 8 8579 16.33200000 3181773731 3181773731 -7.25400000
39.94906998 5.90629005 0.23470832 25 9 8579 40.38400000 3181773731 3181773731 0.33300000
40.06742859 1.95962429 -0.23315074 15 10 8580 40.11600000 3181773733 3181773733 -0.33300000
17.41921806 1.70796931 -1.88533640 2 11 8580 17.60400000 3181773733 3181773733 -6.14800000
19.83775520 -0.00346234 -1.85181761 6 12 8581 19.92400000 3181773735 3181773735 -5.33300000
39.89054108 3.90427279 0.93266582 12 13 8581 40.09200000 3181773735 3181773735 1.33300000
40.23327255 -0.01404406 0.46839061 17 14 8582 40.23600000 3181773738 3181773738 0.66700000
20.54378319 2.00709581 -1.44340098 29 15 8582 20.69200000 3181773738 3181773738 -4.00000000
20.51169205 0.99242377 -1.67643356 21 16 8583 20.60400000 3181773740 3181773740 -4.66700000
39.63235855 5.83119488 1.16583228 22 17 8583 40.07600000 3181773740 3181773740 1.66700000
39.71981430 1.91482794 0.69411713 24 18 8584 39.77200000 3181773742 3181773742 1.00000000
20.54079628 3.01854968 -1.33057261 29 19 8584 20.80400000 3181773742 3181773742 -3.66700000
20.53719711 -0.01433767 -1.19603598 21 20 8584 20.57200000 3181773745 3181773745 -3.33300000
39.79216385 3.87361026 2.32835150 28 21 8584 40.04800000 3181773745 3181773745 3.33300000
39.74516678 1.90909731 1.62112677 16 22 8585 39.82400000 3181773747 3181773747 2.33300000
20.60450745 2.00213742 -0.96431100 24 23 8585 20.72400000 3181773747 3181773747 -2.66700000
20.57218933 0.98455435 -1.07937682 33 24 8586 20.62400000 3181773749 3181773749 -3.00000000
41.34205627 4.00991917 5.09998846 73 25 8586 41.84800000 3181773749 3181773749 7.00000000
42.33092499 2.01849008 3.45961738 18 26 8587 42.52000000 3181773752 3181773752 4.66700000
20.63072968 3.02073097 -0.84947956 22 27 8587 20.86800000 3181773752 3181773752 -2.33300000
36.49372101 -0.05095488 -1.27438998 6 28 8588 36.51600000 3181773754 3181773754 -2.00000000
39.65645981 3.83245420 -0.92708266 30 31 8588 39.85200000 3181773756 3181773756 -1.33300000
5.87741041 0.27305946 -2.74363780 7 0 8594 6.49200000 3181773777 3181773777 -25.00000000
39.80462265 5.77848911 -0.70207542 17 1 8594 40.22800000 3181773777 3181773777 -1.00000000
39.09357834 1.80941629 -1.13895261 24 2 8595 39.15200000 3181773779 3181773779 -1.66700000
8.88838100 0.84802592 -2.49950266 2 3 8595 9.27200000 3181773779 3181773779 -15.63900000
11.74272251 0.54144901 -2.35105419 4 4 8596 11.98800000 3181773781 3181773781 -11.31000000
39.93531799 3.80313015 0.00000000 19 5 8596 40.11600000 3181773781 3181773781 0.00000000
40.27709198 -0.11950489 -0.46890283 19 6 8597 40.28000000 3181773784 3181773784 -0.66700000
13.85020256 1.31654680 -2.16448259 3 7 8597 14.08000000 3181773784 3181773784 -8.84300000
16.18421555 0.74341267 -2.06221271 2 8 8597 16.33200000 3181773786 3181773786 -7.25400000
39.99909592 5.78533792 0.23489431 25 9 8597 40.41600000 3181773786 3181773786 0.33300000
40.08537674 1.83428776 -0.23322047 15 10 8598 40.12800000 3181773788 3181773788 -0.33300000
17.44429398 1.65511513 -1.88747835 2 11 8598 17.62400000 3181773788 3181773788 -6.14800000
19.84959412 -0.06582399 -1.85293293 4 12 8599 19.93600000 3181773791 3181773791 -5.33300000
39.76725388 3.76611495 0.92950201 18 13 8599 39.95600000 3181773791 3181773791 1.33300000
40.23302841 -0.14044033 0.46839061 17 14 8600 40.23600000 3181773793 3181773793 0.66700000
20.53806877 1.94141912 -1.44256389 28 15 8600 20.68000000 3181773793 3181773793 -4.00000000
20.51072502 0.92779940 -1.67610812 21 16 8601 20.60000000 3181773795 3181773795 -4.66700000
39.62673569 5.70324039 1.16513407 22 17 8601 40.05200000 3181773795 3181773795 1.66700000
39.95305252 1.80727005 0.69809628 17 18 8601 40.00000000 3181773798 3181773798 1.00000000
20.54176140 2.95645332 -1.33006096 29 19 8601 20.79600000 3181773798 3181773798 -3.66700000
20.53305817 -0.07884167 -1.19580340 21 20 8602 20.56800000 3181773800 3181773800 -3.33300000
39.81208801 3.74932957 2.32881665 45 21 8602 40.05600000 3181773800 3181773800 3.33300000
39.68309402 1.78117836 1.61835861 25 22 8603 39.75600000 3181773802 3181773802 2.33300000
20.59876060 1.93627489 -0.96375263 22 23 8603 20.71200000 3181773802 3181773802 -2.66700000
20.56719971 0.91956329 -1.07895803 33 24 8604 20.61600000 3181773805 3181773805 -3.00000000
41.03031921 3.84960866 5.06001520 16 25 8604 41.52000000 3181773805 3181773805 7.00000000
101.80807495 4.53405380 8.31935501 28 26 8605 102.24800000 3181773807 3181773807 4.66700000
20.62824821 2.95420289 -0.84899104 22 27 8605 20.85600000 3181773807 3181773807 -2.33300000
36.58932114 -0.16603822 -1.27774036 6 28 8606 36.61200000 3181773809 3181773809 -2.00000000
39.61718750 3.69609857 -0.92587298 41 31 8607 39.80000000 3181773811 3181773811 -1.33300000
5.88565969 0.25079852 -2.74701881 7 0 8616 6.50000000 3181773832 3181773832 -25.00000000
39.91760254 5.63847399 -0.70368105 25 1 8616 40.32000000 3181773832 3181773832 -1.00000000
39.19211578 1.66319382 -1.14162886 24 2 8617 39.24400000 3181773834 3181773834 -1.66700000
8.89924335 0.81459308 -2.50165939 2 3 8617 9.28000000 3181773834 3181773834 -15.63900000
11.73295784 0.49585947 -2.34870076 3 4 8618 11.97600000 3181773837 3181773837 -11.31000000
39.95759201 3.65048981 0.00000000 19 5 8618 40.12400000 3181773837 3181773837 0.00000000
40.28033829 -0.27418378 -0.46894941 29 6 8619 40.28400000 3181773839 3181773839 -0.66700000
13.85515594 1.26335621 -2.16448259 2 7 8619 14.08000000 3181773839 3181773839 -8.84300000
16.19884491 0.68176496 -2.06372786 2 8 8619 16.34400000 3181773841 3181773841 -7.25400000
39.89426804 5.61387396 0.23415038 25 9 8619 40.28800000 3181773841 3181773841 0.33300000
39.98022461 1.67566788 -0.23256955 22 10 8620 40.01600000 3181773844 3181773844 -0.33300000
17.45052147 1.58812177 -1.88747835 2 11 8620 17.62400000 3181773844 3181773844 -6.14800000
19.85716057 -0.14209729 -1.85367656 6 12 8621 19.94400000 3181773846 3181773846 -5.33300000
39.71371841 3.60724282 0.92792016 18 13 8621 39.88800000 3181773846 3181773846 1.33300000
40.22019196 -0.29483470 0.46825093 17 14 8622 40.22400000 3181773848 3181773848 0.66700000
20.53345108 1.86146379 -1.44172680 29 15 8622 20.66800000 3181773848 3181773848 -4.00000000
20.51015282 0.84887242 -1.67578268 26 16 8623 20.59600000 3181773851 3181773851 -4.66700000
39.40680313 5.51722527 1.15803599 22 17 8623 39.80800000 3181773851 3181773851 1.66700000
39.65200806 1.64111376 0.69272089 16 18 8623 39.69200000 3181773853 3181773853 1.00000000
20.53714752 2.87534308 -1.32903767 31 19 8623 20.78000000 3181773853 3181773853 -3.66700000
20.53260422 -0.15768218 -1.19580340 18 20 8624 20.56800000 3181773855 3181773855 -3.33300000
39.75857925 3.59032941 2.32486320 38 21 8624 39.98800000 3181773855 3181773855 3.33300000
39.74953842 1.63125157 1.62080109 25 22 8625 39.81600000 3181773858 3181773858 2.33300000
20.59410477 1.85609126 -0.96319425 22 23 8625 20.70000000 3181773858 3181773858 -2.66700000
20.56259727 0.84025818 -1.07853937 37 24 8626 20.60800000 3181773860 3181773860 -3.00000000
42.02544403 3.78024602 5.18090963 24 25 8626 42.51200000 3181773860 3181773860 7.00000000
96.25588226 3.91651750 7.86436462 28 26 8627 96.65600000 3181773862 3181773862 4.66700000
20.62756348 2.87332034 -0.84850258 26 27 8627 20.84400000 3181773862 3181773862 -2.33300000
36.70433807 -0.30750075 -1.28178871 6 28 8628 36.72800000 3181773864 3181773864 -2.00000000
39.69818115 3.55693626 -0.92745489 20 31 8628 39.86800000 3181773867 3181773867 -1.33300000
5.88287687 0.23011053 -2.74532819 7 0 8636 6.49600000 3181773887 3181773887 -25.00000000
39.91722870 5.49637318 -0.70333201 25 1 8636 40.30000000 3181773887 3181773887 -1.00000000
39.24962234 1.52840018 -1.14314163 24 2 8637 39.29600000 3181773890 3181773890 -1.66700000
8.89435863 0.78284848 -2.49950266 2 3 8637 9.27200000 3181773890 3181773890 -15.63900000
11.74245644 0.45520467 -2.35026956 4 4 8638 11.98400000 3181773892 3181773892 -11.31000000
39.97407913 3.51133943 0.00000000 19 5 8638 40.12800000 3181773892 3181773892 0.00000000
40.28320694 -0.40779719 -0.46899596 29 6 8638 40.28800000 3181773894 3181773894 -0.66700000
13.86320686 1.21774971 -2.16509748 2 7 8638 14.08400000 3181773894 3181773894 -8.84300000
16.19716072 0.62506324 -2.06322289 2 8 8639 16.34000000 3181773897 3181773897 -7.25400000
39.83436203 5.46371222 0.23368542 25 9 8639 40.20800000 3181773897 3181773897 0.33300000
40.10174179 1.54055357 -0.23324372 15 10 8640 40.13200000 3181773899 3181773899 -0.33300000
17.46388245 1.52789164 -1.88833511 2 11 8640 17.63200000 3181773899 3181773899 -6.14800000
19.86450768 -0.21149565 -1.85442007 4 12 8641 19.95200000 3181773901 3181773901 -5.33300000
39.84558105 3.47902894 0.93071169 18 13 8641 40.00800000 3181773901 3181773901 1.33300000
40.20692062 -0.43509775 0.46811125 17 14 8642 40.21200000 3181773904 3181773904 0.66700000
20.52392197 1.78839171 -1.44061065 31 15 8642 20.65200000 3181773904 3181773904 -4.00000000
20.50502396 0.77697152 -1.67513180 25 16 8643 20.58800000 3181773906 3181773906 -4.66700000
39.31885910 5.36504126 1.15489423 22 17 8643 39.70000000 3181773906 3181773906 1.66700000
40.03316879 1.51692736 0.69928300 17 18 8643 40.06800000 3181773908 3181773908 1.00000000
20.53915024 2.80255818 -1.32852602 29 19 8643 20.77200000 3181773908 3181773908 -3.66700000
20.53592110 -0.22939798 -1.19603598 18 20 8644 20.57200000 3181773911 3181773911 -3.33300000
39.66345596 3.44220233 2.31858420 27 21 8644 39.88000000 3181773911 3181773911 3.33300000
39.61520767 1.48724198 1.61510205 24 22 8645 39.67600000 3181773913 3181773913 2.33300000
20.59647751 1.78384829 -0.96300811 22 23 8645 20.69600000 3181773913 3181773913 -2.66700000
20.56540489 0.76847619 -1.07853937 33 24 8646 20.60800000 3181773915 3181773915 -3.00000000
41.27894211 3.56788516 5.08731365 16 25 8646 41.74400000 3181773915 3181773915 7.00000000
96.24108124 3.57946062 7.86208630 28 26 8647 96.62800000 3181773917 3181773917 4.66700000
20.62162781 2.79914904 -0.84785122 22 27 8647 20.82800000 3181773917 3181773917 -2.33300000
36.75900269 -0.43628511 -1.28374314 6 28 8648 36.78400000 3181773920 3181773920 -2.00000000
39.73086929 3.41312265 -0.92792016 25 31 8649 39.88800000 3181773922 3181773922 -1.33300000
5.88726711 0.20970309 -2.74701881 7 0 8656 6.50000000 3181773943 3181773943 -25.00000000
39.90049744 5.35221720 -0.70270371 25 1 8656 40.26400000 3181773943 3181773943 -1.00000000
39.31465530 1.39350855 -1.14488709 24 2 8657 39.35600000 3181773945 3181773945 -1.66700000
8.90855217 0.75276959 -2.50273776 2 3 8657 9.28400000 3181773945 3181773945 -15.63900000
11.74789333 0.41435131 -2.35105419 4 4 8658 11.98800000 3181773947 3181773947 -11.31000000
39.99804688 3.37279081 0.00000000 19 5 8658 40.14000000 3181773947 3181773947 0.00000000
40.26554108 -0.54819155 -0.46880969 29 6 8658 40.27200000 3181773950 3181773950 -0.66700000
13.87131119 1.16968286 -2.16571236 2 7 8658 14.08800000 3181773950 3181773950 -8.84300000
16.21113968 0.56893831 -2.06473804 2 8 8659 16.35200000 3181773952 3181773952 -7.25400000
39.82543945 5.32092285 0.23352270 25 9 8659 40.18000000 3181773952 3181773952 0.33300000
40.10687637 1.40056300 -0.23324372 15 10 8660 40.13200000 3181773954 3181773954 -0.33300000
17.48496056 1.46825314 -1.89004874 2 11 8660 17.64800000 3181773954 3181773954 -6.14800000
19.87957764 -0.28105965 -1.85590720 6 12 8661 19.96800000 3181773957 3181773957 -5.33300000
39.98101425 3.35027242 0.93359631 18 13 8661 40.13200000 3181773957 3181773957 1.33300000
40.16516495 -0.57487100 0.46764559 17 14 8662 40.17200000 3181773959 3181773959 0.66700000
20.52606392 1.71640646 -1.44033170 29 15 8662 20.64800000 3181773959 3181773959 -4.00000000
20.49964142 0.70511681 -1.67448092 25 16 8663 20.58000000 3181773961 3181773961 -4.66700000
39.66234970 5.27095175 1.16443586 22 17 8663 40.02800000 3181773961 3181773961 1.66700000
40.06620026 1.37813866 0.69977170 17 18 8663 40.09600000 3181773964 3181773964 1.00000000
20.52902222 2.72821689 -1.32724690 27 19 8663 20.75200000 3181773964 3181773964 -3.66700000
20.53898811 -0.30113888 -1.19626844 15 20 8664 20.57600000 3181773966 3181773966 -3.33300000
39.72696304 3.30803776 2.32160735 22 21 8664 39.93200000 3181773966 3181773966 3.33300000
39.62414932 1.34908605 1.61526489 24 22 8665 39.68000000 3181773968 3181773968 2.33300000
20.59859848 1.71161151 -0.96282202 22 23 8665 20.69200000 3181773968 3181773968 -2.66700000
20.56796074 0.69668484 -1.07853937 33 24 8666 20.60800000 3181773970 3181773970 -3.00000000
40.83613586 3.38604474 5.03125381 24 25 8666 41.28400000 3181773970 3181773970 7.00000000
109.56114197 3.69194746 8.94911575 28 26 8667 109.98800000 3181773973 3181773973 4.66700000
20.61146164 2.72453022 -0.84703708 22 27 8667 20.80800000 3181773973 3181773973 -2.33300000
36.80921936 -0.56539345 -1.28555787 6 28 8668 36.83600000 3181773975 3181773975 -2.00000000
39.70269012 3.27113152 -0.92698961 25 31 8669 39.84800000 3181773977 3181773977 -1.33300000
5.88065004 0.19097136 -2.74363780 8 0 8674 6.49200000 3181773998 3181773998 -25.00000000
39.92504501 5.22787857 -0.70284331 25 1 8674 40.27200000 3181773998 3181773998 -1.00000000
39.36679459 1.27154016 -1.14628339 24 2 8675 39.40400000 3181774000 3181774000 -1.66700000
8.91471195 0.72509116 -2.50381589 2 3 8675 9.28800000 3181774000 3181774000 -15.63900000
11.75305748 0.37756819 -2.35183859 4 4 8676 11.99200000 3181774003 3181774003 -11.31000000
39.96857834 3.24388099 0.00000000 13 5 8676 40.10000000 3181774003 3181774003 0.00000000
40.27161789 -0.67482054 -0.46890283 29 6 8676 40.28000000 3181774005 3181774005 -0.66700000
13.87885666 1.12641883 -2.16632724 3 7 8676 14.09200000 3181774005 3181774005 -8.84300000
16.21681404 0.51813352 -2.06524301 2 8 8677 16.35600000 3181774007 3181774007 -7.25400000
39.81419373 5.19216061 0.23335996 16 9 8677 40.15200000 3181774007 3181774007 0.33300000
40.09508514 1.27404869 -0.23315074 15 10 8678 40.11600000 3181774010 3181774010 -0.33300000
17.49741554 1.41395605 -1.89090550 2 11 8678 17.65600000 3181774010 3181774010 -6.14800000
19.89850807 -0.34385574 -1.85776603 6 12 8679 19.98800000 3181774012 3181774012 -5.33300000
40.01924515 3.22690201 0.93424773 18 13 8679 40.16000000 3181774012 3181774012 1.33300000
40.22714615 -0.70216745 0.46839061 25 14 8680 40.23600000 3181774014 3181774014 0.66700000
20.52737808 1.65159357 -1.44005263 28 15 8680 20.64400000 3181774014 3181774014 -4.00000000
20.49378586 0.64046282 -1.67382991 25 16 8681 20.57200000 3181774017 3181774017 -4.66700000
39.49235153 5.12215233 1.15896690 30 17 8681 39.84000000 3181774017 3181774017 1.66700000
39.61062622 1.23789394 0.69174355 33 18 8681 39.63600000 3181774019 3181774019 1.00000000
20.52957535 2.66268277 -1.32673514 29 19 8681 20.74400000 3181774019 3181774019 -3.66700000
20.52596283 -0.36544916 -1.19557083 18 20 8682 20.56400000 3181774021 3181774021 -3.33300000
39.70133591 3.18034601 2.31951427 27 21 8682 39.89600000 3181774021 3181774021 3.33300000
39.65216064 1.22533739 1.61624181 24 22 8683 39.70400000 3181774023 3181774023 2.33300000
20.59192467 1.64593565 -0.96226364 23 23 8683 20.68000000 3181774023 3181774023 -2.66700000
20.56206322 0.63181996 -1.07812071 33 24 8684 20.60000000 3181774026 3181774026 -3.00000000
41.27003479 3.29151130 5.08341408 24 25 8684 41.71200000 3181774026 3181774026 7.00000000
94.27424622 2.88033891 7.69968271 28 26 8685 94.63200000 3181774028 3181774028 4.66700000
20.61595535 2.65925288 -0.84687424 22 27 8685 20.80400000 3181774028 3181774028 -2.33300000
36.92317200 -0.68317467 -1.28960621 6 28 8686 36.95200000 3181774030 3181774030 -2.00000000
39.75661850 3.14986014 -0.92801321 25 31 8687 39.89200000 3181774033 3181774033 -1.33300000
5.88128090 0.17044289 -2.74363780 8 0 8694 6.49200000 3181774053 3181774053 -25.00000000
40.00255966 5.09606361 -0.70389044 25 1 8694 40.33200000 3181774053 3181774053 -1.00000000
39.43494034 1.13595879 -1.14814520 24 2 8695 39.46800000 3181774056 3181774056 -1.66700000
8.91334820 0.69366974 -2.50273776 2 3 8695 9.28400000 3181774056 3181774056 -15.63900000
11.75822449 0.33665231 -2.35262299 3 4 8696 11.99600000 3181774058 3181774058 -11.31000000
39.95971680 3.10279655 0.00000000 19 5 8696 40.08000000 3181774058 3181774058 0.00000000
40.26501846 -0.81530964 -0.46885628 29 6 8696 40.27600000 3181774060 3181774060 -0.66700000
13.88664532 1.07827175 -2.16694212 3 7 8696 14.09600000 3181774060 3181774060 -8.84300000
16.22249031 0.46163601 -2.06574821 2 8 8697 16.36000000 3181774063 3181774063 -7.25400000
39.90747070 5.06271648 0.23380166 16 9 8697 40.22800000 3181774063 3181774063 0.33300000
40.09928894 1.13408291 -0.23315074 15 10 8698 40.11600000 3181774065 3181774065 -0.33300000
17.51017380 1.35348308 -1.89176226 2 11 8698 17.66400000 3181774065 3181774065 -6.14800000
19.90514946 -0.41347784 -1.85850954 6 12 8699 19.99600000 3181774067 3181774067 -5.33300000
39.95052338 3.08103919 0.93238664 18 13 8699 40.08000000 3181774067 3181774067 1.33300000
40.23244858 -0.84274966 0.46848375 25 14 8700 40.24400000 3181774069 3181774069 0.66700000
20.53301811 1.57992959 -1.44005263 28 15 8700 20.64400000 3181774069 3181774069 -4.00000000
20.49988174 0.56903291 -1.67415535 25 16 8701 20.57600000 3181774072 3181774072 -4.66700000
39.47428894 4.97976303 1.15791965 15 17 8701 39.80400000 3181774072 3181774072 1.66700000
39.64668655 1.10050726 0.69230205 16 18 8701 39.66800000 3181774074 3181774074 1.00000000
20.52290154 2.58900642 -1.32571185 31 19 8701 20.72800000 3181774074 3181774074 -3.66700000
20.52456284 -0.43709591 -1.19557083 18 20 8702 20.56400000 3181774076 3181774076 -3.33300000
39.76395416 3.04570770 2.32253766 27 21 8702 39.94800000 3181774076 3181774076 3.33300000
39.87193680 1.09283113 1.62503469 16 22 8703 39.92000000 3181774079 3181774079 2.33300000
20.58957672 1.57343745 -0.96189141 22 23 8703 20.67200000 3181774079 3181774079 -2.66700000
20.56813622 0.56014991 -1.07833004 33 24 8704 20.60400000 3181774081 3181774081 -3.00000000
41.57025909 3.16946530 5.11899996 24 25 8704 42.00400000 3181774081 3181774081 7.00000000
94.08048248 2.54574299 7.68308449 28 26 8705 94.42800000 3181774083 3181774083 4.66700000
20.61717987 2.58627868 -0.84654862 22 27 8705 20.79600000 3181774083 3181774083 -2.33300000
37.08441925 -0.81566048 -1.29532969 6 28 8706 37.11600000 3181774086 3181774086 -2.00000000
39.76737213 3.01106453 -0.92801321 30 31 8707 39.89200000 3181774088 3181774088 -1.33300000
5.87824202 0.14879405 -2.74194717 8 0 8715 6.48800000 3181774109 3181774109 -25.00000000
40.02890778 4.95039415 -0.70403010 25 1 8715 40.34000000 3181774109 3181774109 -1.00000000
39.49079895 0.99272108 -1.14965796 24 2 8716 39.52000000 3181774111 3181774111 -1.66700000
8.91967201 0.66128081 -2.50381589 2 3 8716 9.28800000 3181774111 3181774111 -15.63900000
11.77114296 0.29384765 -2.35497642 4 4 8717 12.00800000 3181774113 3181774113 -11.31000000
40.00672531 2.95897150 0.00000000 19 5 8717 40.11600000 3181774113 3181774113 0.00000000
40.26575851 -0.96297848 -0.46890283 19 6 8717 40.28000000 3181774116 3181774116 -0.66700000
13.89838696 1.02795041 -2.16817188 3 7 8717 14.10400000 3181774116 3181774116 -8.84300000
16.23597336 0.40246949 -2.06726336 2 8 8718 16.37200000 3181774118 3181774118 -7.25400000
39.85429764 4.90761471 0.23338321 16 9 8718 40.15600000 3181774118 3181774118 0.33300000
40.09117889 0.98680878 -0.23308098 15 10 8719 40.10400000 3181774120 3181774120 -0.33300000
17.52295113 1.28987992 -1.89261901 2 11 8719 17.67200000 3181774120 3181774120 -6.14800000
19.92340851 -0.48691761 -1.86036849 6 12 8720 20.01600000 3181774122 3181774122 -5.33300000
40.01339340 2.93840003 0.93359631 12 13 8720 40.13200000 3181774122 3181774122 1.33300000
40.21309280 -0.98980957 0.46829748 17 14 8721 40.22800000 3181774125 3181774125 0.66700000
20.52673149 1.50378704 -1.43921554 29 15 8721 20.63200000 3181774125 3181774125 -4.00000000
20.49385834 0.49370122 -1.67350447 30 16 8722 20.56800000 3181774127 3181774127 -4.66700000
39.51609039 4.83796453 1.15861773 22 17 8722 39.82800000 3181774127 3181774127 1.66700000
39.92633438 0.96183342 0.69711894 16 18 8722 39.94400000 3181774129 3181774129 1.00000000
20.53225327 2.51376891 -1.32571185 31 19 8722 20.72800000 3181774129 3181774129 -3.66700000
20.52681351 -0.51241893 -1.19580340 15 20 8723 20.56800000 3181774132 3181774132 -3.33300000
39.66333771 2.89181447 2.31602597 27 21 8723 39.83600000 3181774132 3181774132 3.33300000
39.70386505 0.94260699 1.61803293 25 22 8724 39.74800000 3181774134 3181774134 2.33300000
20.58723450 1.49738264 -0.96151912 22 23 8724 20.66400000 3181774134 3181774134 -2.66700000
20.56605911 0.48466602 -1.07812071 30 24 8725 20.60000000 3181774136 3181774136 -3.00000000
41.09454346 2.98174167 5.05904007 24 25 8725 41.51200000 3181774136 3181774136 7.00000000
93.72648621 2.19241953 7.65346766 28 26 8726 94.06400000 3181774139 3181774139 4.66700000
20.62255478 2.51021266 -0.84638578 26 27 8726 20.79200000 3181774139 3181774139 -2.33300000
37.11714935 -0.95249921 -1.29658616 6 28 8727 37.15200000 3181774141 3181774141 -2.00000000
39.82550430 2.87568808 -0.92912984 30 31 8727 39.94000000 3181774143 3181774143 -1.33300000
5.89322329 0.12859058 -2.74870920 7 0 8735 6.50400000 3181774164 3181774164 -25.00000000
40.01020813 4.80634403 -0.70340180 25 1 8735 40.30400000 3181774164 3181774164 -1.00000000
39.51800919 0.85538554 -1.15035605 24 2 8736 39.54400000 3181774166 3181774166 -1.66700000
8.93729591 0.63122684 -2.50812912 2 3 8736 9.30400000 3181774166 3181774166 -15.63900000
11.76817513 0.25267270 -2.35419202 3 4 8737 12.00400000 3181774169 3181774169 -11.31000000
39.95296860 2.81480598 0.00000000 19 5 8737 40.05200000 3181774169 3181774169 0.00000000
40.26195908 -1.11055338 -0.46890283 19 6 8738 40.28000000 3181774171 3181774171 -0.66700000
13.89811897 0.97672635 -2.16755700 3 7 8738 14.10000000 3181774171 3181774171 -8.84300000
16.24124527 0.34587741 -2.06776834 2 8 8738 16.37600000 3181774173 3181774173 -7.25400000
39.81955719 4.76229239 0.23308098 16 9 8738 40.10400000 3181774173 3181774173 0.33300000
40.09838104 0.84694290 -0.23310423 15 10 8739 40.10800000 3181774175 3181774175 -0.33300000
17.53924751 1.22953987 -1.89390421 2 11 8739 17.68400000 3181774175 3181774175 -6.14800000
19.93353081 -0.55679393 -1.86148381 6 12 8740 20.02800000 3181774178 3181774178 -5.33300000
39.71623993 2.77723002 0.92643130 12 13 8740 39.82400000 3181774178 3181774178 1.33300000
40.20139694 -1.12994874 0.46820438 17 14 8741 40.22000000 3181774180 3181774180 0.66700000
20.52389526 1.43157089 -1.43865752 29 15 8741 20.62400000 3181774180 3181774180 -4.00000000
20.48748589 0.42199707 -1.67285359 27 16 8742 20.56000000 3181774182 3181774182 -4.66700000
39.56449890 4.70377445 1.15954864 22 17 8742 39.86000000 3181774182 3181774182 1.66700000
40.00156403 0.81695956 0.69837552 17 18 8743 40.01600000 3181774185 3181774185 1.00000000
20.52547264 2.43661523 -1.32468855 33 19 8743 20.71200000 3181774185 3181774185 -3.66700000
20.52889252 -0.58418131 -1.19603598 18 20 8743 20.57200000 3181774187 3181774187 -3.33300000
39.59749985 2.74809313 2.31160736 16 21 8743 39.76000000 3181774187 3181774187 3.33300000
39.51910782 0.80020607 1.61038005 24 22 8744 39.56000000 3181774189 3181774189 2.33300000
20.58835030 1.42523468 -0.96133304 22 23 8744 20.66000000 3181774189 3181774189 -2.66700000
20.56363106 0.41279396 -1.07791138 27 24 8745 20.59600000 3181774192 3181774192 -3.00000000
41.21560287 2.84593463 5.07268953 24 25 8745 41.62400000 3181774192 3181774192 7.00000000
96.01352692 1.91060960 7.83962965 28 26 8746 96.35200000 3181774194 3181774194 4.66700000
20.61928368 2.43680382 -0.84589732 26 27 8746 20.78000000 3181774194 3181774194 -2.33300000
37.17753220 -1.08392036 -1.29881966 6 28 8747 37.21600000 3181774196 3181774196 -2.00000000
39.87519455 2.73939443 -0.93006033 20 31 8747 39.98000000 3181774199 3181774199 -1.33300000
5.89001131 0.10795218 -2.74701881 8 0 8755 6.50000000 3181774219 3181774219 -25.00000000
40.10221863 4.67545271 -0.70472819 25 1 8755 40.38000000 3181774219 3181774219 -1.00000000
39.55273438 0.71801734 -1.15128696 24 2 8756 39.57600000 3181774222 3181774222 -1.66700000
8.93175793 0.59951007 -2.50597262 2 3 8756 9.29600000 3181774222 3181774222 -15.63900000
11.77682877 0.21173358 -2.35576081 3 4 8757 12.01200000 3181774224 3181774224 -11.31000000
39.93461227 2.67345667 0.00000000 19 5 8757 40.02400000 3181774224 3181774224 0.00000000
40.24584198 -1.25071442 -0.46876314 19 6 8758 40.26800000 3181774226 3181774226 -0.66700000
13.90933037 0.92873353 -2.16878676 3 7 8758 14.10800000 3181774226 3181774226 -8.84300000
16.25425720 0.28939468 -2.06928372 2 8 8758 16.38800000 3181774228 3181774228 -7.25400000
39.80414963 4.61957836 0.23289500 25 9 8758 40.07200000 3181774228 3181774228 0.33300000
40.09709167 0.70689774 -0.23308098 15 10 8759 40.10400000 3181774231 3181774231 -0.33300000
17.55136871 1.16883755 -1.89476097 2 11 8759 17.69200000 3181774231 3181774231 -6.14800000
19.94738770 -0.62687194 -1.86297095 6 12 8760 20.04400000 3181774233 3181774233 -5.33300000
39.82145691 2.64493823 0.92866457 12 13 8760 39.92000000 3181774233 3181774233 1.33300000
40.14523697 -1.26862860 0.46759903 17 14 8761 40.16800000 3181774235 3181774235 0.66700000
20.52478409 1.35965669 -1.43837845 29 15 8761 20.62000000 3181774235 3181774235 -4.00000000
20.48484802 0.35041165 -1.67252815 30 16 8762 20.55600000 3181774238 3181774238 -4.66700000
39.55287170 4.56243277 1.15873420 22 17 8762 39.83200000 3181774238 3181774238 1.66700000
40.06403351 0.68533117 0.69942266 17 18 8762 40.07600000 3181774240 3181774240 1.00000000
20.52154350 2.36716461 -1.32392108 33 19 8762 20.70000000 3181774240 3181774240 -3.66700000
20.52672768 -0.65583700 -1.19603598 18 20 8763 20.57200000 3181774242 3181774242 -3.33300000
39.70646667 2.61641932 2.31742144 33 21 8763 39.86000000 3181774242 3181774242 3.33300000
39.54963303 0.66272247 1.61151981 24 22 8764 39.58800000 3181774245 3181774245 2.33300000
20.58123779 1.35257316 -0.96077466 23 23 8764 20.64800000 3181774245 3181774245 -2.66700000
20.56894112 0.34107721 -1.07812071 27 24 8765 20.60000000 3181774247 3181774247 -3.00000000
41.47883224 2.71866632 5.10388803 8 25 8765 41.88000000 3181774247 3181774247 7.00000000
111.60167694 1.83111191 9.11184502 28 26 8766 111.98800000 3181774249 3181774249 4.66700000
20.61972237 2.36390400 -0.84557164 24 27 8766 20.77200000 3181774249 3181774249 -2.33300000
37.32135391 -1.21851420 -1.30398476 6 28 8767 37.36400000 3181774252 3181774252 -2.00000000
39.85657883 2.59836626 -0.92940897 20 31 8767 39.95200000 3181774254 3181774254 -1.33300000
5.89035225 0.08739155 -2.74701881 8 0 8775 6.50000000 3181774274 3181774274 -25.00000000
40.11034775 4.53454304 -0.70458853 25 1 8775 40.37200000 3181774274 3181774274 -1.00000000
39.55100250 0.57988954 -1.15117061 16 2 8776 39.57200000 3181774276 3181774276 -1.66700000
8.93379688 0.56832874 -2.50597262 2 3 8776 9.29600000 3181774276 3181774276 -15.63900000
11.77749634 0.17062350 -2.35576081 3 4 8777 12.01200000 3181774279 3181774279 -11.31000000
39.97962952 2.53632188 0.00000000 19 5 8777 40.06000000 3181774279 3181774279 0.00000000
40.18950653 -1.38238013 -0.46815780 19 6 8777 40.21600000 3181774281 3181774281 -0.66700000
13.92416763 0.88335413 -2.17063165 2 7 8777 14.12000000 3181774281 3181774281 -8.84300000
16.25119972 0.23259819 -2.06877851 2 8 8778 16.38400000 3181774283 3181774283 -7.25400000
39.93132782 4.49313068 0.23354594 25 9 8778 40.18400000 3181774283 3181774283 0.33300000
40.09131622 0.56681538 -0.23303449 15 10 8779 40.09600000 3181774286 3181774286 -0.33300000
17.56724930 1.10831594 -1.89604616 2 11 8779 17.70400000 3181774286 3181774286 -6.14800000
19.94905853 -0.69663650 -1.86334264 4 12 8780 20.04800000 3181774288 3181774288 -5.33300000
40.01403046 2.51746941 0.93294495 12 13 8780 40.10400000 3181774288 3181774288 1.33300000
40.10858536 -1.40763164 0.46722651 17 14 8781 40.13600000 3181774290 3181774290 0.66700000
20.52940559 1.28800356 -1.43837845 31 15 8781 20.62000000 3181774290 3181774290 -4.00000000
20.48993301 0.27895832 -1.67285359 27 16 8782 20.56000000 3181774292 3181774292 -4.66700000
39.63213348 4.43144846 1.16059589 22 17 8782 39.89600000 3181774292 3181774292 1.66700000
39.85823441 0.54264629 0.69579256 25 18 8782 39.86800000 3181774295 3181774295 1.00000000
20.52174759 2.29462957 -1.32340944 33 19 8782 20.69200000 3181774295 3181774295 -3.66700000
20.51633263 -0.72720170 -1.19557083 18 20 8783 20.56400000 3181774297 3181774297 -3.33300000
39.66354752 2.47456956 2.31439805 27 21 8783 39.80800000 3181774297 3181774297 3.33300000
39.69557571 0.52657294 1.61738169 16 22 8784 39.73200000 3181774299 3181774299 2.33300000
20.58982277 1.28097117 -0.96096075 21 23 8784 20.65200000 3181774299 3181774299 -2.66700000
20.56601143 0.26922384 -1.07791138 33 24 8785 20.59600000 3181774302 3181774302 -3.00000000
43.90919876 2.72406507 5.40173674 8 25 8785 44.32400000 3181774302 3181774302 7.00000000
96.29161835 1.24371743 7.86143541 28 26 8786 96.62000000 3181774304 3181774304 4.66700000
20.61990356 2.29103065 -0.84524596 22 27 8786 20.76400000 3181774304 3181774304 -2.33300000
37.48865509 -1.35499156 -1.30998755 6 28 8787 37.53600000 3181774306 3181774306 -2.00000000
39.85742569 2.45873260 -0.92922288 35 31 8787 39.94400000 3181774309 3181774309 -1.33300000
5.88698483 0.06781620 -2.74532819 8 0 8794 6.49600000 3181774329 3181774329 -25.00000000
40.11323547 4.40019894 -0.70437914 25 1 8794 40.36000000 3181774329 3181774329 -1.00000000
39.61267853 0.44941086 -1.15291607 24 2 8795 39.63200000 3181774332 3181774332 -1.66700000
8.93563175 0.53870010 -2.50597262 2 3 8795 9.29600000 3181774332 3181774332 -15.63900000
11.78584194 0.13165459 -2.35732985 3 4 8796 12.02000000 3181774334 3181774334 -11.31000000
39.96386337 2.40229058 0.00000000 13 5 8796 40.03600000 3181774334 3181774334 0.00000000
40.25664520 -1.51835918 -0.46899596 19 6 8796 40.28800000 3181774336 3181774336 -0.66700000
13.93491077 0.83764941 -2.17186141 4 7 8796 14.12800000 3181774336 3181774336 -8.84300000
16.26378632 0.17883687 -2.07029390 2 8 8797 16.39600000 3181774339 3181774339 -7.25400000
39.97782135 4.36416149 0.23373193 25 9 8797 40.21600000 3181774339 3181774339 0.33300000
40.24096298 0.43546614 -0.23389466 22 10 8798 40.24400000 3181774341 3181774341 -0.33300000
17.57479858 1.05029190 -1.89647448 2 11 8798 17.70800000 3181774341 3181774341 -6.14800000
19.97051811 -0.76369929 -1.86557329 6 12 8799 20.07200000 3181774343 3181774343 -5.33300000
39.73474884 2.36763859 0.92624521 18 13 8799 39.81600000 3181774343 3181774343 1.33300000
40.19562531 -1.54416013 0.46829748 17 14 8800 40.22800000 3181774345 3181774345 0.66700000
20.53356361 1.21991849 -1.43837845 28 15 8800 20.62000000 3181774345 3181774345 -4.00000000
20.48277283 0.21092762 -1.67220271 32 16 8801 20.55200000 3181774348 3181774348 -4.66700000
39.67046356 4.30258608 1.16129410 22 17 8801 39.92000000 3181774348 3181774348 1.66700000
39.84781647 0.41034511 0.69558311 25 18 8801 39.85600000 3181774350 3181774350 1.00000000
20.52130699 2.22570348 -1.32289779 36 19 8801 20.68400000 3181774350 3181774350 -3.66700000
20.51380730 -0.79523236 -1.19557083 18 20 8802 20.56400000 3181774352 3181774352 -3.33300000
39.65160370 2.34184980 2.31323528 27 21 8802 39.78800000 3181774352 3181774352 3.33300000
39.89692688 0.39692274 1.62552309 16 22 8803 39.93200000 3181774355 3181774355 2.33300000
20.58597946 1.21221602 -0.96058851 18 23 8803 20.64400000 3181774355 3181774355 -2.66700000
20.57477951 0.20110109 -1.07833004 30 24 8804 20.60400000 3181774357 3181774357 -3.00000000
43.26007080 2.53981519 5.32081556 8 25 8804 43.66000000 3181774357 3181774357 7.00000000
96.40284729 0.92542934 7.87022257 28 26 8805 96.72800000 3181774359 3181774359 4.66700000
20.61944008 2.22178364 -0.84492034 24 27 8805 20.75600000 3181774359 3181774359 -2.33300000
37.67568970 -1.48686767 -1.31668818 6 28 8806 37.72800000 3181774362 3181774362 -2.00000000
39.86935043 2.32678008 -0.92931592 25 31 8806 39.94800000 3181774364 3181774364 -1.33300000
5.89444399 0.04629581 -2.74870920 7 0 8815 6.50400000 3181774385 3181774385 -25.00000000
40.06943893 4.24682426 -0.70333201 25 1 8815 40.30000000 3181774385 3181774385 -1.00000000
39.65004349 0.30449647 -1.15396333 24 2 8816 39.66800000 3181774387 3181774387 -1.66700000
8.94523811 0.50638115 -2.50812912 2 3 8816 9.30400000 3181774387 3181774387 -15.63900000
11.79408932 0.08851531 -2.35889888 3 4 8817 12.02800000 3181774389 3181774389 -11.31000000
39.70482635 2.24069929 0.00000000 19 5 8817 39.76800000 3181774389 3181774389 0.00000000
40.25880432 -1.66622782 -0.46908909 29 6 8817 40.29600000 3181774392 3181774392 -0.66700000
13.93394184 0.78634709 -2.17124653 2 7 8817 14.12400000 3181774392 3181774392 -8.84300000
16.26433182 0.11922591 -2.07029390 2 8 8818 16.39600000 3181774394 3181774394 -7.25400000
40.03730392 4.22222090 0.23398764 16 9 8818 40.26000000 3181774394 3181774394 0.33300000
40.27428818 0.28820169 -0.23408064 15 10 8819 40.27600000 3181774396 3181774396 -0.33300000
17.59044266 0.98653811 -1.89775968 2 11 8819 17.72000000 3181774396 3181774396 -6.14800000
19.96758461 -0.83688974 -1.86557329 4 12 8820 20.07200000 3181774398 3181774398 -5.33300000
39.88290405 2.22980046 0.92950201 12 13 8820 39.95600000 3181774398 3181774398 1.33300000
40.15772629 -1.69012856 0.46792498 17 14 8821 40.19600000 3181774401 3181774401 0.66700000
20.52196121 1.14376283 -1.43726242 29 15 8821 20.60400000 3181774401 3181774401 -4.00000000
20.48739433 0.13587953 -1.67252815 27 16 8822 20.55600000 3181774403 3181774403 -4.66700000
39.70584869 4.15924025 1.16187596 15 17 8822 39.94000000 3181774403 3181774403 1.66700000
40.00507355 0.25834507 0.69830567 25 18 8823 40.01200000 3181774405 3181774405 1.00000000
20.52176094 2.14606071 -1.32238603 38 19 8823 20.67600000 3181774405 3181774405 -3.66700000
20.51873398 -0.87075245 -1.19603598 18 20 8823 20.57200000 3181774408 3181774408 -3.33300000
39.65593338 2.19628286 2.31300282 27 21 8823 39.78400000 3181774408 3181774408 3.33300000
39.69028854 0.24938473 1.61705601 24 22 8824 39.72400000 3181774410 3181774410 2.33300000
20.58230400 1.13631594 -0.96021628 21 23 8824 20.63600000 3181774410 3181774410 -2.66700000
20.57537842 0.12568940 -1.07833004 33 24 8825 20.60400000 3181774412 3181774412 -3.00000000
95.49663544 0.56669509 7.79601812 28 26 8826 95.81600000 3181774415 3181774415 4.66700000
20.61949539 2.14536738 -0.84459466 26 27 8826 20.74800000 3181774415 3181774415 -2.33300000
37.74986267 -1.62839162 -1.31948018 7 28 8827 37.80800000 3181774417 3181774417 -2.00000000
39.86563110 2.17998099 -0.92903680 35 31 8827 39.93600000 3181774419 3181774419 -1.33300000
5.89456987 0.02572007 -2.74870920 7 0 8835 6.50400000 3181774440 3181774440 -25.00000000
40.10390854 4.10896826 -0.70368105 17 1 8835 40.32000000 3181774440 3181774440 -1.00000000
39.70684052 0.16632460 -1.15559232 24 2 8836 39.72400000 3181774442 3181774442 -1.66700000
8.95079803 0.47535765 -2.50920749 2 3 8836 9.30800000 3181774442 3181774442 -15.63900000
11.79432678 0.04734572 -2.35889888 3 4 8837 12.02800000 3181774444 3181774444 -11.31000000
39.88416290 2.11118174 0.00000000 19 5 8837 39.94000000 3181774444 3181774444 0.00000000
40.19248962 -1.81107175 -0.46839061 19 6 8838 40.23600000 3181774447 3181774447 -0.66700000
13.94067669 0.73547959 -2.17186141 4 7 8838 14.12800000 3181774447 3181774447 -8.84300000
16.28052139 0.06251302 -2.07231402 2 8 8838 16.41200000 3181774449 3181774449 -7.25400000
39.98017120 4.07513762 0.23356919 25 9 8838 40.18800000 3181774449 3181774449 0.33300000
40.27505112 0.14761643 -0.23408064 15 10 8839 40.27600000 3181774451 3181774451 -0.33300000
17.59774971 0.92533886 -1.89818811 4 11 8839 17.72400000 3181774451 3181774451 -6.14800000
20.00034904 -0.90821052 -1.86891937 6 12 8840 20.10800000 3181774454 3181774454 -5.33300000
39.66681290 2.07884955 0.92429107 36 13 8840 39.73200000 3181774454 3181774454 1.33300000
40.19553375 -1.83229840 0.46843719 17 14 8841 40.24000000 3181774456 3181774456 0.66700000
20.52184486 1.07191277 -1.43698335 31 15 8841 20.60000000 3181774456 3181774456 -4.00000000
20.48774338 0.06436436 -1.67252815 25 16 8842 20.55600000 3181774458 3181774458 -4.66700000
39.81161880 4.02987671 1.16455221 22 17 8842 40.03200000 3181774458 3181774458 1.66700000
40.00170898 0.12566949 0.69823587 25 18 8842 40.00800000 3181774461 3181774461 1.00000000
20.52876472 2.07799625 -1.32238603 33 19 8842 20.67600000 3181774461 3181774461 -3.66700000
20.51955986 -0.94255418 -1.19626844 18 20 8843 20.57600000 3181774463 3181774463 -3.33300000
39.63544083 2.05639601 2.31137490 16 21 8843 39.75600000 3181774463 3181774463 3.33300000
39.65095139 0.11072663 1.61542773 24 22 8844 39.68400000 3181774465 3181774465 2.33300000
20.58614540 1.06446338 -0.96021628 20 23 8844 20.63600000 3181774465 3181774465 -2.66700000
20.56370926 0.05383579 -1.07770205 30 24 8845 20.59200000 3181774468 3181774468 -3.00000000
101.06986237 5.20840883 12.42628574 28 25 8845 101.96400000 3181774468 3181774468 7.00000000
20.61890411 2.07257938 -0.84426898 26 27 8846 20.74000000 3181774470 3181774470 -2.33300000
37.85575867 -1.76536751 -1.32338893 7 28 8847 37.92000000 3181774472 3181774472 -2.00000000
39.82543182 2.03140688 -0.92792016 25 31 8848 39.88800000 3181774474 3181774474 -1.33300000
5.89462376 0.00514403 -2.74870920 8 0 8855 6.50400000 3181774495 3181774495 -25.00000000
40.12199020 3.96934819 -0.70375085 25 1 8855 40.32400000 3181774495 3181774495 -1.00000000
39.71917343 0.02772922 -1.15594149 24 2 8856 39.73600000 3181774497 3181774497 -1.66700000
8.95240211 0.44411063 -2.50920749 2 3 8856 9.30800000 3181774497 3181774497 -15.63900000
11.79442024 0.00617554 -2.35889888 3 4 8857 12.02800000 3181774500 3181774500 -11.31000000
39.91925430 1.97332954 0.00000000 12 5 8857 39.96800000 3181774500 3181774500 0.00000000
40.22187805 -1.95310462 -0.46880969 19 6 8858 40.27200000 3181774502 3181774502 -0.66700000
13.95105457 0.68720198 -2.17309117 2 7 8858 14.13600000 3181774502 3181774502 -8.84300000
16.28460693 0.00568440 -2.07281923 2 8 8858 16.41600000 3181774504 3181774504 -7.25400000
39.95036316 3.93124723 0.23331346 16 9 8858 40.14400000 3181774504 3181774504 0.33300000
40.27531815 0.00702937 -0.23408064 22 10 8859 40.27600000 3181774507 3181774507 -0.33300000
17.61676216 0.86468548 -1.89990163 2 11 8859 17.74000000 3181774507 3181774507 -6.14800000
20.00501251 -0.97840834 -1.86966288 6 12 8860 20.11600000 3181774509 3181774509 -5.33300000
39.75770187 1.94447613 0.92624521 18 13 8860 39.81600000 3181774509 3181774509 1.33300000
40.22484589 -1.97436059 0.46885628 8 14 8861 40.27600000 3181774511 3181774511 0.66700000
20.52546120 1.00027156 -1.43698335 29 15 8861 20.60000000 3181774511 3181774511 -4.00000000
20.49183083 -0.00715300 -1.67285359 22 16 8862 20.56000000 3181774514 3181774514 -4.66700000
39.70208359 3.87883186 1.16094506 22 17 8862 39.90800000 3181774514 3181774514 1.66700000
39.74994278 -0.01387535 0.69383788 24 18 8862 39.75600000 3181774516 3181774516 1.00000000
20.52000237 2.00477242 -1.32136273 36 19 8862 20.66000000 3181774516 3181774516 -3.66700000
20.51614380 -1.01417506 -1.19626844 18 20 8863 20.57600000 3181774518 3181774518 -3.33300000
39.69422913 1.92053878 2.31439805 27 21 8863 39.80800000 3181774518 3181774518 3.33300000
39.73902512 -0.02774308 1.61900997 25 22 8864 39.77200000 3181774521 3181774521 2.33300000
20.58574486 0.99240547 -0.96003014 20 23 8864 20.63200000 3181774521 3181774521 -2.66700000
20.55578232 -0.01793831 -1.07728338 30 24 8865 20.58400000 3181774523 3181774523 -3.00000000
20.61805725 1.99982166 -0.84394336 28 27 8866 20.73200000 3181774525 3181774525 -2.33300000
37.88529968 -1.89929938 -1.32464528 7 28 8867 37.95600000 3181774527 3181774527 -2.00000000
39.62424088 1.88942564 -0.92308140 20 31 8867 39.68000000 3181774530 3181774530 -1.33300000
5.89460802 -0.01440327 -2.74870920 8 0 8874 6.50400000 3181774550 3181774550 -25.00000000
40.10308075 3.83323264 -0.70319235 25 1 8874 40.29200000 3181774550 3181774550 -1.00000000
39.71504974 -0.10397399 -1.15582514 24 2 8875 39.73200000 3181774553 3181774553 -1.66700000
8.96536922 0.41495523 -2.51244235 5 3 8875 9.32000000 3181774553 3181774553 -15.63900000
11.79045296 -0.03292524 -2.35811424 4 4 8876 12.02400000 3181774555 3181774555 -11.31000000
39.96154022 1.84259987 0.00000000 19 5 8876 40.00400000 3181774555 3181774555 0.00000000
40.22752762 -2.08007526 -0.46894941 19 6 8876 40.28400000 3181774557 3181774557 -0.66700000
13.96104145 0.64373422 -2.17432117 2 7 8876 14.14400000 3181774557 3181774557 -8.84300000
16.28056908 -0.04830556 -2.07231402 2 8 8877 16.41200000 3181774560 3181774560 -7.25400000
39.90743256 3.79344630 0.23298800 25 9 8877 40.08800000 3181774560 3181774560 0.33300000
40.27511978 -0.12652844 -0.23408064 15 10 8878 40.27600000 3181774562 3181774562 -0.33300000
17.61953163 0.80626142 -1.89990163 2 11 8878 17.74000000 3181774562 3181774562 -6.14800000
20.01358986 -1.04536521 -1.87077820 6 12 8879 20.12800000 3181774564 3181774564 -5.33300000
39.72797775 1.81098521 0.92540771 18 13 8879 39.78000000 3181774564 3181774564 1.33300000
40.23006058 -2.10836816 0.46899596 25 14 8880 40.28800000 3181774567 3181774567 0.66700000
20.52467918 0.93202019 -1.43670428 28 15 8880 20.59600000 3181774567 3181774567 -4.00000000
20.47973442 -0.07506248 -1.67187715 22 16 8881 20.54800000 3181774569 3181774569 -4.66700000
39.89385605 3.76405478 1.16618133 22 17 8881 40.08800000 3181774569 3181774569 1.66700000
39.88165665 -0.14617456 0.69614160 16 18 8881 39.88800000 3181774571 3181774571 1.00000000
20.52256393 1.93633962 -1.32110691 36 19 8881 20.65600000 3181774571 3181774571 -3.66700000
20.51665497 -1.08241379 -1.19650102 18 20 8882 20.58000000 3181774574 3181774574 -3.33300000
39.84000397 1.79518867 2.32253766 27 21 8882 39.94800000 3181774574 3181774574 3.33300000
39.73871231 -0.15952228 1.61900997 25 22 8883 39.77200000 3181774576 3181774576 2.33300000
20.58094025 0.92377687 -0.95965791 20 23 8883 20.62400000 3181774576 3181774576 -2.66700000
20.55960464 -0.08612037 -1.07749271 33 24 8884 20.58800000 3181774578 3181774578 -3.00000000
93.70993805 4.18978834 11.51762772 28 25 8884 94.50800000 3181774578 3181774578 7.00000000
20.61661720 1.93069351 -0.84361768 30 27 8885 20.72400000 3181774580 3181774580 -2.33300000
37.88677597 -2.02534795 -1.32492447 7 28 8886 37.96400000 3181774583 3181774583 -2.00000000
39.59863281 1.74968743 -0.92233700 20 31 8887 39.64800000 3181774585 3181774585 -1.33300000
5.89089060 -0.03598585 -2.74701881 8 0 8895 6.50000000 3181774606 3181774606 -25.00000000
40.01331329 3.67670703 -0.70137733 25 1 8895 40.18800000 3181774606 3181774606 -1.00000000
39.73439026 -0.24966183 -1.15640688 25 2 8896 39.75200000 3181774608 3181774608 -1.66700000
8.95913315 0.38176477 -2.51028585 2 3 8896 9.31200000 3181774608 3181774608 -15.63900000
11.80986500 -0.07626584 -2.36203671 3 4 8897 12.04400000 3181774610 3181774610 -11.31000000
39.96403122 1.69595146 0.00000000 13 5 8897 40.00000000 3181774610 3181774610 0.00000000
40.13177490 -2.22263646 -0.46792498 19 6 8897 40.19600000 3181774613 3181774613 -0.66700000
13.96330643 0.59256011 -2.17432117 2 7 8897 14.14400000 3181774613 3181774613 -8.84300000
16.30012131 -0.10810809 -2.07483935 2 8 8898 16.43200000 3181774615 3181774615 -7.25400000
39.93700409 3.64860845 0.23308098 25 9 8898 40.10400000 3181774615 3181774615 0.33300000
40.27038574 -0.27411607 -0.23405738 22 10 8899 40.27200000 3181774617 3181774617 -0.33300000
17.63031578 0.74201167 -1.90075839 2 11 8899 17.74800000 3181774617 3181774617 -6.14800000
20.03348351 -1.12004554 -1.87300885 6 12 8900 20.15200000 3181774620 3181774620 -5.33300000
39.70238876 1.66402304 0.92466331 18 13 8900 39.74800000 3181774620 3181774620 1.33300000
40.18612289 -2.25378871 0.46857688 17 14 8901 40.25200000 3181774622 3181774622 0.66700000
20.52396965 0.85662085 -1.43642533 31 15 8901 20.59200000 3181774622 3181774622 -4.00000000
20.47932053 -0.15012395 -1.67187715 15 16 8902 20.54800000 3181774624 3181774624 -4.66700000
39.81181717 3.60914755 1.16338861 22 17 8902 39.99200000 3181774624 3181774624 1.66700000
40.20879364 -0.29475114 0.70186597 17 18 8902 40.21600000 3181774627 3181774627 1.00000000
20.52554703 1.86074722 -1.32085109 33 19 8902 20.65200000 3181774627 3181774627 -3.66700000
20.51255035 -1.15760386 -1.19650102 18 20 8903 20.58000000 3181774629 3181774629 -3.33300000
39.80641556 1.64750445 2.32021213 27 21 8903 39.90800000 3181774629 3181774629 3.33300000
39.67391586 -0.30467981 1.61640465 24 22 8904 39.70800000 3181774631 3181774631 2.33300000
20.58019447 0.84817320 -0.95947176 20 23 8904 20.62000000 3181774631 3181774631 -2.66700000
20.55515671 -0.16144314 -1.07728338 30 24 8905 20.58400000 3181774633 3181774633 -3.00000000
94.34745789 3.87185478 11.59416199 28 25 8905 95.13600000 3181774633 3181774633 7.00000000
20.61161423 1.85404265 -0.84312922 28 27 8906 20.71200000 3181774636 3181774636 -2.33300000
38.01878738 -2.17217731 -1.32981038 14 28 8907 38.10400000 3181774638 3181774638 -2.00000000
39.66072083 1.60680580 -0.92363971 30 31 8908 39.70400000 3181774640 3181774640 -1.33300000
5.89435434 -0.05658348 -2.74870920 7 0 8915 6.50400000 3181774661 3181774661 -25.00000000
