# .PCD v0.7 - Point Cloud Data file format
VERSION 0.7
FIELDS x y z intensity laser_id azimuth distance_m adjustedtime timestamp vertical_angle
SIZE 4 4 4 1 1 2 8 8 4 8
TYPE F F F U U U F U U F
COUNT 1 1 1 1 1 1 1 1 1 1
WIDTH 522
HEIGHT 1
VIEWPOINT 0 0 0 1 0 0 0
POINTS 522
DATA ascii
17.93944359 13.68104362 -1.57761240 2 15 5407 22.61600000 3184164903 3184164903 -4.00000000
17.05132675 11.72781754 -1.68945193 2 16 5408 20.76400000 3184164905 3184164905 -4.66700000
40.12651825 33.81361389 1.52713668 29 17 5408 52.49600000 3184164905 3184164905 1.66700000
40.25914001 27.67968559 0.85279441 26 18 5409 48.86400000 3184164907 3184164907 1.00000000
17.98811340 15.15276432 -1.50735128 3 19 5409 23.56800000 3184164907 3184164907 -3.66700000
20.58316040 12.71738148 -1.40905726 3 20 5409 24.23600000 3184164910 3184164910 -3.33300000
39.74558258 30.28898430 2.91020679 28 21 5409 50.05600000 3184164910 3184164910 3.33300000
39.32434845 27.02687645 1.94401693 20 22 5410 47.75600000 3184164912 3184164912 2.33300000
20.78704643 15.83548546 -1.21725416 15 23 5410 26.16000000 3184164912 3184164912 -2.66700000
20.76176071 14.26382732 -1.32012212 13 24 5411 25.22400000 3184164914 3184164914 -3.00000000
43.72760773 33.29945374 6.74863672 40 25 5411 55.37600000 3184164914 3184164914 7.00000000
42.64713287 29.28864861 4.22346687 30 26 5412 51.90800000 3184164917 3184164917 4.66700000
20.80695724 17.50867653 -1.10788929 18 27 5412 27.21600000 3184164917 3184164917 -2.33300000
20.79127693 12.82592010 -0.85308331 15 28 5413 24.44400000 3184164919 3184164919 -2.00000000
20.88544273 15.89316845 -0.61070395 21 31 5413 26.25200000 3184164921 3184164921 -1.33300000
3.98383832 2.72881246 -2.25171018 8 0 5419 5.32800000 3184164942 3184164942 -25.00000000
20.89451218 17.53879356 -0.47617146 18 1 5419 27.28400000 3184164942 3184164942 -1.00000000
20.83684540 14.26728535 -0.73494327 20 2 5420 25.26400000 3184164944 3184164944 -1.66700000
7.13042068 5.41228390 -2.50597262 5 3 5420 9.29600000 3184164944 3184164944 -15.63900000
9.69405842 6.63517523 -2.34948516 3 4 5421 11.98000000 3184164946 3184164946 -11.31000000
40.05482864 30.39225388 0.00000000 28 5 5421 50.28000000 3184164946 3184164946 0.00000000
39.24312210 24.12364960 -0.53628141 12 6 5422 46.06800000 3184164949 3184164949 -0.66700000
10.91786385 8.28110504 -2.13189220 2 7 5422 13.86800000 3184164949 3184164949 -8.84300000
13.24337196 9.06113720 -2.04251480 2 8 5422 16.17600000 3184164951 3184164951 -7.25400000
40.15793610 33.67262650 0.30459076 43 9 5422 52.40800000 3184164951 3184164951 0.33300000
40.27928925 27.54883766 -0.28362140 27 10 5423 48.80000000 3184164953 3184164953 -0.33300000
13.92165184 10.55562401 -1.88190937 2 11 5423 17.57200000 3184164953 3184164953 -6.14800000
16.42170906 10.08690643 -1.79902542 2 12 5424 19.35600000 3184164956 3184164956 -5.33300000
40.14912796 30.43069077 1.17227614 19 13 5424 50.39200000 3184164956 3184164956 1.33300000
40.49303436 24.86279488 0.55318427 29 14 5425 47.52000000 3184164958 3184164958 0.66700000
17.99187660 13.63184738 -1.57844949 2 15 5425 22.62800000 3184164958 3184164958 -4.00000000
17.09137917 11.67644024 -1.68977737 2 16 5426 20.76800000 3184164960 3184164960 -4.66700000
40.01795959 33.50770569 1.51899135 28 17 5426 52.21600000 3184164960 3184164960 1.66700000
40.33778763 27.55785751 0.85272455 26 18 5426 48.86000000 3184164963 3184164963 1.00000000
18.02687263 15.09420109 -1.50683963 3 19 5426 23.56000000 3184164963 3184164963 -3.66700000
20.62641525 12.65474319 -1.40928984 3 20 5427 24.24000000 3184164965 3184164965 -3.33300000
39.82143784 30.14950752 2.90881157 28 21 5427 50.03200000 3184164965 3184164965 3.33300000
39.38925552 26.88968086 1.94303989 20 22 5428 47.73200000 3184164967 3184164967 2.33300000
20.77934265 15.72669888 -1.21390390 13 23 5428 26.08800000 3184164967 3184164967 -2.66700000
20.75367737 14.16250706 -1.31677270 13 24 5429 25.16000000 3184164970 3184164970 -3.00000000
43.86683273 33.18826294 6.75399923 40 25 5429 55.42000000 3184164970 3184164970 7.00000000
42.66318512 29.10285187 4.21598148 30 26 5430 51.81600000 3184164972 3184164972 4.66700000
20.80360413 17.39451218 -1.10479558 25 27 5430 27.14000000 3184164972 3184164972 -2.33300000
20.78033447 12.72921753 -0.85098934 18 28 5431 24.38400000 3184164974 3184164974 -2.00000000
20.89336777 15.79006767 -0.60940123 23 31 5432 26.19600000 3184164976 3184164976 -1.33300000
3.99034142 2.71285152 -2.25001955 8 0 5439 5.32400000 3184164997 3184164997 -25.00000000
20.89416313 17.41453934 -0.47477525 25 1 5439 27.20400000 3184164997 3184164997 -1.00000000
20.83030319 14.15625858 -0.73296511 16 2 5440 25.19600000 3184164999 3184164999 -1.66700000
7.14926958 5.38736105 -2.50597262 4 3 5440 9.29600000 3184164999 3184164999 -15.63900000
9.72364902 6.60570478 -2.35105419 3 4 5441 11.98800000 3184165002 3184165002 -11.31000000
40.20859909 30.28835106 0.00000000 29 5 5441 50.34000000 3184165002 3184165002 0.00000000
39.29294205 23.96569252 -0.53581578 12 6 5442 46.02800000 3184165004 3184165004 -0.66700000
10.94986153 8.24532127 -2.13250709 2 7 5442 13.87200000 3184165004 3184165004 -8.84300000
13.28148556 9.01931286 -2.04352498 2 8 5442 16.18400000 3184165006 3184165006 -7.25400000
40.15534592 33.43243408 0.30368412 28 9 5442 52.25200000 3184165006 3184165006 0.33300000
40.28254318 27.34516525 -0.28297046 27 10 5443 48.68800000 3184165009 3184165009 -0.33300000
13.97430038 10.51892376 -1.88405132 2 11 5443 17.59200000 3184165009 3184165009 -6.14800000
16.43641472 10.01708698 -1.79679477 2 12 5444 19.33200000 3184165011 3184165011 -5.33300000
39.92918015 30.04511261 1.16278481 18 13 5444 49.98400000 3184165011 3184165011 1.33300000
40.49076462 24.66719246 0.55197358 29 14 5445 47.41600000 3184165013 3184165013 0.66700000
17.93730736 13.49220467 -1.56952071 2 15 5445 22.50000000 3184165013 3184165013 -4.00000000
17.12873268 11.61447239 -1.68945193 2 16 5446 20.76400000 3184165016 3184165016 -4.66700000
40.11623383 33.35247421 1.51829314 43 17 5446 52.19200000 3184165016 3184165016 1.66700000
40.52973175 27.48197556 0.85474908 27 18 5446 48.97600000 3184165018 3184165018 1.00000000
18.07024193 15.02352715 -1.50607216 3 19 5446 23.54800000 3184165018 3184165018 -3.66700000
20.67046165 12.58266640 -1.40928984 3 20 5447 24.24000000 3184165020 3184165020 -3.33300000
39.86578751 29.96473503 2.90439296 27 21 5447 49.95600000 3184165020 3184165020 3.33300000
39.70456314 26.90222740 1.95394945 20 22 5448 48.00000000 3184165023 3184165023 2.33300000
20.78619766 15.61806679 -1.21111214 9 23 5448 26.02800000 3184165023 3184165023 -2.66700000
20.76660728 14.06533623 -1.31446993 13 24 5449 25.11600000 3184165025 3184165025 -3.00000000
44.08717346 33.11362076 6.77008581 40 25 5449 55.55200000 3184165025 3184165025 7.00000000
43.10454178 29.18396950 4.24950361 46 26 5450 52.22800000 3184165027 3184165027 4.66700000
20.79961967 17.26817703 -1.10137618 29 27 5450 27.05600000 3184165027 3184165027 -2.33300000
20.79047966 12.63584042 -0.84959334 18 28 5451 24.34400000 3184165029 3184165029 -2.00000000
20.88804436 15.67748737 -0.60772628 23 31 5451 26.12400000 3184165032 3184165032 -1.33300000
3.99772286 2.69548297 -2.24832916 8 0 5461 5.32000000 3184165052 3184165052 -25.00000000
20.88998795 17.27556229 -0.47316965 21 1 5461 27.11200000 3184165052 3184165052 -1.00000000
20.83477211 14.04265213 -0.73121965 20 2 5462 25.13600000 3184165055 3184165055 -1.66700000
7.16681767 5.35756397 -2.50489426 4 3 5462 9.29200000 3184165055 3184165055 -15.63900000
9.74568844 6.56612825 -2.35026956 3 4 5463 11.98400000 3184165057 3184165057 -11.31000000
40.34703064 30.15049934 0.00000000 29 5 5463 50.36800000 3184165057 3184165057 0.00000000
39.35655975 23.80702400 -0.53548980 12 6 5463 46.00000000 3184165059 3184165059 -0.66700000
10.97051048 8.19803524 -2.13066244 2 7 5463 13.86000000 3184165059 3184165059 -8.84300000
13.31931019 8.97046566 -2.04402995 2 8 5464 16.18800000 3184165062 3184165062 -7.25400000
40.23408127 33.23723984 0.30331215 28 9 5464 52.18800000 3184165062 3184165062 0.33300000
40.35406113 27.16795158 -0.28273797 18 10 5465 48.64800000 3184165064 3184165064 -0.33300000
14.01458645 10.46518803 -1.88405132 4 11 5465 17.59200000 3184165064 3184165064 -6.14800000
16.47134781 9.95184231 -1.79642296 2 12 5466 19.32800000 3184165066 3184165066 -5.33300000
40.00579453 29.86286926 1.16166818 28 13 5466 49.93600000 3184165066 3184165066 1.33300000
40.46877289 24.44123459 0.55039042 29 14 5467 47.28000000 3184165069 3184165069 0.66700000
17.98578453 13.42084503 -1.56924164 4 15 5467 22.49600000 3184165069 3184165069 -4.00000000
17.16658592 11.54416752 -1.68880105 2 16 5468 20.75600000 3184165071 3184165071 -4.66700000
40.15763855 33.12695312 1.51503503 28 17 5468 52.08000000 3184165071 3184165071 1.66700000
39.98447800 26.88871765 0.84106636 26 18 5468 48.19200000 3184165073 3184165073 1.00000000
18.12471581 14.95149231 -1.50581634 3 19 5468 23.54400000 3184165073 3184165073 -3.66700000
20.61605644 12.44130802 -1.40231323 3 20 5469 24.12000000 3184165076 3184165076 -3.33300000
39.89731979 29.74937820 2.89834642 27 21 5469 49.85200000 3184165076 3184165076 3.33300000
39.81088257 26.75180435 1.95411229 30 22 5470 48.00400000 3184165078 3184165078 2.33300000
20.78514290 15.49276829 -1.20757568 9 23 5470 25.95200000 3184165078 3184165078 -2.66700000
20.77072144 13.95208454 -1.31132972 13 24 5471 25.05600000 3184165080 3184165080 -3.00000000
43.43804169 29.16714859 4.27130938 32 26 5472 52.49600000 3184165082 3184165082 4.66700000
20.80098915 17.13482094 -1.09795678 21 27 5472 26.97200000 3184165082 3184165082 -2.33300000
20.79433250 12.52909756 -0.84777856 15 28 5473 24.29200000 3184165085 3184165085 -2.00000000
20.88665199 15.54575920 -0.60586524 23 31 5474 26.04400000 3184165087 3184165087 -1.33300000
4.00409460 2.67949581 -2.24663877 8 0 5481 5.31600000 3184165108 3184165108 -25.00000000
20.89761925 17.15939140 -0.47198287 17 1 5481 27.04400000 3184165108 3184165108 -1.00000000
20.83381271 13.93649387 -0.72947425 20 2 5482 25.07600000 3184165110 3184165110 -1.66700000
7.18238211 5.33021879 -2.50381589 3 3 5482 9.28800000 3184165110 3184165110 -15.63900000
9.75876808 6.52552843 -2.34791613 3 4 5483 11.97200000 3184165112 3184165112 -11.31000000
40.46166611 30.01662827 0.00000000 19 5 5483 50.38000000 3184165112 3184165112 0.00000000
39.33310699 23.60569382 -0.53404635 12 6 5483 45.87600000 3184165115 3184165115 -0.66700000
10.99588585 8.15733624 -2.13004756 4 7 5483 13.85600000 3184165115 3184165115 -8.84300000
13.34394455 8.91950798 -2.04301977 2 8 5484 16.18000000 3184165117 3184165117 -7.25400000
40.26944351 33.03063965 0.30270770 28 9 5484 52.08400000 3184165117 3184165117 0.33300000
40.34222412 26.95581245 -0.28199404 18 10 5485 48.52000000 3184165119 3184165119 -0.33300000
14.01588821 10.39015198 -1.87933898 2 11 5485 17.54800000 3184165119 3184165119 -6.14800000
16.50940132 9.89633369 -1.79679477 2 12 5486 19.33200000 3184165122 3184165122 -5.33300000
40.11943054 29.73018456 1.16194737 18 13 5486 49.94800000 3184165122 3184165122 1.33300000
40.46463776 24.24637032 0.54917973 29 14 5487 47.17600000 3184165124 3184165124 0.66700000
18.02290154 13.35085583 -1.56840456 4 15 5487 22.48400000 3184165124 3184165124 -4.00000000
17.20014572 11.47974777 -1.68815005 2 16 5488 20.74800000 3184165126 3184165126 -4.66700000
40.09139633 26.75786209 0.84134561 26 18 5488 48.20800000 3184165129 3184165129 1.00000000
18.16753197 14.88054562 -1.50504887 3 19 5488 23.53200000 3184165129 3184165129 -3.66700000
20.64908028 12.36311531 -1.40161550 3 20 5489 24.10800000 3184165131 3184165131 -3.33300000
39.85969925 29.50539207 2.88811398 27 21 5489 49.67600000 3184165131 3184165131 3.33300000
39.89737320 26.60824013 1.95378661 20 22 5490 47.99600000 3184165133 3184165133 2.33300000
20.77485847 15.37258625 -1.20385325 11 23 5490 25.87200000 3184165133 3184165133 -2.66700000
20.75947189 13.83961201 -1.30756152 12 24 5491 24.98400000 3184165135 3184165135 -3.00000000
44.28084564 32.75414276 6.76277351 20 25 5491 55.49200000 3184165135 3184165135 7.00000000
43.72869110 29.14136314 4.28986025 49 26 5492 52.72400000 3184165138 3184165138 4.66700000
20.80498886 17.01656151 -1.09502590 18 27 5492 26.90000000 3184165138 3184165138 -2.33300000
20.78647232 12.42566872 -0.84568459 15 28 5493 24.23200000 3184165140 3184165140 -2.00000000
20.88932991 15.43473434 -0.60437638 23 31 5494 25.98000000 3184165142 3184165142 -1.33300000
4.00389957 2.66018438 -2.24156737 8 0 5500 5.30400000 3184165163 3184165163 -25.00000000
20.89241982 17.03944206 -0.47058669 24 1 5500 26.96400000 3184165163 3184165163 -1.00000000
20.82329369 13.82972431 -0.72749609 16 2 5501 25.00800000 3184165165 3184165165 -1.66700000
7.19691753 5.30408669 -2.50273776 4 3 5501 9.28400000 3184165165 3184165165 -15.63900000
9.78035355 6.49313164 -2.34791613 4 4 5502 11.97200000 3184165168 3184165168 -11.31000000
40.53522110 29.86330605 0.00000000 29 5 5502 50.34800000 3184165168 3184165168 0.00000000
39.38711548 23.46080399 -0.53372037 12 6 5502 45.84800000 3184165170 3184165170 -0.66700000
11.01969433 8.11848354 -2.12943268 3 7 5502 13.85200000 3184165170 3184165170 -8.84300000
13.37344933 8.87520885 -2.04301977 4 8 5503 16.18000000 3184165172 3184165172 -7.25400000
40.21129990 32.76049042 0.30145234 27 9 5503 51.86800000 3184165172 3184165172 0.33300000
40.31806183 26.74670410 -0.28120363 18 10 5504 48.38400000 3184165175 3184165175 -0.33300000
14.08229351 10.36719513 -1.88362288 2 11 5504 17.58800000 3184165175 3184165175 -6.14800000
16.54897308 9.84560490 -1.79753828 2 12 5505 19.34000000 3184165177 3184165177 -5.33300000
40.15982437 29.55431557 1.16027236 18 13 5505 49.87600000 3184165177 3184165177 1.33300000
39.86758041 23.70929909 0.54000658 41 14 5506 46.38800000 3184165179 3184165179 0.66700000
18.07993317 13.30047417 -1.56952071 4 15 5506 22.50000000 3184165179 3184165179 -4.00000000
17.24809074 11.42925358 -1.68912649 2 16 5507 20.76000000 3184165182 3184165182 -4.66700000
39.82701874 32.40118027 1.49420619 13 17 5507 51.36400000 3184165182 3184165182 1.66700000
40.33660126 26.72859764 0.84462667 26 18 5507 48.39600000 3184165184 3184165184 1.00000000
18.21677780 14.82021809 -1.50504887 3 19 5507 23.53200000 3184165184 3184165184 -3.66700000
20.69683075 12.29865170 -1.40208066 3 20 5508 24.11600000 3184165186 3184165186 -3.33300000
39.86401749 29.30446053 2.88136983 27 21 5508 49.56000000 3184165186 3184165186 3.33300000
39.98871994 26.47799492 1.95394945 20 22 5509 48.00000000 3184165188 3184165188 2.33300000
20.77420425 15.26575279 -1.20087528 11 23 5509 25.80800000 3184165188 3184165188 -2.66700000
20.75861740 13.73982906 -1.30463076 12 24 5510 24.92800000 3184165191 3184165191 -3.00000000
44.20043564 32.46844864 6.73401260 39 25 5510 55.25600000 3184165191 3184165191 7.00000000
42.27902222 27.97326279 4.13852262 27 26 5511 50.86400000 3184165193 3184165193 4.66700000
20.79926109 16.89707565 -1.09176922 17 27 5511 26.82000000 3184165193 3184165193 -2.33300000
20.78630638 12.33219337 -0.84400940 12 28 5512 24.18400000 3184165195 3184165195 -2.00000000
20.88558960 15.32516003 -0.60279447 23 31 5513 25.91200000 3184165198 3184165198 -1.33300000
4.00756884 2.64150143 -2.23818636 8 0 5521 5.29600000 3184165218 3184165218 -25.00000000
20.88945389 16.90991020 -0.46912068 21 1 5521 26.88000000 3184165218 3184165218 -1.00000000
20.83043861 13.72471333 -0.72598338 16 2 5522 24.95600000 3184165221 3184165221 -1.66700000
7.21941900 5.27994680 -2.50381589 4 3 5522 9.28800000 3184165221 3184165221 -15.63900000
9.67633533 6.37310076 -2.31732202 2 4 5523 11.81600000 3184165223 3184165223 -11.31000000
40.52169800 29.62482834 0.00000000 28 5 5523 50.19600000 3184165223 3184165223 0.00000000
39.46939468 23.31425095 -0.53367382 12 6 5523 45.84400000 3184165225 3184165225 -0.66700000
11.04299450 8.07337379 -2.12820292 2 7 5523 13.84400000 3184165225 3184165225 -8.84300000
13.31971931 8.76940155 -2.02988791 2 8 5524 16.07600000 3184165228 3184165228 -7.25400000
40.21291351 32.51731873 0.30056894 26 9 5524 51.71600000 3184165228 3184165228 0.33300000
40.26212692 26.49759865 -0.28013423 18 10 5525 48.20000000 3184165230 3184165230 -0.33300000
14.08487225 10.28970432 -1.87891066 2 11 5525 17.54400000 3184165230 3184165230 -6.14800000
16.58837891 9.78690720 -1.79791009 2 12 5526 19.34400000 3184165232 3184165232 -5.33300000
39.99014664 29.20410156 1.15226984 27 13 5526 49.53200000 3184165232 3184165232 1.33300000
40.00933838 23.59552574 0.54075158 28 14 5527 46.45200000 3184165234 3184165234 0.66700000
18.11244583 13.22235489 -1.56812549 4 15 5527 22.48000000 3184165234 3184165234 -4.00000000
17.27987099 11.35938931 -1.68815005 2 16 5528 20.74800000 3184165237 3184165237 -4.66700000
39.94239426 32.25247574 1.49408984 26 17 5528 51.36000000 3184165237 3184165237 1.66700000
40.08673477 26.35209656 0.83736646 38 18 5528 47.98000000 3184165239 3184165239 1.00000000
18.27097321 14.75335121 -1.50504887 3 19 5528 23.53200000 3184165239 3184165239 -3.66700000
20.75208855 12.22879410 -1.40277827 3 20 5529 24.12800000 3184165241 3184165241 -3.33300000
39.88727570 29.09696770 2.87532353 27 21 5529 49.45600000 3184165241 3184165241 3.33300000
40.16567230 26.38391495 1.95785737 20 22 5530 48.09600000 3184165244 3184165244 2.33300000
20.78481865 15.15654945 -1.19826949 6 23 5530 25.75200000 3184165244 3184165244 -2.66700000
20.76543045 13.63515091 -1.30190921 12 24 5531 24.87600000 3184165246 3184165246 -3.00000000
44.60147095 32.51202774 6.77691031 40 25 5531 55.60800000 3184165246 3184165246 7.00000000
20.80816078 16.77807999 -1.08900118 17 27 5532 26.75200000 3184165248 3184165248 -2.33300000
20.79001999 12.23159981 -0.84233427 15 28 5533 24.13600000 3184165251 3184165251 -2.00000000
20.88342857 15.20613766 -0.60111952 23 31 5534 25.84000000 3184165253 3184165253 -1.33300000
4.01888084 2.63088369 -2.23987675 8 0 5539 5.30000000 3184165274 3184165274 -25.00000000
20.88637924 16.79908180 -0.46786413 24 1 5539 26.80800000 3184165274 3184165274 -1.00000000
20.82995987 13.63074303 -0.72447067 20 2 5540 24.90400000 3184165276 3184165276 -1.66700000
7.23285437 5.25497627 -2.50273776 5 3 5540 9.28400000 3184165276 3184165276 -15.63900000
9.72585106 6.36199427 -2.32438207 2 4 5541 11.85200000 3184165278 3184165278 -11.31000000
40.51747131 29.42686272 0.00000000 18 5 5541 50.07600000 3184165278 3184165278 0.00000000
39.50449371 23.16788101 -0.53316158 12 6 5541 45.80000000 3184165281 3184165281 -0.66700000
11.06830311 8.03864193 -2.12820292 2 7 5541 13.84400000 3184165281 3184165281 -8.84300000
13.35052490 8.72968483 -2.03039312 2 8 5542 16.08000000 3184165283 3184165283 -7.25400000
40.08724213 32.20793915 0.29887185 25 9 5542 51.42400000 3184165283 3184165283 0.33300000
40.25477219 26.31189156 -0.27950656 27 10 5543 48.09200000 3184165285 3184165285 -0.33300000
14.11712837 10.24540520 -1.87891066 4 11 5543 17.54400000 3184165285 3184165285 -6.14800000
16.60529709 9.72669315 -1.79642296 2 12 5544 19.32800000 3184165287 3184165287 -5.33300000
40.12377548 29.10885239 1.15347958 18 13 5544 49.58400000 3184165287 3184165287 1.33300000
39.96936417 23.40302467 0.53921497 27 14 5545 46.32000000 3184165290 3184165290 0.66700000
18.16681671 13.17475796 -1.56924164 4 15 5545 22.49600000 3184165290 3184165290 -4.00000000
17.30545616 11.29850864 -1.68717372 2 16 5546 20.73600000 3184165292 3184165292 -4.66700000
39.68799591 31.84159660 1.48082459 36 17 5546 50.90400000 3184165292 3184165292 1.66700000
40.39034653 26.37033463 0.84197390 26 18 5546 48.24400000 3184165294 3184165294 1.00000000
18.30477905 14.68588638 -1.50402546 2 19 5546 23.51600000 3184165294 3184165294 -3.66700000
20.78006363 12.15748978 -1.40208066 7 20 5547 24.11600000 3184165297 3184165297 -3.33300000
39.83945084 28.87075615 2.86532354 27 21 5547 49.28400000 3184165297 3184165297 3.33300000
40.16132736 26.20082283 1.95362377 20 22 5548 47.99200000 3184165299 3184165299 2.33300000
20.78055763 15.05367279 -1.19529152 6 23 5548 25.68800000 3184165299 3184165299 -2.66700000
20.75128365 13.53275299 -1.29835045 12 24 5549 24.80800000 3184165301 3184165301 -3.00000000
44.40433884 32.15519333 6.73157501 59 25 5549 55.23600000 3184165301 3184165301 7.00000000
42.91263580 27.97439575 4.18180847 28 26 5550 51.39600000 3184165304 3184165304 4.66700000
20.80150604 16.66514778 -1.08590746 17 27 5550 26.67600000 3184165304 3184165304 -2.33300000
20.77656746 12.13598156 -0.84024030 15 28 5551 24.07600000 3184165306 3184165306 -2.00000000
20.87661934 15.10659981 -0.59963071 25 31 5551 25.77600000 3184165308 3184165308 -1.33300000
4.01374960 2.60556340 -2.23142433 8 0 5561 5.28000000 3184165329 3184165329 -25.00000000
20.88195610 16.66387939 -0.46632829 23 1 5561 26.72000000 3184165329 3184165329 -1.00000000
20.82512474 13.51366138 -0.72249252 20 2 5562 24.83600000 3184165331 3184165331 -1.66700000
7.24360371 5.22040939 -2.49950266 4 3 5562 9.27200000 3184165331 3184165331 -15.63900000
9.74691677 6.32246876 -2.32359767 2 4 5563 11.84800000 3184165334 3184165334 -11.31000000
40.59121704 29.24301338 0.00000000 18 5 5563 50.02800000 3184165334 3184165334 0.00000000
39.47613907 22.93877983 -0.53153187 12 6 5564 45.66000000 3184165336 3184165336 -0.66700000
11.09406853 7.98952627 -2.12697291 3 7 5564 13.83600000 3184165336 3184165336 -8.84300000
13.36729908 8.66756344 -2.02786779 2 8 5564 16.06000000 3184165338 3184165338 -7.25400000
40.02295303 31.90418053 0.29747698 25 9 5564 51.18400000 3184165338 3184165338 0.33300000
40.25816727 26.09403992 -0.27883238 27 10 5565 47.97600000 3184165340 3184165340 -0.33300000
14.14990807 10.18647671 -1.87805378 4 11 5565 17.53600000 3184165340 3184165340 -6.14800000
16.64252281 9.66286182 -1.79642296 2 12 5566 19.32800000 3184165343 3184165343 -5.33300000
39.97882843 28.77004623 1.14612842 27 13 5566 49.26800000 3184165343 3184165343 1.33300000
40.26303101 23.36783600 0.54196227 28 14 5567 46.55600000 3184165345 3184165345 0.66700000
18.19459534 13.08859444 -1.56728840 4 15 5567 22.46800000 3184165345 3184165345 -4.00000000
17.37213898 11.24714470 -1.68945193 2 16 5568 20.76400000 3184165347 3184165347 -4.66700000
39.75991440 31.64912987 1.47896278 36 17 5568 50.84000000 3184165347 3184165347 1.66700000
40.44215775 26.17321777 0.84085697 26 18 5569 48.18000000 3184165350 3184165350 1.00000000
18.36046028 14.60980225 -1.50376964 2 19 5569 23.51200000 3184165350 3184165350 -3.66700000
20.80241203 12.06358719 -1.40045273 11 20 5569 24.08800000 3184165352 3184165352 -3.33300000
39.78140640 28.59637070 2.85323048 27 21 5569 49.07600000 3184165352 3184165352 3.33300000
39.94620132 25.84235573 1.93831789 30 22 5570 47.61600000 3184165354 3184165354 2.33300000
20.77979851 14.93180084 -1.19194126 12 23 5570 25.61600000 3184165354 3184165354 -2.66700000
20.74942398 13.41826820 -1.29500091 17 24 5571 24.74400000 3184165357 3184165357 -3.00000000
44.78866196 32.17206955 6.77106094 40 25 5571 55.56000000 3184165357 3184165357 7.00000000
43.14696121 27.89166260 4.19417572 29 26 5572 51.54800000 3184165359 3184165359 4.66700000
20.79963875 16.53292847 -1.08248806 17 27 5572 26.59200000 3184165359 3184165359 -2.33300000
20.77112007 12.02607059 -0.83814633 15 28 5573 24.01600000 3184165361 3184165361 -2.00000000
20.87599564 14.98435593 -0.59795576 24 31 5573 25.70400000 3184165364 3184165364 -1.33300000
4.01886845 2.59097672 -2.22973394 7 0 5579 5.27600000 3184165384 3184165384 -25.00000000
20.88406181 16.55843925 -0.46521133 16 1 5579 26.65600000 3184165384 3184165384 -1.00000000
20.81706429 13.41568279 -0.72074705 19 2 5580 24.77600000 3184165387 3184165387 -1.66700000
7.26310062 5.19986916 -2.50058103 4 3 5580 9.27600000 3184165387 3184165387 -15.63900000
9.76013660 6.28756809 -2.32202864 2 4 5581 11.84000000 3184165389 3184165389 -11.31000000
40.57229233 29.03619766 0.00000000 18 5 5581 49.89200000 3184165389 3184165389 0.00000000
39.56879425 22.82664108 -0.53181124 12 6 5582 45.68400000 3184165391 3184165391 -0.66700000
11.11911297 7.95463419 -2.12697291 4 7 5582 13.83600000 3184165391 3184165391 -8.84300000
13.40113544 8.62982273 -2.02887774 2 8 5582 16.06800000 3184165393 3184165393 -7.25400000
39.79688263 31.52000809 0.29505923 23 9 5582 50.76800000 3184165393 3184165393 0.33300000
40.24240875 25.90464973 -0.27815819 17 10 5583 47.86000000 3184165396 3184165396 -0.33300000
14.18183994 10.14197254 -1.87805378 2 11 5583 17.53600000 3184165396 3184165396 -6.14800000
16.67279625 9.61052990 -1.79642296 2 12 5584 19.32800000 3184165398 3184165398 -5.33300000
40.20890045 28.74430656 1.15012968 18 13 5584 49.44000000 3184165398 3184165398 1.33300000
40.13870239 23.12741089 0.53930813 41 14 5585 46.32800000 3184165400 3184165400 0.66700000
18.23887253 13.03369045 -1.56756747 4 15 5585 22.47200000 3184165400 3184165400 -4.00000000
17.40403366 11.19035625 -1.68912649 2 16 5586 20.76000000 3184165403 3184165403 -4.66700000
39.72116089 31.41493416 1.47384286 23 17 5586 50.66400000 3184165403 3184165403 1.66700000
40.38507462 25.96658897 0.83806455 25 18 5586 48.02000000 3184165405 3184165405 1.00000000
18.40372658 14.55526161 -1.50376964 2 19 5586 23.51200000 3184165405 3184165405 -3.66700000
20.77791595 11.96231270 -1.39626670 11 20 5587 24.01600000 3184165407 3184165407 -3.33300000
39.87754822 28.47589493 2.85369563 27 21 5587 49.08400000 3184165407 3184165407 3.33300000
39.99020386 25.69297028 1.93652678 20 22 5588 47.57200000 3184165410 3184165410 2.33300000
20.77457237 14.82930279 -1.18896329 23 23 5588 25.55200000 3184165410 3184165410 -2.66700000
20.74442101 13.32279491 -1.29207003 12 24 5589 24.68800000 3184165412 3184165412 -3.00000000
43.78747559 31.24483490 6.60483074 35 25 5589 54.19600000 3184165412 3184165412 7.00000000
43.35850525 27.83566475 4.20621777 14 26 5590 51.69600000 3184165414 3184165414 4.66700000
20.80129051 16.42786980 -1.07988274 17 27 5590 26.52800000 3184165414 3184165414 -2.33300000
20.77413940 11.94083595 -0.83675033 15 28 5591 23.97600000 3184165417 3184165417 -2.00000000
20.86761475 14.87923050 -0.59637386 22 31 5591 25.63600000 3184165419 3184165419 -1.33300000
4.01656961 2.56771588 -2.22297215 6 0 5601 5.26000000 3184165439 3184165439 -25.00000000
20.88147545 16.42620087 -0.46374536 16 1 5601 26.57200000 3184165439 3184165439 -1.00000000
20.82462502 13.30766296 -0.71923435 19 2 5602 24.72400000 3184165441 3184165441 -1.66700000
7.27987242 5.16971254 -2.49950266 4 3 5602 9.27200000 3184165441 3184165441 -15.63900000
9.79081821 6.25426865 -2.32359767 2 4 5603 11.84800000 3184165444 3184165444 -11.31000000
40.53996658 28.77832031 0.00000000 18 5 5603 49.71600000 3184165444 3184165444 0.00000000
39.62094498 22.66358757 -0.53139216 12 6 5603 45.64800000 3184165446 3184165446 -0.66700000
11.13852501 7.90696335 -2.12512827 3 7 5603 13.82400000 3184165446 3184165446 -8.84300000
13.43751717 8.58043861 -2.02938294 2 8 5604 16.07200000 3184165448 3184165448 -7.25400000
40.09059906 31.50289345 0.29633784 24 9 5604 50.98800000 3184165448 3184165448 0.33300000
40.36180878 25.76285172 -0.27829766 17 10 5605 47.88400000 3184165451 3184165451 -0.33300000
14.21419048 10.08284187 -1.87719703 4 11 5605 17.52800000 3184165451 3184165451 -6.14800000
16.70611763 9.54446507 -1.79605114 2 12 5606 19.32400000 3184165453 3184165453 -5.33300000
40.16239548 28.47867584 1.14566314 18 13 5606 49.24800000 3184165453 3184165453 1.33300000
40.24110413 22.98105431 0.53949434 27 14 5607 46.34400000 3184165455 3184165455 0.66700000
18.28552818 12.96125412 -1.56728840 4 15 5607 22.46800000 3184165455 3184165455 -4.00000000
17.43342590 11.11487484 -1.68782461 2 16 5608 20.74400000 3184165457 3184165457 -4.66700000
39.54895782 31.03264236 1.46302116 33 17 5608 50.29200000 3184165457 3184165457 1.66700000
40.33610153 25.71672821 0.83499295 25 18 5608 47.84400000 3184165460 3184165460 1.00000000
18.45005798 14.47709656 -1.50300217 5 19 5608 23.50000000 3184165460 3184165460 -3.66700000
20.70230293 11.81317520 -1.38812721 7 20 5609 23.87600000 3184165462 3184165462 -3.33300000
39.78129959 28.17715645 2.83904457 26 21 5609 48.83200000 3184165462 3184165462 3.33300000
39.80878830 25.36099434 1.92301190 20 22 5610 47.24000000 3184165464 3184165464 2.33300000
20.77592278 14.71017265 -1.18579912 12 23 5610 25.48400000 3184165464 3184165464 -2.66700000
20.74488449 13.21085930 -1.28892994 21 24 5611 24.62800000 3184165467 3184165467 -3.00000000
44.59737396 31.56501770 6.70866346 38 25 5611 55.04800000 3184165467 3184165467 7.00000000
42.66464233 27.15944099 4.12875891 39 26 5612 50.74400000 3184165469 3184165469 4.66700000
20.80444336 16.30104256 -1.07678902 21 27 5612 26.45200000 3184165469 3184165469 -2.33300000
20.78162766 11.83921432 -0.83521473 15 28 5613 23.93200000 3184165471 3184165471 -2.00000000
20.87888527 14.76666737 -0.59507114 24 31 5613 25.58000000 3184165474 3184165474 -1.33300000
3.99183464 2.53231812 -2.20437694 5 0 5621 5.21600000 3184165494 3184165494 -25.00000000
20.88195038 16.30890083 -0.46248877 20 1 5621 26.50000000 3184165494 3184165494 -1.00000000
20.82705307 13.20705414 -0.71772164 19 2 5622 24.67200000 3184165497 3184165497 -1.66700000
7.29787397 5.14426947 -2.49950266 5 3 5622 9.27200000 3184165497 3184165497 -15.63900000
9.81258965 6.22005415 -2.32359767 2 4 5623 11.84800000 3184165499 3184165499 -11.31000000
40.46033859 28.50991249 0.00000000 18 5 5623 49.49600000 3184165499 3184165499 0.00000000
39.69981384 22.52514648 -0.53139216 12 6 5623 45.64800000 3184165501 3184165501 -0.66700000
11.16282654 7.86575794 -2.12451339 2 7 5623 13.82000000 3184165501 3184165501 -8.84300000
13.46403503 8.53135681 -2.02887774 2 8 5624 16.06800000 3184165504 3184165504 -7.25400000
40.04263306 31.23974037 0.29517546 35 9 5624 50.78800000 3184165504 3184165504 0.33300000
40.45486832 25.62394714 -0.27832091 17 10 5625 47.88800000 3184165506 3184165506 -0.33300000
14.25255108 10.03545380 -1.87762547 4 11 5625 17.53200000 3184165506 3184165506 -6.14800000
16.74626160 9.49001884 -1.79679477 2 12 5626 19.33200000 3184165508 3184165508 -5.33300000
40.07189178 28.20481300 1.14026606 18 13 5626 49.01600000 3184165508 3184165508 1.33300000
40.35239792 22.85818863 0.53991342 27 14 5627 46.38000000 3184165510 3184165510 0.66700000
18.35676575 12.91571617 -1.56952071 4 15 5627 22.50000000 3184165510 3184165510 -4.00000000
17.47885704 11.05821609 -1.68847549 2 16 5628 20.75200000 3184165513 3184165513 -4.66700000
39.75797272 30.97303200 1.46674478 22 17 5628 50.42000000 3184165513 3184165513 1.66700000
39.97273254 25.28924561 0.82563847 25 18 5628 47.30800000 3184165515 3184165515 1.00000000
18.32728386 14.27767944 -1.48893154 8 19 5628 23.28000000 3184165515 3184165515 -3.66700000
20.70171165 11.71723461 -1.38533664 7 20 5629 23.82800000 3184165517 3184165517 -3.33300000
39.94801331 28.08635330 2.84392834 26 21 5629 48.91600000 3184165517 3184165517 3.33300000
39.85653305 25.19625473 1.92105794 30 22 5630 47.19200000 3184165520 3184165520 2.33300000
20.77483940 14.60080147 -1.18282115 21 23 5630 25.42000000 3184165520 3184165520 -2.66700000
20.76048088 13.11916065 -1.28704584 25 24 5631 24.59200000 3184165522 3184165522 -3.00000000
43.90181351 27.73213005 4.23908901 15 26 5632 52.10000000 3184165524 3184165524 4.66700000
20.80128098 16.18169594 -1.07369518 16 27 5632 26.37600000 3184165524 3184165524 -2.33300000
20.77758408 11.74103355 -0.83339995 15 28 5633 23.88000000 3184165527 3184165527 -2.00000000
20.88775444 14.66382694 -0.59386146 22 31 5633 25.52800000 3184165529 3184165529 -1.33300000
3.94849396 2.48553705 -2.17563891 3 0 5641 5.14800000 3184165550 3184165550 -25.00000000
20.88186264 16.19179535 -0.46123219 16 1 5641 26.42800000 3184165550 3184165550 -1.00000000
20.82565117 13.10446262 -0.71609259 19 2 5642 24.61600000 3184165552 3184165552 -1.66700000
7.31578636 5.11876392 -2.49950266 4 3 5642 9.27200000 3184165552 3184165552 -15.63900000
9.83092213 6.18367577 -2.32281327 2 4 5643 11.84400000 3184165554 3184165554 -11.31000000
40.54322052 28.35704422 0.00000000 18 5 5643 49.47600000 3184165554 3184165554 0.00000000
39.60740280 22.29030991 -0.52911049 24 6 5643 45.45200000 3184165557 3184165557 -0.66700000
11.19021511 7.82674456 -2.12451339 2 7 5643 13.82000000 3184165557 3184165557 -8.84300000
13.49037361 8.48219490 -2.02837276 2 8 5644 16.06400000 3184165559 3184165559 -7.25400000
40.12929916 31.08262825 0.29501274 23 9 5644 50.76000000 3184165559 3184165559 0.33300000
40.46278763 25.43149185 -0.27776298 17 10 5645 47.79200000 3184165561 3184165561 -0.33300000
14.27771568 9.97880650 -1.87634027 4 11 5645 17.52000000 3184165561 3184165561 -6.14800000
16.77234268 9.42760277 -1.79605114 2 12 5646 19.32400000 3184165563 3184165563 -5.33300000
40.06520081 27.99147606 1.13728845 27 13 5646 48.88800000 3184165563 3184165563 1.33300000
40.34825516 22.67017174 0.53879589 27 14 5647 46.28400000 3184165566 3184165566 0.66700000
18.38538170 12.84013653 -1.56812549 4 15 5647 22.48000000 3184165566 3184165566 -4.00000000
17.50722122 10.99077702 -1.68749917 2 16 5648 20.74000000 3184165568 3184165568 -4.66700000
39.87849808 30.84384727 1.46721017 22 17 5648 50.43600000 3184165568 3184165568 1.66700000
40.01772690 25.11280632 0.82466114 25 18 5649 47.25200000 3184165570 3184165570 1.00000000
18.34159660 14.18111038 -1.48586154 28 19 5649 23.23200000 3184165570 3184165570 -3.66700000
20.70418358 11.62339783 -1.38277853 7 20 5649 23.78400000 3184165573 3184165573 -3.33300000
39.99341583 27.91017342 2.84020734 26 21 5649 48.85200000 3184165573 3184165573 3.33300000
39.79188538 24.96140289 1.91373062 30 22 5650 47.01200000 3184165575 3184165575 2.33300000
20.78307724 14.49847507 -1.18040156 19 23 5650 25.36800000 3184165575 3184165575 -2.66700000
20.75876999 13.01690388 -1.28411508 25 24 5651 24.53600000 3184165577 3184165577 -3.00000000
43.74198914 30.50348663 6.54779625 34 25 5651 53.72800000 3184165577 3184165577 7.00000000
43.74499893 27.41991234 4.21467972 15 26 5652 51.80000000 3184165580 3184165580 4.66700000
20.80386543 16.06745720 -1.07092714 23 27 5652 26.30800000 3184165580 3184165580 -2.33300000
20.76962090 11.64107227 -0.83144563 15 28 5653 23.82400000 3184165582 3184165582 -2.00000000
20.87319565 14.54510117 -0.59200037 24 31 5653 25.44800000 3184165584 3184165584 -1.33300000
3.94792199 2.46597743 -2.17056727 4 0 5661 5.13600000 3184165605 3184165605 -25.00000000
20.87804222 16.07245255 -0.45990580 20 1 5661 26.35200000 3184165605 3184165605 -1.00000000
20.82039452 12.99992371 -0.71434718 19 2 5662 24.55600000 3184165607 3184165607 -1.66700000
7.31779051 5.08220959 -2.49411130 3 3 5662 9.25200000 3184165607 3184165607 -15.63900000
9.85577488 6.15139866 -2.32359767 2 4 5663 11.84800000 3184165609 3184165609 -11.31000000
40.51052475 28.12410355 0.00000000 18 5 5663 49.31600000 3184165609 3184165609 0.00000000
39.67835617 22.13914490 -0.52897084 12 6 5664 45.44000000 3184165612 3184165612 -0.66700000
11.22532082 7.79018450 -2.12574315 3 7 5664 13.82800000 3184165612 3184165612 -8.84300000
13.52326584 8.43715286 -2.02887774 2 8 5664 16.06800000 3184165614 3184165614 -7.25400000
40.25341034 30.95455360 0.29512897 11 9 5664 50.78000000 3184165614 3184165614 0.33300000
40.48682785 25.24987793 -0.27732128 17 10 5665 47.71600000 3184165616 3184165616 -0.33300000
14.30592537 9.92437363 -1.87548351 4 11 5665 17.51200000 3184165616 3184165616 -6.14800000
16.79123497 9.36124134 -1.79456413 2 12 5666 19.30800000 3184165619 3184165619 -5.33300000
40.10023117 27.80815506 1.13552046 18 13 5666 48.81200000 3184165619 3184165619 1.33300000
40.19654846 22.40068817 0.53572267 27 14 5667 46.02000000 3184165621 3184165621 0.66700000
18.41697311 12.76678848 -1.56700945 4 15 5667 22.46400000 3184165621 3184165621 -4.00000000
17.54547882 10.92959785 -1.68749917 2 16 5668 20.74000000 3184165623 3184165623 -4.66700000
39.75759125 30.52912712 1.45883214 32 17 5668 50.14800000 3184165623 3184165623 1.66700000
40.23317337 25.06243515 0.82738370 25 18 5668 47.40800000 3184165626 3184165626 1.00000000
18.36002731 14.09832954 -1.48355913 31 19 5668 23.19600000 3184165626 3184165626 -3.66700000
20.70625305 11.52968693 -1.38022041 7 20 5669 23.74000000 3184165628 3184165628 -3.33300000
40.00853348 27.71355247 2.83439350 26 21 5669 48.75200000 3184165628 3184165628 3.33300000
39.89574051 24.83291054 1.91454482 30 22 5670 47.03200000 3184165630 3184165630 2.33300000
20.77771378 14.38717175 -1.17723739 23 23 5670 25.30000000 3184165630 3184165630 -2.66700000
20.75659943 12.91481972 -1.28118420 25 24 5671 24.48000000 3184165633 3184165633 -3.00000000
43.71762085 30.26022911 6.52829695 33 25 5671 53.56800000 3184165633 3184165633 7.00000000
43.45112991 27.02490616 4.17725182 28 26 5672 51.34000000 3184165635 3184165635 4.66700000
20.79322052 15.94367027 -1.06750774 23 27 5672 26.22400000 3184165635 3184165635 -2.33300000
20.76819992 11.54519367 -0.82977045 15 28 5673 23.77600000 3184165637 3184165637 -2.00000000
20.87702560 14.43438625 -0.59060460 24 31 5674 25.38800000 3184165639 3184165639 -1.33300000
3.96266866 2.45600128 -2.17394829 3 0 5681 5.14400000 3184165660 3184165660 -25.00000000
20.87999916 15.95819092 -0.45871904 16 1 5681 26.28400000 3184165660 3184165660 -1.00000000
20.82146072 12.89979267 -0.71283442 19 2 5682 24.50400000 3184165662 3184165662 -1.66700000
7.34817171 5.06537962 -2.49842453 6 3 5682 9.26800000 3184165662 3184165662 -15.63900000
9.87385273 6.11489296 -2.32281327 2 4 5683 11.84400000 3184165665 3184165665 -11.31000000
40.57551193 27.95982742 0.00000000 18 5 5683 49.27600000 3184165665 3184165665 0.00000000
39.75189590 21.99857140 -0.52892423 12 6 5684 45.43600000 3184165667 3184165667 -0.66700000
11.24919033 7.74871111 -2.12512827 2 7 5684 13.82400000 3184165667 3184165667 -8.84300000
13.54926109 8.38780785 -2.02837276 4 8 5684 16.06400000 3184165669 3184165669 -7.25400000
40.24993896 30.72890091 0.29431531 23 9 5684 50.64000000 3184165669 3184165669 0.33300000
40.51349640 25.07051277 -0.27690282 17 10 5685 47.64400000 3184165672 3184165672 -0.33300000
14.33720589 9.87212086 -1.87505507 2 11 5685 17.50800000 3184165672 3184165672 -6.14800000
16.83078003 9.30642605 -1.79530764 2 12 5686 19.31600000 3184165674 3184165674 -5.33300000
39.97964859 27.51836586 1.12937891 17 13 5686 48.54800000 3184165674 3184165674 1.33300000
40.42502213 22.34343719 0.53772491 13 14 5687 46.19200000 3184165676 3184165676 0.66700000
18.46800041 12.70694733 -1.56756747 4 15 5687 22.47200000 3184165676 3184165676 -4.00000000
17.57674026 10.86409378 -1.68684828 2 16 5688 20.73200000 3184165679 3184165679 -4.66700000
39.86073685 30.38773727 1.45871580 21 17 5688 50.14400000 3184165679 3184165679 1.66700000
40.12649918 24.80198479 0.82340455 25 18 5688 47.18000000 3184165681 3184165681 1.00000000
18.39325523 14.02205467 -1.48227990 14 19 5688 23.17600000 3184165681 3184165681 -3.66700000
20.71141624 11.43803310 -1.37789476 7 20 5689 23.70000000 3184165683 3184165683 -3.33300000
39.92404938 27.44929886 2.82160306 26 21 5689 48.53200000 3184165683 3184165683 3.33300000
40.00938416 24.71029854 1.91584742 30 22 5690 47.06400000 3184165686 3184165686 2.33300000
20.77182770 14.27608204 -1.17407334 23 23 5690 25.23200000 3184165686 3184165686 -2.66700000
20.74717140 12.80871201 -1.27783465 25 24 5691 24.41600000 3184165688 3184165688 -3.00000000
43.30922699 29.75448036 6.45176315 31 25 5691 52.94000000 3184165688 3184165688 7.00000000
20.80422592 15.83709908 -1.06522810 23 27 5692 26.16800000 3184165690 3184165690 -2.33300000
20.77336693 11.45332718 -0.82837445 18 28 5693 23.73600000 3184165692 3184165692 -2.00000000
20.87862206 14.33339024 -0.58930188 24 31 5693 25.33200000 3184165695 3184165695 -1.33300000
4.98302412 3.06677580 -2.72842360 8 0 5699 6.45600000 3184165715 3184165715 -25.00000000
20.86951065 15.84656334 -0.45739266 13 1 5699 26.20800000 3184165715 3184165715 -1.00000000
20.81420708 12.80498600 -0.71120536 19 2 5700 24.44800000 3184165718 3184165718 -1.66700000
7.35451412 5.03574085 -2.49518967 33 3 5700 9.25600000 3184165718 3184165718 -15.63900000
9.88633156 6.07973385 -2.32124424 2 4 5701 11.83600000 3184165720 3184165720 -11.31000000
40.52121353 27.73506737 0.00000000 18 5 5701 49.10400000 3184165720 3184165720 0.00000000
39.82049561 21.88245392 -0.52897084 12 6 5701 45.44000000 3184165722 3184165722 -0.66700000
11.27539349 7.71753263 -2.12574315 2 7 5701 13.82800000 3184165722 3184165722 -8.84300000
13.57554531 8.34520054 -2.02837276 4 8 5702 16.06400000 3184165725 3184165725 -7.25400000
40.48331451 30.70624161 0.29531497 35 9 5702 50.81200000 3184165725 3184165725 0.33300000
40.51367569 24.89494705 -0.27636811 17 10 5703 47.55200000 3184165727 3184165727 -0.33300000
14.36486626 9.82478523 -1.87462676 4 11 5703 17.50400000 3184165727 3184165727 -6.14800000
16.86342430 9.25542164 -1.79567945 2 12 5704 19.32000000 3184165729 3184165729 -5.33300000
40.15833664 27.45582581 1.13198435 18 13 5704 48.66000000 3184165729 3184165729 1.33300000
40.72294998 22.34137726 0.54075158 28 14 5705 46.45200000 3184165732 3184165732 0.66700000
18.49135590 12.63760853 -1.56617236 6 15 5705 22.45200000 3184165732 3184165732 -4.00000000
17.61758041 10.81299210 -1.68749917 2 16 5706 20.74000000 3184165734 3184165734 -4.66700000
40.01656342 30.30822945 1.46092665 22 17 5706 50.22000000 3184165734 3184165734 1.66700000
40.27920914 24.72182655 0.82494032 37 18 5706 47.26800000 3184165736 3184165736 1.00000000
20.69822502 11.34603786 -1.37463903 7 20 5707 23.64400000 3184165739 3184165739 -3.33300000
39.95072937 27.28320122 2.81741691 26 21 5707 48.46000000 3184165739 3184165739 3.33300000
39.83810425 24.43195343 1.90396094 20 22 5708 46.77200000 3184165741 3184165741 2.33300000
20.77037430 14.17921543 -1.17146754 25 23 5708 25.17600000 3184165741 3184165741 -2.66700000
20.74644089 12.71841717 -1.27532256 24 24 5709 24.36800000 3184165743 3184165743 -3.00000000
43.43856430 29.64289093 6.45712519 31 25 5709 52.98400000 3184165743 3184165743 7.00000000
43.23849487 26.49658394 4.13982439 27 26 5710 50.88000000 3184165745 3184165745 4.66700000
20.79331017 15.72585678 -1.06213439 20 27 5710 26.09200000 3184165745 3184165745 -2.33300000
20.76716423 11.36497974 -0.82669926 17 28 5711 23.68800000 3184165748 3184165748 -2.00000000
20.86986542 14.22578526 -0.58771998 23 31 5712 25.26400000 3184165750 3184165750 -1.33300000
5.01642513 3.06083751 -2.74025679 7 0 5721 6.48400000 3184165771 3184165771 -25.00000000
20.86950874 15.72059250 -0.45606628 13 1 5721 26.13200000 3184165771 3184165771 -1.00000000
20.81543350 12.69582367 -0.70957631 19 2 5722 24.39200000 3184165773 3184165773 -1.66700000
7.36742258 5.00313663 -2.49303293 59 3 5722 9.24800000 3184165773 3184165773 -15.63900000
9.91295242 6.04376984 -2.32202864 2 4 5723 11.84000000 3184165775 3184165775 -11.31000000
40.61748123 27.57253456 0.00000000 18 5 5723 49.09200000 3184165775 3184165775 0.00000000
39.76020432 21.65096855 -0.52706170 12 6 5723 45.27600000 3184165778 3184165778 -0.66700000
11.29840279 7.66974163 -2.12451339 2 7 5723 13.82000000 3184165778 3184165778 -8.84300000
13.61426544 8.29714298 -2.02938294 2 8 5724 16.07200000 3184165780 3184165780 -7.25400000
40.57854843 30.53373528 0.29515222 35 9 5724 50.78400000 3184165780 3184165780 0.33300000
40.46891022 24.65388107 -0.27541497 17 10 5725 47.38800000 3184165782 3184165782 -0.33300000
14.40248489 9.76955605 -1.87462676 4 11 5725 17.50400000 3184165782 3184165782 -6.14800000
16.88834381 9.18489361 -1.79456413 2 12 5726 19.30800000 3184165785 3184165785 -5.33300000
39.68093872 26.90643692 1.11560714 17 13 5726 47.95600000 3184165785 3184165785 1.33300000
40.52028656 22.02819824 0.53693330 13 14 5727 46.12400000 3184165787 3184165787 0.66700000
17.66578102 10.74941063 -1.68815005 2 16 5728 20.74800000 3184165789 3184165789 -4.66700000
39.97281647 30.03426361 1.45510852 21 17 5728 50.02000000 3184165789 3184165789 1.66700000
40.33966827 24.54619408 0.82424223 12 18 5728 47.22800000 3184165792 3184165792 1.00000000
18.50346375 13.90289593 -1.48330331 5 19 5728 23.19200000 3184165792 3184165792 -3.66700000
20.71005821 11.24932480 -1.37254596 7 20 5729 23.60800000 3184165794 3184165794 -3.33300000
39.77746964 26.94149590 2.79788232 25 21 5729 48.12400000 3184165794 3184165794 3.33300000
39.98284912 24.30995178 1.90640330 20 22 5730 46.83200000 3184165796 3184165796 2.33300000
20.77172852 14.06351662 -1.16848958 23 23 5730 25.11200000 3184165796 3184165796 -2.66700000
20.75074768 12.61169243 -1.27260113 28 24 5731 24.31600000 3184165798 3184165798 -3.00000000
43.89072037 29.70508194 6.50733566 33 25 5731 53.39600000 3184165798 3184165798 7.00000000
43.29221344 26.30138397 4.13526821 26 26 5732 50.82400000 3184165801 3184165801 4.66700000
20.78640366 15.59553051 -1.05871499 23 27 5732 26.00800000 3184165801 3184165801 -2.33300000
20.76848030 11.26228905 -0.82502413 17 28 5733 23.64000000 3184165803 3184165803 -2.00000000
20.87795448 14.11419106 -0.58641726 23 31 5734 25.20800000 3184165805 3184165805 -1.33300000
5.02601624 3.04506278 -2.74025679 7 0 5739 6.48400000 3184165826 3184165826 -25.00000000
20.86756134 15.61661148 -0.45494932 16 1 5739 26.06800000 3184165826 3184165826 -1.00000000
20.80733490 12.60136986 -0.70794725 19 2 5740 24.33600000 3184165828 3184165828 -1.66700000
7.37991047 4.97781277 -2.49195457 51 3 5740 9.24400000 3184165828 3184165828 -15.63900000
9.93189049 6.01259756 -2.32202864 2 4 5741 11.84000000 3184165831 3184165831 -11.31000000
40.58782578 27.36652756 0.00000000 18 5 5741 48.95200000 3184165831 3184165831 0.00000000
39.78228378 21.50122833 -0.52645636 12 6 5741 45.22400000 3184165833 3184165833 -0.66700000
11.32244205 7.63420868 -2.12451339 2 7 5741 13.82000000 3184165833 3184165833 -8.84300000
13.61650085 8.23995113 -2.02584743 4 8 5742 16.04400000 3184165835 3184165835 -7.25400000
40.53651047 30.30312157 0.29415259 23 9 5742 50.61200000 3184165835 3184165835 0.33300000
40.48113632 24.48728752 -0.27497327 17 10 5743 47.31200000 3184165838 3184165838 -0.33300000
14.42321110 9.71759415 -1.87334156 4 11 5743 17.49200000 3184165838 3184165838 -6.14800000
16.94515228 9.14692688 -1.79753828 2 12 5744 19.34000000 3184165840 3184165840 -5.33300000
39.78849030 26.79727936 1.11625850 17 13 5744 47.98400000 3184165840 3184165840 1.33300000
40.55760956 21.88369751 0.53651422 13 14 5745 46.08800000 3184165842 3184165842 0.66700000
18.35736084 12.35890198 -1.54747760 17 15 5745 22.18400000 3184165842 3184165842 -4.00000000
17.69264030 10.68973637 -1.68749917 2 16 5746 20.74000000 3184165845 3184165845 -4.66700000
39.99648285 29.85591888 1.45254850 31 17 5746 49.93200000 3184165845 3184165845 1.66700000
40.34812164 24.37797928 0.82284606 12 18 5746 47.14800000 3184165847 3184165847 1.00000000
18.58543587 13.87335110 -1.48637319 5 19 5746 23.24000000 3184165847 3184165847 -3.66700000
20.69608688 11.15767670 -1.36929023 7 20 5747 23.55200000 3184165849 3184165849 -3.33300000
39.73600769 26.73169899 2.78904510 17 21 5747 47.97200000 3184165849 3184165849 3.33300000
39.74082184 23.99212074 1.89126027 29 22 5748 46.46000000 3184165851 3184165851 2.33300000
20.75944138 13.96028614 -1.16532540 23 23 5748 25.04400000 3184165851 3184165851 -2.66700000
20.74238586 12.51754570 -1.26967025 28 24 5749 24.26000000 3184165854 3184165854 -3.00000000
42.96240234 28.88042259 6.35621738 43 25 5749 52.15600000 3184165854 3184165854 7.00000000
43.45996857 26.21673012 4.14340448 13 26 5750 50.92400000 3184165856 3184165856 4.66700000
20.78402519 15.49193478 -1.05610967 22 27 5750 25.94400000 3184165856 3184165856 -2.33300000
20.75095749 11.16856861 -0.82293016 17 28 5751 23.58000000 3184165858 3184165858 -2.00000000
20.87239456 14.01509285 -0.58502144 23 31 5752 25.14800000 3184165861 3184165861 -1.33300000
5.03145599 3.02200866 -2.73687577 8 0 5761 6.47600000 3184165881 3184165881 -25.00000000
20.87277985 15.49584293 -0.45376256 13 1 5761 26.00000000 3184165881 3184165881 -1.00000000
20.81785965 12.49874401 -0.70666724 18 2 5762 24.29200000 3184165884 3184165884 -1.66700000
7.40217113 4.95158100 -2.49303293 49 3 5762 9.24800000 3184165884 3184165884 -15.63900000
