# .PCD v0.7 - Point Cloud Data file format
VERSION 0.7
FIELDS x y z intensity laser_id azimuth distance_m adjustedtime timestamp vertical_angle
SIZE 4 4 4 1 1 2 8 8 4 8
TYPE F F F U U U F U U F
COUNT 1 1 1 1 1 1 1 1 1 1
WIDTH 522
HEIGHT 1
VIEWPOINT 0 0 0 1 0 0 0
POINTS 522
DATA ascii
40.70868301 22.35203934 1.89207435 9 22 5983 46.48000000 3176966533 3176966533 2.33300000
20.75609779 12.75426006 -1.13480103 26 23 5983 24.38800000 3176966533 3176966533 -2.66700000
20.72344780 11.37397957 -1.23889673 28 24 5984 23.67200000 3176966535 3176966535 -3.00000000
44.68558121 27.44776726 6.43908882 46 25 5984 52.83600000 3176966535 3176966535 7.00000000
43.46380234 23.84505844 4.04706907 12 26 5985 49.74000000 3176966538 3176966538 4.66700000
20.77153206 14.19595623 -1.02500927 25 27 5985 25.18000000 3176966538 3176966538 -2.33300000
20.74210739 10.08972740 -0.80548036 19 28 5986 23.08000000 3176966540 3176966540 -2.00000000
20.85464287 12.79977608 -0.56938863 22 31 5986 24.47600000 3176966542 3176966542 -1.33300000
5.15382862 2.81579590 -2.73856640 7 0 5995 6.48000000 3176966563 3176966563 -25.00000000
20.85994720 14.20303249 -0.44049874 15 1 5995 25.24000000 3176966563 3176966563 -1.00000000
20.80550385 11.36237907 -0.68991113 21 2 5996 23.71600000 3176966565 3176966565 -1.66700000
7.59816885 4.64522600 -2.49303293 3 3 5996 9.24800000 3176966565 3176966565 -15.63900000
10.18020630 5.55734539 -2.31967521 2 4 5997 11.82800000 3176966567 3176966567 -11.31000000
40.52728653 24.76709747 0.00000000 25 5 5997 47.49600000 3176966567 3176966567 0.00000000
39.94669342 19.32819176 -0.51663125 11 6 5998 44.38000000 3176966570 3176966570 -0.66700000
11.66686249 7.12707472 -2.12697291 2 7 5998 13.83600000 3176966570 3176966570 -8.84300000
13.92915535 7.60073090 -2.01978660 2 8 5998 15.99600000 3176966572 3176966572 -7.25400000
40.48026657 27.53102112 0.28452805 20 9 5998 48.95600000 3176966572 3176966572 0.33300000
40.56177902 22.12418556 -0.26853365 17 10 5999 46.20400000 3176966574 3176966574 -0.33300000
14.74782085 9.00564194 -1.86134672 2 11 5999 17.38000000 3176966574 3176966574 -6.14800000
17.32245064 8.37399960 -1.79605114 2 12 6000 19.32400000 3176966577 3176966577 -5.33300000
40.04117966 24.44124031 1.09159958 25 13 6000 46.92400000 3176966577 3176966577 1.33300000
40.91476440 19.77016068 0.52901739 13 14 6001 45.44400000 3176966579 3176966579 0.66700000
18.79568291 11.46843147 -1.53966486 4 15 6001 22.07200000 3176966579 3176966579 -4.00000000
18.03691292 9.82587814 -1.67675900 2 16 6002 20.60800000 3176966581 3176966581 -4.66700000
39.78509140 27.01762390 1.39960372 30 17 6002 48.11200000 3176966581 3176966581 1.66700000
40.80668259 22.23005104 0.81111807 12 18 6002 46.47600000 3176966584 3176966584 1.00000000
19.09738541 12.96882725 -1.47946584 5 19 6002 23.13200000 3176966584 3176966584 -3.66700000
20.72068787 10.00339031 -1.33998811 10 20 6003 23.04800000 3176966586 3176966586 -3.33300000
39.74473953 24.23173714 2.71090627 24 21 6003 46.62800000 3176966586 3176966586 3.33300000
40.76576233 22.18930817 1.89093459 9 22 6004 46.45200000 3176966588 3176966588 2.33300000
20.75152588 12.64690876 -1.13200915 24 23 6004 24.32800000 3176966588 3176966588 -2.66700000
20.71587372 11.27122021 -1.23596597 28 24 6005 23.61600000 3176966591 3176966591 -3.00000000
44.72484970 27.24662209 6.43031406 30 25 6005 52.76400000 3176966591 3176966591 7.00000000
43.12362671 23.45321465 4.00736284 11 26 6006 49.25200000 3176966593 3176966593 4.66700000
20.77711296 14.08832741 -1.02272975 25 27 6006 25.12400000 3176966593 3176966593 -2.33300000
20.73573494 9.99281025 -0.80380523 16 28 6007 23.03200000 3176966595 3176966595 -2.00000000
20.85239220 12.68842506 -0.56799281 22 31 6008 24.41600000 3176966597 3176966597 -1.33300000
5.15406370 2.79260731 -2.73349500 8 0 6015 6.46800000 3176966618 3176966618 -25.00000000
20.84643745 14.08758450 -0.43917236 15 1 6015 25.16400000 3176966618 3176966618 -1.00000000
20.79581833 11.26302719 -0.68828201 21 2 6016 23.66000000 3176966620 3176966620 -1.66700000
7.60775042 4.61467981 -2.49087644 3 3 6016 9.24000000 3176966620 3176966620 -15.63900000
10.19609356 5.51990891 -2.31889081 2 4 6017 11.82400000 3176966623 3176966623 -11.31000000
40.56218719 24.59437180 0.00000000 25 5 6017 47.43600000 3176966623 3176966623 0.00000000
40.23030853 19.29240417 -0.51942515 11 6 6018 44.62000000 3176966625 3176966625 -0.66700000
11.69166946 7.08630610 -2.12697291 2 7 6018 13.83600000 3176966625 3176966625 -8.84300000
13.96258163 7.55583954 -2.02079654 2 8 6018 16.00400000 3176966627 3176966627 -7.25400000
40.48992157 27.33136559 0.28392360 20 9 6018 48.85200000 3176966627 3176966627 0.33300000
40.63875961 21.98246384 -0.26853365 17 10 6019 46.20400000 3176966630 3176966630 -0.33300000
14.77916622 8.95410728 -1.86134672 2 11 6019 17.38000000 3176966630 3176966630 -6.14800000
17.26896667 8.27390289 -1.78750038 2 12 6020 19.23200000 3176966632 3176966632 -5.33300000
40.17413712 24.33032227 1.09290230 25 13 6020 46.98000000 3176966632 3176966632 1.33300000
40.83562469 19.55639076 0.52710825 13 14 6021 45.28000000 3176966634 3176966634 0.66700000
18.82877350 11.39861965 -1.53910685 4 15 6021 22.06400000 3176966634 3176966634 -4.00000000
18.07110214 9.76285839 -1.67675900 2 16 6022 20.60800000 3176966637 3176966637 -4.66700000
39.65702057 26.72886086 1.39180756 19 17 6022 47.84400000 3176966637 3176966637 1.66700000
40.83829117 22.06276131 0.81021053 12 18 6022 46.42400000 3176966639 3176966639 1.00000000
19.14253807 12.90208530 -1.47946584 5 19 6022 23.13200000 3176966639 3176966639 -3.66700000
20.74827576 9.92755413 -1.33952308 7 20 6023 23.04000000 3176966641 3176966641 -3.33300000
39.79149628 24.07011986 2.70834804 16 21 6023 46.58400000 3176966641 3176966641 3.33300000
40.73042297 21.98612404 1.88572407 9 22 6024 46.32400000 3176966644 3176966644 2.33300000
20.75109673 12.54751873 -1.12958956 24 23 6024 24.27600000 3176966644 3176966644 -2.66700000
20.72345352 11.18176842 -1.23408186 28 24 6025 23.58000000 3176966646 3176966646 -3.00000000
45.06432343 27.23820305 6.46541262 15 25 6025 53.05200000 3176966646 3176966646 7.00000000
43.37015152 23.39149094 4.02265978 35 26 6026 49.44000000 3176966648 3176966648 4.66700000
20.77311134 13.98001289 -1.02012444 28 27 6026 25.06000000 3176966648 3176966648 -2.33300000
20.73441696 9.90313911 -0.80240923 16 28 6027 22.99200000 3176966650 3176966650 -2.00000000
20.84985542 12.59233093 -0.56678313 22 31 6027 24.36400000 3176966653 3176966653 -1.33300000
5.17336082 2.77974701 -2.73856640 7 0 6035 6.48000000 3176966673 3176966673 -25.00000000
20.84566307 13.98131466 -0.43812522 12 1 6035 25.10400000 3176966673 3176966673 -1.00000000
20.78569412 11.16388130 -0.68665296 18 2 6036 23.60400000 3176966676 3176966676 -1.66700000
7.61721134 4.58412313 -2.48871970 3 3 6036 9.23200000 3176966676 3176966676 -15.63900000
10.21184444 5.48242903 -2.31810641 4 4 6037 11.82000000 3176966678 3176966678 -11.31000000
40.47983932 24.35159683 0.00000000 17 5 6037 47.24000000 3176966678 3176966678 0.00000000
40.15679932 19.09362411 -0.51765567 11 6 6037 44.46800000 3176966680 3176966680 -0.66700000
11.71849155 7.04953384 -2.12758780 2 7 6037 13.84000000 3176966680 3176966680 -8.84300000
13.98187828 7.50330257 -2.01978660 2 8 6038 15.99600000 3176966683 3176966683 -7.25400000
40.46212387 27.10749054 0.28306344 20 9 6038 48.70400000 3176966683 3176966683 0.33300000
40.55310440 21.75349617 -0.26746428 17 10 6039 46.02000000 3176966685 3176966685 -0.33300000
14.80351448 8.89836597 -1.86048996 4 11 6039 17.37200000 3176966685 3176966685 -6.14800000
17.36250114 8.24432182 -1.79419231 2 12 6040 19.30400000 3176966687 3176966687 -5.33300000
40.26567841 24.19405937 1.09308839 16 13 6040 46.98800000 3176966687 3176966687 1.33300000
40.89641190 19.41029739 0.52701509 13 14 6041 45.27200000 3176966690 3176966690 0.66700000
18.86502647 11.33077049 -1.53882778 4 15 6041 22.06000000 3176966690 3176966690 -4.00000000
18.08749962 9.69030476 -1.67513180 2 16 6042 20.58800000 3176966692 3176966692 -4.66700000
39.73014069 26.57693100 1.39110935 29 17 6042 47.82000000 3176966692 3176966692 1.66700000
40.92210388 21.92385292 0.81035012 24 18 6042 46.43200000 3176966694 3176966694 1.00000000
19.17086983 12.82409000 -1.47818661 5 19 6042 23.11200000 3176966694 3176966694 -3.66700000
20.79001999 9.85848999 -1.33998811 7 20 6043 23.04800000 3176966697 3176966697 -3.33300000
39.86157990 23.92285538 2.70741796 24 21 6043 46.56800000 3176966697 3176966697 3.33300000
40.76111603 21.81929398 1.88360727 9 22 6044 46.27200000 3176966699 3176966699 2.33300000
20.74337196 12.44417381 -1.12679768 22 23 6044 24.21600000 3176966699 3176966699 -2.66700000
20.71657181 11.08486271 -1.23136044 32 24 6045 23.52800000 3176966701 3176966701 -3.00000000
44.97526550 26.97047615 6.43908882 31 25 6045 52.83600000 3176966701 3176966701 7.00000000
43.17029953 23.08953857 3.99662304 23 26 6046 49.12000000 3176966703 3176966703 4.66700000
20.77525520 13.87633801 -1.01784480 24 27 6046 25.00400000 3176966703 3176966703 -2.33300000
20.73633957 9.81530952 -0.80115283 16 28 6047 22.95600000 3176966706 3176966706 -2.00000000
20.85127068 12.48911572 -0.56557345 21 31 6048 24.31200000 3176966708 3176966708 -1.33300000
5.18255043 2.76257610 -2.73856640 6 0 6054 6.48000000 3176966729 3176966729 -25.00000000
20.85196686 13.88551044 -0.43728751 12 1 6054 25.05600000 3176966729 3176966729 -1.00000000
20.78025627 11.07233047 -0.68525660 18 2 6055 23.55600000 3176966731 3176966731 -1.66700000
7.62245035 4.55291271 -2.48548484 2 3 6055 9.22000000 3176966731 3176966731 -15.63900000
10.22996807 5.44853497 -2.31810641 4 4 6056 11.82000000 3176966733 3176966733 -11.31000000
40.30622101 24.06548500 0.00000000 16 5 6056 46.94400000 3176966733 3176966733 0.00000000
40.20180511 18.95182610 -0.51742285 23 6 6056 44.44800000 3176966736 3176966736 -0.66700000
11.73501682 7.00658274 -2.12635803 2 7 6056 13.83200000 3176966736 3176966736 -8.84300000
14.01368904 7.46062517 -2.02079654 2 8 6057 16.00400000 3176966738 3176966738 -7.25400000
40.48518372 26.92885780 0.28259850 20 9 6057 48.62400000 3176966738 3176966738 0.33300000
40.53673935 21.57192230 -0.26688308 25 10 6058 45.92000000 3176966740 3176966740 -0.33300000
14.82952595 8.84718895 -1.86006153 2 11 6058 17.36800000 3176966740 3176966740 -6.14800000
17.33209229 8.15955830 -1.78824389 2 12 6059 19.24000000 3176966743 3176966743 -5.33300000
40.36972809 24.07473946 1.09373975 16 13 6059 47.01600000 3176966743 3176966743 1.33300000
40.93883896 19.26435661 0.52673572 12 14 6060 45.24800000 3176966745 3176966745 0.66700000
18.89907074 11.26610661 -1.53854883 4 15 6060 22.05600000 3176966745 3176966745 -4.00000000
18.13361740 9.63775539 -1.67643356 2 16 6061 20.60400000 3176966747 3176966747 -4.66700000
39.72146225 26.38088608 1.38773489 29 17 6061 47.70400000 3176966747 3176966747 1.66700000
40.87450790 21.72421074 0.80797660 12 18 6061 46.29600000 3176966750 3176966750 1.00000000
19.21328926 12.76044655 -1.47818661 5 19 6061 23.11200000 3176966750 3176966750 -3.66700000
20.79730034 9.77760124 -1.33836031 10 20 6062 23.02000000 3176966752 3176966752 -3.33300000
39.90638351 23.77010345 2.70509243 24 21 6062 46.52800000 3176966752 3176966752 3.33300000
40.79794693 21.66526031 1.88197899 9 22 6063 46.23200000 3176966754 3176966754 2.33300000
20.74332619 12.35078812 -1.12456417 24 23 6063 24.16800000 3176966754 3176966754 -2.66700000
20.69676399 10.98613739 -1.22801089 28 24 6064 23.46400000 3176966756 3176966756 -3.00000000
43.12336731 22.88085175 3.98523188 34 26 6065 48.98000000 3176966759 3176966759 4.66700000
20.77452469 13.77644444 -1.01556528 24 27 6065 24.94800000 3176966759 3176966759 -2.33300000
20.74344254 9.73460388 -0.80017567 16 28 6066 22.92800000 3176966761 3176966761 -2.00000000
20.84444809 12.39129353 -0.56427073 21 31 6067 24.25600000 3176966763 3176966763 -1.33300000
5.19264078 2.74356270 -2.73856640 7 0 6075 6.48000000 3176966784 3176966784 -25.00000000
20.85600281 13.77812767 -0.43631017 12 1 6075 25.00000000 3176966784 3176966784 -1.00000000
20.79241562 10.98115444 -0.68432570 21 2 6076 23.52400000 3176966786 3176966786 -1.66700000
7.65234327 4.53279686 -2.48979807 2 3 6076 9.23600000 3176966786 3176966786 -15.63900000
10.25333786 5.41283464 -2.31889081 4 4 6077 11.82400000 3176966789 3176966789 -11.31000000
40.14978027 23.77289772 0.00000000 16 5 6077 46.66000000 3176966789 3176966789 0.00000000
40.07892227 18.71466255 -0.51495498 34 6 6077 44.23600000 3176966791 3176966791 -0.66700000
11.76061821 6.96352482 -2.12635803 2 7 6077 13.83200000 3176966791 3176966791 -8.84300000
14.03742981 7.40736055 -2.02029157 4 8 6078 16.00000000 3176966793 3176966793 -7.25400000
40.49346924 26.72080994 0.28197080 20 9 6078 48.51600000 3176966793 3176966793 0.33300000
40.68629456 21.46052361 -0.26734802 25 10 6079 46.00000000 3176966796 3176966796 -0.33300000
14.86527538 8.79480171 -1.86048996 4 11 6079 17.37200000 3176966796 3176966796 -6.14800000
17.42324257 8.12459183 -1.79456413 2 12 6080 19.30800000 3176966798 3176966798 -5.33300000
40.47490692 23.93679237 1.09420502 16 13 6080 47.03600000 3176966798 3176966798 1.33300000
40.88228607 19.05503845 0.52510595 12 14 6081 45.10800000 3176966800 3176966800 0.66700000
18.93336487 11.19270134 -1.53799069 4 15 6081 22.04800000 3176966800 3176966800 -4.00000000
18.15471077 9.56379509 -1.67513180 2 16 6082 20.58800000 3176966803 3176966803 -4.66700000
39.86796951 26.26811981 1.38948023 29 17 6082 47.76400000 3176966803 3176966803 1.66700000
40.76985931 21.47732353 0.80434650 11 18 6082 46.08800000 3176966805 3176966805 1.00000000
19.25326347 12.68554783 -1.47767496 5 19 6082 23.10400000 3176966805 3176966805 -3.66700000
20.69181824 9.63556671 -1.32929063 10 20 6083 22.86400000 3176966807 3176966807 -3.33300000
39.91072083 23.57493782 2.69951105 24 21 6083 46.43200000 3176966807 3176966807 3.33300000
40.74268723 21.44484329 1.87579143 9 22 6084 46.08000000 3176966809 3176966809 2.33300000
20.74716759 12.25029850 -1.12233067 24 23 6084 24.12000000 3176966809 3176966809 -2.66700000
20.70153999 10.89160728 -1.22591746 28 24 6085 23.42400000 3176966812 3176966812 -3.00000000
44.58805466 26.31680870 6.35719252 43 25 6085 52.16400000 3176966812 3176966812 7.00000000
43.13637161 22.68552971 3.97872281 34 26 6086 48.90000000 3176966814 3176966814 4.66700000
20.76811790 13.66286755 -1.01279712 27 27 6086 24.88000000 3176966814 3176966814 -2.33300000
20.73548126 9.63828945 -0.79850048 19 28 6087 22.88000000 3176966816 3176966816 -2.00000000
20.84494019 12.28841114 -0.56306106 23 31 6088 24.20400000 3176966819 3176966819 -1.33300000
5.19576359 2.72205544 -2.73518538 6 0 6095 6.47200000 3176966839 3176966839 -25.00000000
20.86048889 13.67673588 -0.43540263 9 1 6095 24.94800000 3176966839 3176966839 -1.00000000
20.79520035 10.88996029 -0.68316209 24 2 6096 23.48400000 3176966842 3176966842 -1.66700000
7.66479778 4.50410604 -2.48871970 2 3 6096 9.23200000 3176966842 3176966842 -15.63900000
10.22004414 5.34972572 -2.30712390 2 4 6097 11.76400000 3176966844 3176966844 -11.31000000
40.47394943 23.77441978 0.00000000 25 5 6097 46.94000000 3176966844 3176966844 0.00000000
39.95161438 18.48562813 -0.51248705 23 6 6097 44.02400000 3176966846 3176966846 -0.66700000
11.79166985 6.92643356 -2.12758780 2 7 6097 13.84000000 3176966846 3176966846 -8.84300000
14.05616951 7.35463619 -2.01928139 2 8 6098 15.99200000 3176966849 3176966849 -7.25400000
40.45933914 26.49602509 0.28108740 20 9 6098 48.36400000 3176966849 3176966849 0.33300000
40.53411102 21.19972992 -0.26586017 17 10 6099 45.74400000 3176966851 3176966851 -0.33300000
14.89931488 8.74487209 -1.86091828 2 11 6099 17.37600000 3176966851 3176966851 -6.14800000
17.46595955 8.07040596 -1.79605114 2 12 6100 19.32400000 3176966853 3176966853 -5.33300000
40.18225861 23.57479095 1.08406234 24 13 6100 46.60000000 3176966853 3176966853 1.33300000
40.74157715 18.81662369 0.52245182 12 14 6101 44.88000000 3176966855 3176966855 0.66700000
18.97576141 11.12856197 -1.53826976 4 15 6101 22.05200000 3176966855 3176966855 -4.00000000
18.20918465 9.51144028 -1.67708457 2 16 6102 20.61200000 3176966858 3176966858 -4.66700000
39.94268799 26.11785316 1.38889849 29 17 6102 47.74400000 3176966858 3176966858 1.66700000
40.85521317 21.34043503 0.80455595 11 18 6102 46.10000000 3176966860 3176966860 1.00000000
19.29074478 12.61389542 -1.47716331 5 19 6102 23.09600000 3176966860 3176966860 -3.66700000
20.71082306 9.55658722 -1.32836032 10 20 6103 22.84800000 3176966862 3176966862 -3.33300000
39.92730713 23.39711952 2.69509244 23 21 6103 46.35600000 3176966862 3176966862 3.33300000
40.66493988 21.22298050 1.86878979 9 22 6104 45.90800000 3176966865 3176966865 2.33300000
20.74498177 12.15154839 -1.11991107 24 23 6104 24.06800000 3176966865 3176966865 -2.66700000
20.71110153 10.80449867 -1.22424269 20 24 6105 23.39200000 3176966867 3176966867 -3.00000000
43.49079132 25.46490479 6.18803787 35 25 6105 50.77600000 3176966867 3176966867 7.00000000
43.17994690 22.51638412 3.97546816 23 26 6106 48.86000000 3176966869 3176966869 4.66700000
20.76548386 13.55751610 -1.01035476 24 27 6106 24.82000000 3176966869 3176966869 -2.33300000
20.72542763 9.54578209 -0.79682529 16 28 6107 22.83200000 3176966872 3176966872 -2.00000000
20.85318756 12.19538593 -0.56213051 21 31 6108 24.16400000 3176966874 3176966874 -1.33300000
5.20750618 2.70739150 -2.73687577 6 0 6113 6.47600000 3176966895 3176966895 -25.00000000
20.86313438 13.58494568 -0.43456492 9 1 6113 24.90000000 3176966895 3176966895 -1.00000000
20.77609062 10.79691982 -0.68141669 21 2 6114 23.42400000 3176966897 3176966897 -1.66700000
7.68223715 4.48194551 -2.48979807 3 3 6114 9.23600000 3176966897 3176966897 -15.63900000
10.23680115 5.31759214 -2.30712390 2 4 6115 11.76400000 3176966899 3176966899 -11.31000000
40.65209961 23.70760345 0.00000000 17 5 6115 47.06000000 3176966899 3176966899 0.00000000
39.88225937 18.30163956 -0.51085728 23 6 6115 43.88400000 3176966902 3176966902 -0.66700000
11.80654335 6.88537264 -2.12635803 2 7 6115 13.83200000 3176966902 3176966902 -8.84300000
14.07920456 7.31044149 -2.01928139 4 8 6116 15.99200000 3176966904 3176966904 -7.25400000
40.53567123 26.36442566 0.28104091 20 9 6116 48.35600000 3176966904 3176966904 0.33300000
40.60761261 21.07596970 -0.26590666 8 10 6117 45.75200000 3176966906 3176966906 -0.33300000
14.92327785 8.69601917 -1.86048996 2 11 6117 17.37200000 3176966906 3176966906 -6.14800000
17.48760605 8.01383591 -1.79567945 2 12 6118 19.32000000 3176966908 3176966908 -5.33300000
40.23538971 23.43636322 1.08350396 16 13 6118 46.57600000 3176966908 3176966908 1.33300000
40.78230667 18.68020821 0.52221900 12 14 6119 44.86000000 3176966911 3176966911 0.66700000
19.00718117 11.06688499 -1.53799069 4 15 6119 22.04800000 3176966911 3176966911 -4.00000000
18.23543739 9.45235252 -1.67675900 2 16 6120 20.60800000 3176966913 3176966913 -4.66700000
39.83340454 25.86811638 1.38226581 29 17 6120 47.51600000 3176966913 3176966913 1.66700000
40.88299942 21.19173241 0.80378801 23 18 6120 46.05600000 3176966915 3176966915 1.00000000
19.31688690 12.54453278 -1.47614002 5 19 6120 23.08000000 3176966915 3176966915 -3.66700000
20.69354057 9.46987343 -1.32533717 10 20 6121 22.79600000 3176966918 3176966918 -3.33300000
39.92813110 23.22939873 2.69020867 23 21 6121 46.27200000 3176966918 3176966918 3.33300000
40.74915695 21.10431290 1.86960399 9 22 6122 45.92800000 3176966920 3176966920 2.33300000
20.74505997 12.06422138 -1.11786377 24 23 6122 24.02400000 3176966920 3176966920 -2.66700000
20.70592117 10.71917915 -1.22193992 20 24 6123 23.34800000 3176966922 3176966922 -3.00000000
44.70669556 25.98858833 6.34939289 42 25 6123 52.10000000 3176966922 3176966922 7.00000000
43.12654114 22.31649208 3.96407723 11 26 6124 48.72000000 3176966925 3176966925 4.66700000
20.76437950 13.46394539 -1.00823796 27 27 6124 24.76800000 3176966925 3176966925 -2.33300000
20.71531677 9.46235371 -0.79528975 19 28 6125 22.78800000 3176966927 3176966927 -2.00000000
20.83741188 12.10333252 -0.56073475 21 31 6125 24.10400000 3176966929 3176966929 -1.33300000
5.21370268 2.68753624 -2.73518538 7 0 6133 6.47200000 3176966950 3176966950 -25.00000000
20.89027405 13.49901295 -0.43414608 6 1 6133 24.87600000 3176966950 3176966950 -1.00000000
20.76389313 10.69869328 -0.67978758 24 2 6134 23.36800000 3176966952 3176966952 -1.66700000
7.68449974 4.44738436 -2.48548484 2 3 6134 9.22000000 3176966952 3176966952 -15.63900000
10.25878716 5.28362274 -2.30790830 2 4 6135 11.76800000 3176966955 3176966955 -11.31000000
40.59957504 23.48743820 0.00000000 16 5 6135 46.90400000 3176966955 3176966955 0.00000000
39.96363449 18.16196060 -0.51104355 23 6 6136 43.90000000 3176966957 3176966957 -0.66700000
11.83512211 6.84403181 -2.12697291 2 7 6136 13.83600000 3176966957 3176966957 -8.84300000
14.11169338 7.26488352 -2.02029157 4 8 6136 16.00000000 3176966959 3176966959 -7.25400000
40.49638748 26.13817215 0.28013423 30 9 6136 48.20000000 3176966959 3176966959 0.33300000
40.65959549 20.92311287 -0.26576719 17 10 6137 45.72800000 3176966961 3176966961 -0.33300000
14.95009804 8.64188385 -1.86006153 4 11 6137 17.36800000 3176966961 3176966961 -6.14800000
17.43569183 7.91652060 -1.78750038 2 12 6138 19.23200000 3176966964 3176966964 -5.33300000
40.16806793 23.20974350 1.07950270 16 13 6138 46.40400000 3176966964 3176966964 1.33300000
40.66879654 18.45674515 0.51993734 24 14 6139 44.66400000 3176966966 3176966966 0.66700000
19.03187561 10.99248791 -1.53687465 4 15 6139 22.03200000 3176966966 3176966966 -4.00000000
18.26477432 9.38681889 -1.67643356 5 16 6140 20.60400000 3176966968 3176966968 -4.66700000
39.81927490 25.66176987 1.37865853 29 17 6140 47.39200000 3176966968 3176966968 1.66700000
40.60820770 20.86082458 0.79687691 11 18 6141 45.66000000 3176966971 3176966971 1.00000000
19.34259987 12.46067810 -1.47460508 5 19 6141 23.05600000 3176966971 3176966971 -3.66700000
20.65009499 9.36295319 -1.32045341 7 20 6141 22.71200000 3176966973 3176966973 -3.33300000
39.89830017 23.02601051 2.68276691 23 21 6141 46.14400000 3176966973 3176966973 3.33300000
40.77280045 20.93638420 1.86732435 9 22 6142 45.87200000 3176966975 3176966975 2.33300000
20.74551392 11.96777439 -1.11563027 24 23 6142 23.97600000 3176966975 3176966975 -2.66700000
20.70412064 10.62677288 -1.21963716 28 24 6143 23.30400000 3176966978 3176966978 -3.00000000
44.14710617 25.45753288 6.25725937 38 25 6143 51.34400000 3176966978 3176966978 7.00000000
42.47346878 21.79092598 3.89703274 22 26 6144 47.89600000 3176966980 3176966980 4.66700000
20.76755905 13.36326694 -1.00612116 24 27 6144 24.71600000 3176966980 3176966980 -2.33300000
20.72272491 9.37844849 -0.79431254 16 28 6145 22.76000000 3176966982 3176966982 -2.00000000
20.83102417 12.00257206 -0.55943197 21 31 6145 24.04800000 3176966985 3176966985 -1.33300000
5.22674608 2.67005825 -2.73687577 7 0 6154 6.47600000 3176967005 3176967005 -25.00000000
20.92614174 13.41372299 -0.43386683 9 1 6154 24.86000000 3176967005 3176967005 -1.00000000
20.77803993 10.60978985 -0.67897308 20 2 6155 23.34000000 3176967008 3176967008 -1.66700000
7.70408964 4.42110634 -2.48656321 5 3 6155 9.22400000 3176967008 3176967008 -15.63900000
10.27109623 5.24242067 -2.30633926 2 4 6156 11.76000000 3176967010 3176967010 -11.31000000
40.62640381 23.30463982 0.00000000 16 5 6156 46.83600000 3176967010 3176967010 0.00000000
40.04452133 18.02193069 -0.51122981 11 6 6157 43.91600000 3176967012 3176967012 -0.66700000
11.87384224 6.80847216 -2.12943268 2 7 6157 13.85200000 3176967012 3176967012 -8.84300000
14.13469124 7.21130943 -2.01978660 4 8 6157 15.99600000 3176967014 3176967014 -7.25400000
40.47064590 25.91192627 0.27929732 30 9 6157 48.05600000 3176967014 3176967014 0.33300000
40.66830444 20.73942184 -0.26532549 25 10 6158 45.65200000 3176967017 3176967017 -0.33300000
14.98512268 8.58900833 -1.86048996 4 11 6158 17.37200000 3176967017 3176967017 -6.14800000
17.45369339 7.84766293 -1.78638494 2 12 6159 19.22000000 3176967019 3176967019 -5.33300000
40.12448502 22.98880959 1.07605982 24 13 6159 46.25600000 3176967019 3176967019 1.33300000
40.42972183 18.16983604 0.51602596 24 14 6160 44.32800000 3176967021 3176967021 0.66700000
19.07203674 10.92265797 -1.53687465 4 15 6160 22.03200000 3176967021 3176967021 -4.00000000
18.29905701 9.31981277 -1.67643356 5 16 6161 20.60400000 3176967024 3176967024 -4.66700000
40.02086258 25.58456802 1.38238215 29 17 6161 47.52000000 3176967024 3176967024 1.66700000
40.65226746 20.70442963 0.79631841 23 18 6161 45.62800000 3176967026 3176967026 1.00000000
19.38934135 12.39523411 -1.47486091 5 19 6161 23.06000000 3176967026 3176967026 -3.66700000
20.67698860 9.28393269 -1.31998837 7 20 6162 22.70400000 3176967028 3176967028 -3.33300000
39.97549438 22.87565422 2.68230176 23 21 6162 46.13600000 3176967028 3176967028 3.33300000
40.83145142 20.77774239 1.86651027 9 22 6163 45.85200000 3176967031 3176967031 2.33300000
20.73374557 11.85991478 -1.11265218 24 23 6163 23.91200000 3176967031 3176967031 -2.66700000
20.70020485 10.52908516 -1.21712494 32 24 6164 23.25600000 3176967033 3176967033 -3.00000000
42.84425735 24.49743271 6.05983114 21 25 6164 49.72400000 3176967033 3176967033 7.00000000
41.99155045 21.34962654 3.84561038 22 26 6165 47.26400000 3176967035 3176967035 4.66700000
20.76586342 13.25480461 -1.00367868 27 27 6165 24.65600000 3176967035 3176967035 -2.33300000
20.73507309 9.29262352 -0.79347497 19 28 6166 22.73600000 3176967038 3176967038 -2.00000000
20.82973862 11.90035343 -0.55822229 23 31 6166 23.99600000 3176967040 3176967040 -1.33300000
5.23603439 2.65179729 -2.73687577 6 0 6174 6.47600000 3176967061 3176967061 -25.00000000
20.98295975 13.34703445 -0.43407625 9 1 6174 24.87200000 3176967061 3176967061 -1.00000000
20.78997803 10.52455521 -0.67815852 20 2 6175 23.31200000 3176967063 3176967063 -1.66700000
7.72951794 4.39990377 -2.48979807 3 3 6175 9.23600000 3176967063 3176967063 -15.63900000
10.28933334 5.20653582 -2.30633926 2 4 6176 11.76000000 3176967066 3176967066 -11.31000000
40.16515350 22.85408783 0.00000000 24 5 6176 46.21200000 3176967066 3176967066 0.00000000
40.15520477 17.91184998 -0.51188171 23 6 6176 43.97200000 3176967068 3176967068 -0.66700000
11.87917805 6.75928640 -2.12635803 2 7 6176 13.83200000 3176967068 3176967068 -8.84300000
14.15269566 7.15834475 -2.01877642 2 8 6177 15.98800000 3176967070 3176967070 -7.25400000
40.47982407 25.71901703 0.27873939 20 9 6177 47.96000000 3176967070 3176967070 0.33300000
40.62979126 20.54138947 -0.26460481 8 10 6178 45.52800000 3176967073 3176967073 -0.33300000
15.01501274 8.53664780 -1.86048996 2 11 6178 17.37200000 3176967073 3176967073 -6.14800000
17.57557106 7.82882404 -1.79605114 2 12 6179 19.32400000 3176967075 3176967075 -5.33300000
40.28792572 22.89602852 1.07829309 16 13 6179 46.35200000 3176967075 3176967075 1.33300000
40.43443680 18.00257111 0.51528090 24 14 6180 44.26400000 3176967077 3176967077 0.66700000
19.10657883 10.85404682 -1.53659558 4 15 6180 22.02800000 3176967077 3176967077 -4.00000000
18.32435989 9.25228596 -1.67578268 7 16 6181 20.59600000 3176967079 3176967079 -4.66700000
39.92760468 25.32905579 1.37609863 29 17 6181 47.30400000 3176967079 3176967079 1.66700000
40.68144989 20.54076767 0.79548067 11 18 6181 45.58000000 3176967082 3176967082 1.00000000
19.42574883 12.32320023 -1.47434914 5 19 6181 23.05200000 3176967082 3176967082 -3.66700000
20.66913414 9.19384766 -1.31743026 7 20 6182 22.66000000 3176967084 3176967084 -3.33300000
39.98564529 22.69655037 2.67765069 23 21 6182 46.05600000 3176967084 3176967084 3.33300000
40.78597641 20.57568169 1.86113691 19 22 6183 45.72000000 3176967086 3176967086 2.33300000
20.72983932 11.76183510 -1.11023259 26 23 6183 23.86000000 3176967086 3176967086 -2.66700000
20.70116615 10.43877792 -1.21503150 32 24 6184 23.21600000 3176967089 3176967089 -3.00000000
44.76673126 25.38971901 6.31916904 27 25 6184 51.85200000 3176967089 3176967089 7.00000000
20.76136017 13.15015888 -1.00123632 27 27 6185 24.59600000 3176967091 3176967091 -2.33300000
20.72719383 9.20234489 -0.79193938 19 28 6186 22.69200000 3176967093 3176967093 -2.00000000
20.83983994 11.80982780 -0.55738485 21 31 6186 23.96000000 3176967096 3176967096 -1.33300000
5.24155998 2.63279223 -2.73518538 7 0 6193 6.47200000 3176967116 3176967116 -25.00000000
21.01019669 13.26670265 -0.43372720 6 1 6193 24.85200000 3176967116 3176967116 -1.00000000
20.77473831 10.43043900 -0.67652947 20 2 6194 23.25600000 3176967119 3176967119 -1.66700000
7.73065042 4.36667013 -2.48548484 3 3 6194 9.22000000 3176967119 3176967119 -15.63900000
10.31004810 5.17414570 -2.30712390 2 4 6195 11.76400000 3176967121 3176967121 -11.31000000
40.35218048 22.78370285 0.00000000 24 5 6195 46.34000000 3176967121 3176967121 0.00000000
40.32412720 17.82711029 -0.51327866 11 6 6195 44.09200000 3176967123 3176967123 -0.66700000
11.89120197 6.71402645 -2.12451339 2 7 6195 13.82000000 3176967123 3176967123 -8.84300000
14.17990208 7.11315250 -2.01928139 4 8 6196 15.99200000 3176967126 3176967126 -7.25400000
40.12168503 25.30510902 0.27569392 19 9 6196 47.43600000 3176967126 3176967126 0.33300000
40.63690186 20.37606430 -0.26420960 17 10 6197 45.46000000 3176967128 3176967128 -0.33300000
15.03631115 8.48290157 -1.85963321 4 11 6197 17.36400000 3176967128 3176967128 -6.14800000
17.59414864 7.76728153 -1.79530764 2 12 6198 19.31600000 3176967130 3176967130 -5.33300000
40.28003311 22.71516037 1.07605982 16 13 6198 46.25600000 3176967130 3176967130 1.33300000
40.46463776 17.85546875 0.51490837 36 14 6199 44.23200000 3176967132 3176967132 0.66700000
19.14246559 10.79062748 -1.53659558 4 15 6199 22.02800000 3176967132 3176967132 -4.00000000
39.90988159 25.13259315 1.37260771 29 17 6200 47.18400000 3176967135 3176967135 1.66700000
40.86735153 20.46484566 0.79778439 11 18 6200 45.71200000 3176967137 3176967137 1.00000000
19.44961929 12.24807835 -1.47307003 8 19 6200 23.03200000 3176967137 3176967137 -3.66700000
20.65931511 9.10753727 -1.31487215 10 20 6201 22.61600000 3176967139 3176967139 -3.33300000
40.22769928 22.65789413 2.68881345 23 21 6201 46.24800000 3176967139 3176967139 3.33300000
40.81466675 20.42064667 1.85934579 19 22 6202 45.67600000 3176967142 3176967142 2.33300000
20.73042870 11.67146492 -1.10818529 26 23 6202 23.81600000 3176967142 3176967142 -2.66700000
20.68565178 10.34505939 -1.21210074 32 24 6203 23.16000000 3176967144 3176967144 -3.00000000
45.06519318 25.36185265 6.34939289 28 25 6203 52.10000000 3176967144 3176967144 7.00000000
41.99325943 20.99200249 3.83259225 22 26 6204 47.10400000 3176967146 3176967146 4.66700000
20.76086807 13.05358410 -0.99911952 25 27 6204 24.54400000 3176967146 3176967146 -2.33300000
20.72100449 9.11746025 -0.79054338 18 28 6205 22.65200000 3176967149 3176967149 -2.00000000
20.83008957 11.71321487 -0.55608213 21 31 6205 23.90400000 3176967151 3176967151 -1.33300000
5.25117445 2.61356330 -2.73518538 7 0 6214 6.47200000 3176967172 3176967172 -25.00000000
21.03834343 13.17687035 -0.43330833 6 1 6214 24.82800000 3176967172 3176967172 -1.00000000
20.76271248 10.32929325 -0.67490041 20 2 6215 23.20000000 3176967174 3176967174 -1.66700000
7.74996424 4.34018850 -2.48656321 3 3 6215 9.22400000 3176967174 3176967174 -15.63900000
10.32191849 5.13283014 -2.30555487 2 4 6216 11.75600000 3176967176 3176967176 -11.31000000
40.37607956 22.60243607 0.00000000 16 5 6216 46.27200000 3176967176 3176967176 0.00000000
40.37820435 17.67438316 -0.51313895 11 6 6216 44.08000000 3176967179 3176967179 -0.66700000
11.92262840 6.67425919 -2.12574315 2 7 6216 13.82800000 3176967179 3176967179 -8.84300000
14.20943165 7.06289864 -2.01978660 4 8 6217 15.99600000 3176967181 3176967181 -7.25400000
40.23450851 25.17061424 0.27583343 19 9 6217 47.46000000 3176967181 3176967181 0.33300000
40.84743500 20.29461670 -0.26509300 8 10 6218 45.61200000 3176967183 3176967183 -0.33300000
15.05341721 8.41996765 -1.85791957 2 11 6218 17.34800000 3176967183 3176967183 -6.14800000
17.62979698 7.70593357 -1.79605114 2 12 6219 19.32400000 3176967185 3176967185 -5.33300000
40.49216461 22.63957977 1.07950270 16 13 6219 46.40400000 3176967185 3176967185 1.33300000
40.48949432 17.68942451 0.51439619 24 14 6220 44.18800000 3176967188 3176967188 0.66700000
19.17840385 10.71844769 -1.53631663 4 15 6220 22.02400000 3176967188 3176967188 -4.00000000
18.28493881 9.07274532 -1.66634440 22 16 6221 20.48000000 3176967190 3176967190 -4.66700000
39.99155426 24.97979355 1.37225866 29 17 6221 47.17200000 3176967190 3176967190 1.66700000
40.89905167 20.28467560 0.79687691 11 18 6222 45.66000000 3176967192 3176967192 1.00000000
19.46264458 12.15216541 -1.47051179 5 19 6222 22.99200000 3176967192 3176967192 -3.66700000
20.65229988 9.01418400 -1.31231403 10 20 6222 22.57200000 3176967195 3176967195 -3.33300000
40.27212143 22.48888397 2.68625522 15 21 6222 46.20400000 3176967195 3176967195 3.33300000
40.74242401 20.19813347 1.85266972 19 22 6223 45.51200000 3176967197 3176967197 2.33300000
20.73120117 11.57203579 -1.10595179 24 23 6223 23.76800000 3176967197 3176967197 -2.66700000
20.69837379 10.25675774 -1.21063530 31 24 6224 23.13200000 3176967199 3176967199 -3.00000000
45.58428955 25.43445015 6.40935230 30 25 6224 52.59200000 3176967199 3176967199 7.00000000
43.13452530 21.36526680 3.92957854 22 26 6225 48.29600000 3176967202 3176967202 4.66700000
20.77466011 12.95625401 -0.99749118 23 27 6225 24.50400000 3176967202 3176967202 -2.33300000
20.71030426 9.02229404 -0.78886825 18 28 6226 22.60400000 3176967204 3176967204 -2.00000000
20.82398033 11.60952854 -0.55477935 21 31 6226 23.84800000 3176967206 3176967206 -1.33300000
5.25701427 2.59361339 -2.73349500 8 0 6234 6.46800000 3176967227 3176967227 -25.00000000
21.06722832 13.09279728 -0.43295929 6 1 6234 24.80800000 3176967227 3176967227 -1.00000000
20.75919533 10.23730278 -0.67362040 20 2 6235 23.15600000 3176967229 3176967229 -1.66700000
7.75833225 4.30936861 -2.48440647 3 3 6235 9.21600000 3176967229 3176967229 -15.63900000
10.34680939 5.10023689 -2.30712390 2 4 6236 11.76400000 3176967231 3176967231 -11.31000000
40.19244766 22.31573296 0.00000000 16 5 6236 45.97200000 3176967231 3176967231 0.00000000
40.42436218 17.51831818 -0.51290613 11 6 6237 44.06000000 3176967234 3176967234 -0.66700000
11.96083355 6.63818789 -2.12820292 2 7 6237 13.84400000 3176967234 3176967234 -8.84300000
14.21620178 7.00448704 -2.01726103 2 8 6237 15.97600000 3176967236 3176967236 -7.25400000
40.32212448 25.03001595 0.27583343 19 9 6237 47.46000000 3176967236 3176967236 0.33300000
40.91443634 20.15014267 -0.26506975 17 10 6238 45.60800000 3176967238 3176967238 -0.33300000
15.08967209 8.37122917 -1.85877633 2 11 6238 17.35600000 3176967238 3176967238 -6.14800000
17.64927864 7.64118242 -1.79530764 2 12 6239 19.31600000 3176967241 3176967241 -5.33300000
40.52198410 22.47094727 1.07819998 16 13 6239 46.34800000 3176967241 3176967241 1.33300000
40.44087219 17.50032806 0.51299924 35 14 6240 44.06800000 3176967243 3176967243 0.66700000
19.21570206 10.65143776 -1.53631663 4 15 6240 22.02400000 3176967243 3176967243 -4.00000000
18.28787804 8.99478722 -1.66374075 30 16 6241 20.44800000 3176967245 3176967245 -4.66700000
40.00373840 24.79370499 1.36969876 28 17 6241 47.08400000 3176967245 3176967245 1.66700000
40.83689880 20.08539200 0.79436374 11 18 6241 45.51600000 3176967248 3176967248 1.00000000
19.49604988 12.08335209 -1.47000003 5 19 6241 22.98400000 3176967248 3176967248 -3.66700000
20.65798187 8.93094730 -1.31068611 10 20 6242 22.54400000 3176967250 3176967250 -3.33300000
40.10934448 22.21467400 2.67020893 23 21 6242 45.92800000 3176967250 3176967250 3.33300000
40.80192184 20.05050468 1.85218132 19 22 6243 45.50000000 3176967252 3176967252 2.33300000
20.72952080 11.47637558 -1.10371828 26 23 6243 23.72000000 3176967252 3176967252 -2.66700000
20.68744087 10.16154957 -1.20791388 27 24 6244 23.08000000 3176967255 3176967255 -3.00000000
45.17257309 24.99835587 6.33915567 28 25 6244 52.01600000 3176967255 3176967255 7.00000000
42.35354233 20.79463577 3.85179424 22 26 6245 47.34000000 3176967257 3176967257 4.66700000
20.76877975 12.85211182 -0.99504876 23 27 6245 24.44400000 3176967257 3176967257 -2.33300000
20.71230888 8.93727589 -0.78775144 18 28 6246 22.57200000 3176967259 3176967259 -2.00000000
20.83139229 11.51378250 -0.55384886 20 31 6247 23.80800000 3176967261 3176967261 -1.33300000
5.26603556 2.57524705 -2.73349500 8 0 6254 6.46800000 3176967282 3176967282 -25.00000000
21.12982178 13.02967453 -0.43330833 6 1 6254 24.82800000 3176967282 3176967282 -1.00000000
20.76247597 10.14897442 -0.67257315 20 2 6255 23.12000000 3176967284 3176967284 -1.66700000
7.76320601 4.27668524 -2.48117161 2 3 6255 9.20400000 3176967284 3176967284 -15.63900000
10.35750103 5.06064463 -2.30555487 2 4 6256 11.75600000 3176967287 3176967287 -11.31000000
40.56792831 22.33930397 0.00000000 16 5 6256 46.31200000 3176967287 3176967287 0.00000000
40.26841354 17.28402710 -0.51015884 22 6 6257 43.82400000 3176967289 3176967289 -0.66700000
11.97700787 6.59258461 -2.12697291 2 7 6257 13.83600000 3176967289 3176967289 -8.84300000
14.23700047 6.95307922 -2.01675606 2 8 6257 15.97200000 3176967291 3176967291 -7.25400000
40.46374512 24.92267609 0.27620539 19 9 6257 47.52400000 3176967291 3176967291 0.33300000
40.84074402 19.93701363 -0.26413986 8 10 6258 45.44800000 3176967294 3176967294 -0.33300000
15.12577057 8.32233906 -1.85963321 2 11 6258 17.36400000 3176967294 3176967294 -6.14800000
17.68316460 7.58266783 -1.79605114 2 12 6259 19.32400000 3176967296 3176967296 -5.33300000
40.65273285 22.35827065 1.07959580 16 13 6259 46.40800000 3176967296 3176967296 1.33300000
40.45391846 17.33857155 0.51239389 23 14 6260 44.01600000 3176967298 3176967298 0.66700000
19.24577141 10.58045292 -1.53575850 6 15 6260 22.01600000 3176967298 3176967298 -4.00000000
18.31199646 8.92740154 -1.66308987 27 16 6261 20.44000000 3176967301 3176967301 -4.66700000
39.81757736 24.48635674 1.36038971 19 17 6261 46.76400000 3176967301 3176967301 1.66700000
40.86721420 19.92344475 0.79359585 11 18 6261 45.47200000 3176967303 3176967303 1.00000000
19.54150963 12.01731586 -1.47025597 5 19 6261 22.98800000 3176967303 3176967303 -3.66700000
20.66700554 8.84935188 -1.30929077 10 20 6262 22.52000000 3176967305 3176967305 -3.33300000
40.30564117 22.13989639 2.67811584 15 21 6262 46.06400000 3176967305 3176967305 3.33300000
40.83213806 19.88870430 1.85039020 9 22 6263 45.45600000 3176967308 3176967308 2.33300000
20.72392273 11.37894630 -1.10129869 24 23 6263 23.66800000 3176967308 3176967308 -2.66700000
20.68687057 10.07178974 -1.20582044 31 24 6264 23.04000000 3176967310 3176967310 -3.00000000
44.86278915 24.62275696 6.28358316 39 25 6264 51.56000000 3176967310 3176967310 7.00000000
42.19644165 20.53501701 3.83096480 33 26 6265 47.08400000 3176967312 3176967312 4.66700000
20.76583290 12.75025940 -0.99276918 25 27 6265 24.38800000 3176967312 3176967312 -2.33300000
20.72500038 8.85706806 -0.78705347 18 28 6266 22.55200000 3176967314 3176967314 -2.00000000
20.82738495 11.42156506 -0.55273223 20 31 6266 23.76000000 3176967317 3176967317 -1.33300000
5.28151751 2.56001210 -2.73687577 7 0 6274 6.47600000 3176967337 3176967337 -25.00000000
21.25705147 13.00593376 -0.43498379 3 1 6274 24.92400000 3176967337 3176967337 -1.00000000
20.76898956 10.06249142 -0.67164224 20 2 6275 23.08800000 3176967340 3176967340 -1.66700000
7.79498863 4.25879431 -2.48656321 4 3 6275 9.22400000 3176967340 3176967340 -15.63900000
10.37510300 5.02445936 -2.30555487 2 4 6276 11.75600000 3176967342 3176967342 -11.31000000
40.57544708 22.15921402 0.00000000 16 5 6276 46.23200000 3176967342 3176967342 0.00000000
40.11203003 17.05960464 -0.50745809 22 6 6276 43.59200000 3176967344 3176967344 -0.66700000
11.99186611 6.54904222 -2.12574315 2 7 6276 13.82800000 3176967344 3176967344 -8.84300000
14.26475525 6.90506935 -2.01726103 2 8 6277 15.97600000 3176967347 3176967347 -7.25400000
40.45492935 24.72287750 0.27555445 29 9 6277 47.41200000 3176967347 3176967347 0.33300000
40.90288925 19.79084587 -0.26409337 8 10 6278 45.44000000 3176967349 3176967349 -0.33300000
15.16171074 8.27330017 -1.86048996 2 11 6278 17.37200000 3176967349 3176967349 -6.14800000
17.69486237 7.51466846 -1.79456413 2 12 6279 19.30800000 3176967351 3176967351 -5.33300000
40.62170029 22.15686798 1.07671118 16 13 6279 46.28400000 3176967351 3176967351 1.33300000
40.48474121 17.18475342 0.51202142 23 14 6280 43.98400000 3176967354 3176967354 0.66700000
19.28258705 10.51320744 -1.53575850 6 15 6280 22.01600000 3176967354 3176967354 -4.00000000
18.32868958 8.85648823 -1.66178799 12 16 6281 20.42400000 3176967356 3176967356 -4.66700000
40.11783218 24.47842026 1.36772060 28 17 6281 47.01600000 3176967356 3176967356 1.66700000
40.93291092 19.77893066 0.79352599 11 18 6281 45.46800000 3176967358 3176967358 1.00000000
19.57652473 11.94487190 -1.46974421 5 19 6281 22.98000000 3176967358 3176967358 -3.66700000
20.67203522 8.76624393 -1.30766284 10 20 6282 22.49200000 3176967361 3176967361 -3.33300000
40.31254578 21.96086311 2.67346478 15 21 6282 45.98400000 3176967361 3176967361 3.33300000
40.77534103 19.68523788 1.84469116 9 22 6283 45.31600000 3176967363 3176967363 2.33300000
20.72842407 11.28742790 -1.09943736 26 23 6283 23.62800000 3176967363 3176967363 -2.66700000
20.69312286 9.98562908 -1.20414567 31 24 6284 23.00800000 3176967365 3176967365 -3.00000000
45.34947968 24.68428421 6.33964348 28 25 6284 52.02000000 3176967365 3176967365 7.00000000
42.28223038 20.39452744 3.83226657 33 26 6285 47.10000000 3176967367 3176967367 4.66700000
20.76584244 12.65066433 -0.99065238 28 27 6285 24.33600000 3176967367 3176967367 -2.33300000
20.71529388 8.76753044 -0.78551787 18 28 6286 22.50800000 3176967370 3176967370 -2.00000000
20.82694626 11.32223320 -0.55161560 20 31 6287 23.71200000 3176967372 3176967372 -1.33300000
5.28344250 2.53934288 -2.73349500 2 0 6293 6.46800000 3176967393 3176967393 -25.00000000
34.48825836 20.94446564 -0.70430928 8 1 6293 40.35600000 3176967393 3176967393 -1.00000000
20.76620293 9.97624969 -0.67047864 20 2 6294 23.04800000 3176967395 3176967395 -1.66700000
7.81245470 4.23475742 -2.48764133 3 3 6294 9.22800000 3176967395 3176967395 -15.63900000
10.39524364 4.99172449 -2.30633926 2 4 6295 11.76000000 3176967397 3176967397 -11.31000000
40.43769073 21.91020584 0.00000000 16 5 6295 45.99200000 3176967397 3176967397 0.00000000
40.09834671 16.89698410 -0.50657338 22 6 6295 43.51600000 3176967400 3176967400 -0.66700000
12.02046776 6.51300573 -2.12697291 2 7 6295 13.83600000 3176967400 3176967400 -8.84300000
14.28399754 6.85601044 -2.01675606 2 8 6296 15.97200000 3176967402 3176967402 -7.25400000
40.42383194 24.52013016 0.27478728 29 9 6296 47.28000000 3176967402 3176967402 0.33300000
40.79879379 19.57377815 -0.26300073 8 10 6297 45.25200000 3176967404 3176967404 -0.33300000
15.17857075 8.21729660 -1.85920477 2 11 6297 17.36000000 3176967404 3176967404 -6.14800000
17.63892365 7.42196703 -1.78638494 2 12 6298 19.22000000 3176967407 3176967407 -5.33300000
40.66329956 22.00491142 1.07587373 16 13 6298 46.24800000 3176967407 3176967407 1.33300000
40.43089676 17.00388908 0.51062447 23 14 6299 43.86400000 3176967409 3176967409 0.66700000
19.31032562 10.44540977 -1.53520048 4 15 6299 22.00800000 3176967409 3176967409 -4.00000000
18.36514854 8.79910469 -1.66243887 5 16 6300 20.43200000 3176967411 3176967411 -4.66700000
40.10302734 24.28725624 1.36446238 28 17 6300 46.90400000 3176967411 3176967411 1.66700000
40.85039902 19.57223129 0.79066384 11 18 6300 45.30400000 3176967414 3176967414 1.00000000
19.59895515 11.86954880 -1.46846509 5 19 6300 22.96000000 3176967414 3176967414 -3.66700000
20.66417694 8.68217659 -1.30533731 10 20 6301 22.45200000 3176967416 3176967416 -3.33300000
40.36055756 21.81377029 2.67183685 15 21 6301 45.95600000 3176967416 3176967416 3.33300000
40.79713440 19.52920532 1.84273720 9 22 6302 45.26800000 3176967418 3176967418 2.33300000
20.72707176 11.19773674 -1.09739006 24 23 6302 23.58400000 3176967418 3176967418 -2.66700000
20.69369316 9.90143681 -1.20226157 31 24 6303 22.97200000 3176967420 3176967420 -3.00000000
46.35682678 25.03368378 6.46882486 32 25 6303 53.08000000 3176967420 3176967420 7.00000000
42.89271164 20.51393700 3.88141084 33 26 6304 47.70400000 3176967423 3176967423 4.66700000
20.75979805 12.55278015 -0.98837274 25 27 6304 24.28000000 3176967423 3176967423 -2.33300000
20.71476173 8.68642044 -0.78440106 18 28 6305 22.47600000 3176967425 3176967425 -2.00000000
20.81862259 11.22842789 -0.55040592 20 31 6306 23.66000000 3176967427 3176967427 -1.33300000
3.61685181 1.72205138 -1.86797273 24 0 6314 4.42000000 3176967448 3176967448 -25.00000000
34.58535004 20.83029938 -0.70472819 8 1 6314 40.38000000 3176967448 3176967448 -1.00000000
20.75208473 9.87601566 -0.66884959 23 2 6315 22.99200000 3176967450 3176967450 -1.66700000
7.81435108 4.19880247 -2.48332834 2 3 6315 9.21200000 3176967450 3176967450 -15.63900000
10.41346931 4.95359087 -2.30633926 2 4 6316 11.76000000 3176967453 3176967453 -11.31000000
40.52829742 21.76752472 0.00000000 16 5 6316 46.00400000 3176967453 3176967453 0.00000000
40.16370010 16.75144196 -0.50661993 22 6 6316 43.52000000 3176967455 3176967455 -0.66700000
12.04425812 6.46890450 -2.12697291 2 7 6316 13.83600000 3176967455 3176967455 -8.84300000
14.30186367 6.80020332 -2.01574588 2 8 6317 15.96400000 3176967457 3176967457 -7.25400000
40.43802261 24.32644272 0.27427584 29 9 6317 47.19200000 3176967457 3176967457 0.33300000
40.81607056 19.39835739 -0.26265201 17 10 6318 45.19200000 3176967460 3176967460 -0.33300000
15.19456959 8.15408707 -1.85749125 2 11 6318 17.34400000 3176967460 3176967460 -6.14800000
17.75424576 7.39401531 -1.79530764 4 12 6319 19.31600000 3176967462 3176967462 -5.33300000
40.70138931 21.83304214 1.07475710 24 13 6319 46.20000000 3176967462 3176967462 1.33300000
40.44863892 16.83714294 0.51006567 23 14 6320 43.81600000 3176967464 3176967464 0.66700000
19.34496307 10.37267780 -1.53492141 4 15 6320 22.00400000 3176967464 3176967464 -4.00000000
18.41528320 8.74028111 -1.66406620 5 16 6321 20.45200000 3176967467 3176967467 -4.66700000
40.15064240 24.11540413 1.36306608 19 17 6321 46.85600000 3176967467 3176967467 1.66700000
40.86405182 19.39493752 0.78954685 22 18 6321 45.24000000 3176967469 3176967469 1.00000000
19.63890457 11.79557991 -1.46820927 5 19 6321 22.95600000 3176967469 3176967469 -3.66700000
20.65898895 8.59104729 -1.30301178 10 20 6322 22.41200000 3176967471 3176967471 -3.33300000
40.40151978 21.64495087 2.66927862 15 21 6322 45.91200000 3176967471 3176967471 3.33300000
40.72760010 19.31276131 1.83638680 9 22 6323 45.11200000 3176967473 3176967473 2.33300000
20.71513748 11.09339905 -1.09459817 24 23 6323 23.52400000 3176967473 3176967473 -2.66700000
20.70096779 9.81183720 -1.20058680 27 24 6324 22.94000000 3176967476 3176967476 -3.00000000
42.76585007 20.26100349 3.86318517 33 26 6325 47.48000000 3176967478 3176967478 4.66700000
20.76110840 12.44988632 -0.98625600 25 27 6325 24.22800000 3176967478 3176967478 -2.33300000
20.71323013 8.59664726 -0.78314471 18 28 6326 22.44000000 3176967480 3176967480 -2.00000000
20.82437134 11.13319492 -0.54947537 20 31 6327 23.62000000 3176967483 3176967483 -1.33300000
3.62284088 1.70941567 -1.86797273 11 0 6334 4.42000000 3176967503 3176967503 -25.00000000
34.59605408 20.67251968 -0.70347160 8 1 6334 40.30800000 3176967503 3176967503 -1.00000000
20.74665260 9.78475666 -0.66756958 20 2 6335 22.94800000 3176967506 3176967506 -1.66700000
7.83235979 4.17331076 -2.48440647 6 3 6335 9.21600000 3176967506 3176967506 -15.63900000
10.42360115 4.91386557 -2.30477047 2 4 6336 11.75200000 3176967508 3176967508 -11.31000000
40.68523407 21.66917038 0.00000000 16 5 6336 46.09600000 3176967508 3176967508 0.00000000
40.19605255 16.60045624 -0.50629401 22 6 6336 43.49200000 3176967510 3176967510 -0.66700000
12.07025433 6.42868090 -2.12758780 2 7 6336 13.84000000 3176967510 3176967510 -8.84300000
