# .PCD v0.7 - Point Cloud Data file format
VERSION 0.7
FIELDS x y z intensity laser_id azimuth distance_m adjustedtime timestamp vertical_angle
SIZE 4 4 4 1 1 2 8 8 4 8
TYPE F F F U U U F U U F
COUNT 1 1 1 1 1 1 1 1 1 1
WIDTH 522
HEIGHT 1
VIEWPOINT 0 0 0 1 0 0 0
POINTS 522
DATA ascii
2.28288770 8.00883389 -2.33128762 20 3 1731 8.64800000 3175954648 3175954648 -15.63900000
3.65316558 10.78042030 -2.27652955 9 4 1732 11.60800000 3175954651 3175954651 -11.31000000
18.84844971 66.08043671 0.00000000 24 5 1732 68.71600000 3175954651 3175954651 0.00000000
18.07221794 45.80864334 -0.57330006 14 6 1733 49.24800000 3175954653 3175954653 -0.66700000
3.73280072 13.07810497 -2.11590457 14 7 1733 13.76400000 3175954653 3175954653 -8.84300000
5.74771404 16.95165825 -2.27838373 4 8 1733 18.04400000 3175954655 3175954655 -7.25400000
19.08207893 56.24624252 -0.34520441 26 10 1734 59.39600000 3175954658 3175954658 -0.33300000
5.51344681 19.30394554 -2.16250372 5 11 1734 20.19200000 3175954658 3175954658 -6.14800000
7.98739147 20.22539711 -2.02989841 2 12 1735 21.84000000 3175954660 3175954660 -5.33300000
21.63695335 54.76036835 0.68547356 27 14 1736 58.88400000 3175954662 3175954662 0.66700000
7.36540699 25.75407028 -1.87310088 3 15 1736 26.85200000 3175954662 3175954662 -4.00000000
7.67378473 22.58034134 -1.94688916 16 16 1737 23.92800000 3175954665 3175954665 -4.66700000
40.42012024 172.73884583 5.16298819 84 17 1737 177.48000000 3175954665 3175954665 1.66700000
29.19296074 85.90116882 1.58363140 28 18 1737 90.74000000 3175954667 3175954667 1.00000000
6.58022070 28.12113762 -1.85093117 4 19 1737 28.94000000 3175954667 3175954667 -3.66700000
10.44694424 26.41290092 -1.65417147 4 20 1738 28.45200000 3175954669 3175954669 -3.33300000
28.92639351 85.01936340 3.65877032 28 22 1739 89.88000000 3175954672 3175954672 2.33300000
9.03332043 31.52369499 -1.52752376 3 23 1739 32.82800000 3175954672 3175954672 -2.66700000
10.04477215 29.50632477 -1.63350987 5 24 1740 31.21200000 3175954674 3175954674 -3.00000000
41.53666306 121.94338226 10.51652050 28 26 1741 129.25200000 3175954676 3175954676 4.66700000
8.34779453 35.56308365 -1.48825812 6 27 1741 36.56000000 3175954676 3175954676 -2.33300000
13.16918564 33.22767639 -1.24814558 6 28 1742 35.76400000 3175954678 3175954678 -2.00000000
12.34699631 43.00243378 -1.04107201 6 31 1742 44.75200000 3175954681 3175954681 -1.33300000
1.81709814 5.31336069 -2.61854267 17 0 1748 6.19600000 3175954701 3175954701 -25.00000000
11.65003681 49.36007690 -0.88525587 11 1 1748 50.72400000 3175954701 3175954701 -1.00000000
13.31223774 38.90402222 -1.19666827 8 2 1749 41.13600000 3175954704 3175954704 -1.66700000
2.34860373 8.14226151 -2.37226319 19 3 1749 8.80000000 3175954704 3175954704 -15.63900000
3.67939210 10.74662495 -2.27182269 11 4 1750 11.58400000 3175954706 3175954706 -11.31000000
18.17108154 45.66191483 -0.57213598 14 6 1750 49.14800000 3175954708 3175954708 -0.66700000
3.77597213 13.08216190 -2.11836433 13 7 1750 13.78000000 3175954708 3175954708 -8.84300000
5.79579687 16.91850090 -2.27636361 4 8 1751 18.02800000 3175954711 3175954711 -7.25400000
19.18346405 55.96655655 -0.34385607 26 10 1752 59.16400000 3175954713 3175954713 -0.33300000
5.56964779 19.27124786 -2.16078997 3 11 1752 20.17600000 3175954713 3175954713 -6.14800000
8.03762150 20.16690636 -2.02655244 2 12 1753 21.80400000 3175954715 3175954715 -5.33300000
21.64295387 54.27601624 0.68025833 26 14 1754 58.43600000 3175954718 3175954718 0.66700000
7.44184208 25.71547318 -1.87198472 3 15 1754 26.83600000 3175954718 3175954718 -4.00000000
40.11324692 169.03196716 5.05593491 100 17 1755 173.80000000 3175954720 3175954720 1.66700000
29.48476219 85.87333679 1.58481812 28 18 1755 90.80800000 3175954722 3175954722 1.00000000
6.66023827 28.06537056 -1.84862876 4 19 1755 28.90400000 3175954722 3175954722 -3.66700000
10.50322437 26.31319427 -1.64998543 4 20 1756 28.38000000 3175954725 3175954725 -3.33300000
43.03560638 148.51646423 9.00503635 42 21 1756 154.88800000 3175954725 3175954725 3.33300000
28.86854362 83.98316193 3.61806297 28 22 1757 88.88000000 3175954727 3175954727 2.33300000
9.09892750 31.38003349 -1.52193999 3 23 1757 32.70800000 3175954727 3175954727 -2.66700000
10.14261532 29.48973083 -1.63434720 5 24 1758 31.22800000 3175954729 3175954729 -3.00000000
41.87025833 121.66903687 10.50415325 28 26 1759 129.10000000 3175954731 3175954731 4.66700000
8.45577621 35.52113342 -1.48760688 6 27 1759 36.54400000 3175954731 3175954731 -2.33300000
13.25717831 33.14530945 -1.24661005 6 28 1760 35.72000000 3175954734 3175954734 -2.00000000
12.43259621 42.76541519 -1.03632641 6 31 1761 44.54800000 3175954736 3175954736 -1.33300000
1.83326411 5.30013371 -2.61516190 13 0 1768 6.18800000 3175954757 3175954757 -25.00000000
13.45057201 38.86487198 -1.19690096 8 2 1769 41.14400000 3175954759 3175954759 -1.66700000
2.36944795 8.10813332 -2.36471510 15 3 1769 8.77200000 3175954759 3175954759 -15.63900000
3.70789838 10.70777130 -2.26633143 13 4 1770 11.55600000 3175954761 3175954761 -11.31000000
19.14595985 65.47407532 0.00000000 24 5 1770 68.21600000 3175954761 3175954761 0.00000000
18.24085045 45.37554169 -0.56934208 13 6 1770 48.90800000 3175954764 3175954764 -0.66700000
3.83048892 13.09925079 -2.12328362 15 7 1770 13.81200000 3175954764 3175954764 -8.84300000
5.84702396 16.87567139 -2.27333307 3 8 1771 18.00400000 3175954766 3175954766 -7.25400000
19.31450844 55.71406937 -0.34271693 26 10 1772 58.96800000 3175954768 3175954768 -0.33300000
5.62682533 19.21733856 -2.15693450 5 11 1772 20.14000000 3175954768 3175954768 -6.14800000
8.10499287 20.13133812 -2.02580881 2 12 1773 21.79600000 3175954771 3175954771 -5.33300000
21.62455368 53.68444061 0.67378587 26 14 1774 57.88000000 3175954773 3175954773 0.66700000
7.53380585 25.69699860 -1.87254274 3 15 1774 26.84400000 3175954773 3175954773 -4.00000000
7.80506372 22.47622490 -1.94233274 3 16 1775 23.87200000 3175954775 3175954775 -4.66700000
29.77908897 85.75478363 1.58453894 28 18 1775 90.79200000 3175954778 3175954778 1.00000000
6.73478270 27.94493294 -1.84223294 4 19 1775 28.80400000 3175954778 3175954778 -3.66700000
10.52631855 26.10601044 -1.63928783 4 20 1776 28.19600000 3175954780 3175954780 -3.33300000
43.36367416 147.71780396 8.96573448 42 21 1776 154.21200000 3175954780 3175954780 3.33300000
28.90035629 83.13063812 3.58565998 28 22 1777 88.08400000 3175954782 3175954782 2.33300000
9.18363380 31.26373863 -1.51784527 3 23 1777 32.62000000 3175954782 3175954782 -2.66700000
10.19168568 29.29946327 -1.62576413 5 24 1778 31.06400000 3175954784 3175954784 -3.00000000
42.42444229 121.89489746 10.53637409 28 26 1779 129.49600000 3175954787 3175954787 4.66700000
8.57408142 35.46809006 -1.48662984 6 27 1779 36.52000000 3175954787 3175954787 -2.33300000
13.36231327 33.07288742 -1.24563289 6 28 1780 35.69200000 3175954789 3175954789 -2.00000000
12.53209209 42.55297470 -1.03223205 6 31 1781 44.37200000 3175954791 3175954791 -1.33300000
1.86585128 5.33101749 -2.63375711 11 0 1789 6.23200000 3175954812 3175954812 -25.00000000
11.77483463 48.33897781 -0.86843175 57 1 1789 49.76000000 3175954812 3175954812 -1.00000000
13.54403305 38.67568970 -1.19259548 8 2 1790 40.99600000 3175954814 3175954814 -1.66700000
2.39586782 8.08831406 -2.36148024 17 3 1790 8.76000000 3175954814 3175954814 -15.63900000
3.73414898 10.65709305 -2.25848675 11 4 1791 11.51600000 3175954817 3175954817 -11.31000000
19.28804779 65.07364655 0.00000000 23 5 1791 67.87200000 3175954817 3175954817 0.00000000
18.44467354 45.40102005 -0.57050622 13 6 1791 49.00800000 3175954819 3175954819 -0.66700000
3.87847447 13.08512306 -2.12328362 17 7 1791 13.81200000 3175954819 3175954819 -8.84300000
5.90489864 16.84289360 -2.27181792 4 8 1792 17.99200000 3175954821 3175954821 -7.25400000
19.52784920 55.66932297 -0.34287965 26 10 1793 58.99600000 3175954824 3175954824 -0.33300000
5.68817043 19.16608429 -2.15350747 3 11 1793 20.10800000 3175954824 3175954824 -6.14800000
8.17722225 20.09780884 -2.02543712 2 12 1794 21.79200000 3175954826 3175954826 -5.33300000
21.59949112 53.06025314 0.66694093 25 14 1795 57.29200000 3175954828 3175954828 0.66700000
7.62452936 25.65773773 -1.87170565 3 15 1795 26.83200000 3175954828 3175954828 -4.00000000
7.91910934 22.53773880 -1.95014369 3 16 1796 23.96800000 3175954831 3175954831 -4.66700000
29.66230774 84.41875458 1.56185079 28 18 1796 89.49200000 3175954833 3175954833 1.00000000
6.82956457 27.88904381 -1.84018636 4 19 1796 28.77200000 3175954833 3175954833 -3.66700000
10.62193108 26.06725502 -1.63928783 4 20 1797 28.19600000 3175954835 3175954835 -3.33300000
43.20670319 145.21166992 8.82317829 42 21 1797 151.76000000 3175954835 3175954835 3.33300000
9.28447723 31.18391609 -1.51561177 3 23 1798 32.57200000 3175954837 3175954837 -2.66700000
10.28574371 29.22423172 -1.62367070 5 24 1799 31.02400000 3175954840 3175954840 -3.00000000
8.66684055 35.28505707 -1.48027956 6 27 1800 36.36400000 3175954842 3175954842 -2.33300000
13.41846561 32.86454773 -1.23963010 6 28 1801 35.52000000 3175954844 3175954844 -2.00000000
12.69140339 42.51824951 -1.03251123 6 31 1802 44.38400000 3175954847 3175954847 -1.33300000
1.89802647 5.36581326 -2.65404272 11 0 1808 6.28000000 3175954867 3175954867 -25.00000000
13.65487003 38.58156204 -1.19108284 8 2 1809 40.94400000 3175954870 3175954870 -1.66700000
2.41825151 8.06556606 -2.35716701 17 3 1809 8.74400000 3175954870 3175954870 -15.63900000
3.77994299 10.67422962 -2.26476240 9 4 1810 11.54800000 3175954872 3175954872 -11.31000000
19.35430527 64.51126099 0.00000000 23 5 1810 67.35200000 3175954872 3175954872 0.00000000
18.48129845 45.06206131 -0.56701386 13 6 1810 48.70800000 3175954874 3175954874 -0.66700000
3.92525220 13.08354664 -2.12512827 22 7 1810 13.82400000 3175954874 3175954874 -8.84300000
5.95276833 16.80077934 -2.26878738 4 8 1811 17.96800000 3175954877 3175954877 -7.25400000
19.35166931 78.13797760 0.46785906 28 9 1811 80.50000000 3175954877 3175954877 0.33300000
19.59473419 55.27249908 -0.34083387 25 10 1812 58.64400000 3175954879 3175954879 -0.33300000
5.74711943 19.13188171 -2.15179396 3 11 1812 20.09200000 3175954879 3175954879 -6.14800000
8.23171902 20.04110909 -2.02246284 2 12 1813 21.76000000 3175954881 3175954881 -5.33300000
21.61113358 52.58878708 0.66191196 24 14 1814 56.86000000 3175954883 3175954883 0.66700000
7.66474867 25.48328781 -1.86082375 3 15 1814 26.67600000 3175954883 3175954883 -4.00000000
7.95778370 22.40991783 -1.94135630 3 16 1815 23.86000000 3175954886 3175954886 -4.66700000
30.51087189 85.92167664 1.59151983 28 18 1815 91.19200000 3175954888 3175954888 1.00000000
6.90853786 27.81200600 -1.83660471 4 19 1815 28.71600000 3175954888 3175954888 -3.66700000
10.70223808 26.01711464 -1.63835764 4 20 1816 28.18000000 3175954890 3175954890 -3.33300000
43.49570465 144.42904663 8.78434086 42 21 1816 151.09200000 3175954890 3175954890 3.33300000
28.87758255 81.23223877 3.51238704 28 22 1817 86.28400000 3175954893 3175954893 2.33300000
9.36477852 31.07644081 -1.51188922 3 23 1817 32.49200000 3175954893 3175954893 -2.66700000
10.37188911 29.15985489 -1.62199593 5 24 1818 30.99200000 3175954895 3175954895 -3.00000000
8.74515438 35.10099411 -1.47376633 6 27 1819 36.20400000 3175954897 3175954897 -2.33300000
13.51518726 32.79030228 -1.23851335 6 28 1820 35.48800000 3175954900 3175954900 -2.00000000
12.82307720 42.44530487 -1.03176677 6 31 1821 44.35200000 3175954902 3175954902 -1.33300000
1.91157317 5.34175444 -2.64559031 14 0 1829 6.26000000 3175954923 3175954923 -25.00000000
13.79349136 38.52372742 -1.19085014 8 2 1830 40.93600000 3175954925 3175954925 -1.66700000
2.42988086 7.99767971 -2.33991408 19 3 1830 8.68000000 3175954925 3175954925 -15.63900000
3.89973402 10.88554764 -2.31261516 11 4 1831 11.79200000 3175954927 3175954927 -11.31000000
19.52313995 64.21791840 0.00000000 23 5 1831 67.12000000 3175954927 3175954927 0.00000000
3.94098926 12.96318817 -2.10791087 15 7 1831 13.71200000 3175954930 3175954930 -8.84300000
6.00895071 16.76390648 -2.26676726 4 8 1832 17.95200000 3175954932 3175954932 -7.25400000
19.39202690 77.08899689 0.46200064 28 9 1832 79.49200000 3175954932 3175954932 0.33300000
19.78098297 55.15512848 -0.34055489 25 10 1833 58.59600000 3175954934 3175954934 -0.33300000
5.80677986 19.07644653 -2.14793849 3 11 1833 20.05600000 3175954934 3175954934 -6.14800000
8.30359173 20.00712585 -2.02209115 2 12 1834 21.75600000 3175954936 3175954936 -5.33300000
21.58899689 51.99207306 0.65539300 24 14 1835 56.30000000 3175954939 3175954939 0.66700000
8.02504063 22.33932877 -1.93777633 3 16 1836 23.81600000 3175954941 3175954941 -4.66700000
30.76068306 85.62860870 1.58816898 28 18 1836 91.00000000 3175954943 3175954943 1.00000000
6.98503828 27.68586349 -1.82995307 4 19 1836 28.61200000 3175954943 3175954943 -3.66700000
10.77913189 25.93346596 -1.63556695 4 20 1837 28.13200000 3175954946 3175954946 -3.33300000
43.84062195 143.66520691 8.74759674 42 21 1837 150.46000000 3175954946 3175954946 3.33300000
28.90461731 80.37368011 3.47982121 28 22 1838 85.48400000 3175954948 3175954948 2.33300000
9.47161484 31.01898003 -1.51077247 3 23 1838 32.46800000 3175954948 3175954948 -2.66700000
10.43677044 29.00512695 -1.61550629 5 24 1839 30.86800000 3175954950 3175954950 -3.00000000
8.86394310 35.02996063 -1.47213805 6 27 1840 36.16400000 3175954953 3175954953 -2.33300000
13.63066864 32.72947693 -1.23809457 6 28 1841 35.47600000 3175954955 3175954955 -2.00000000
12.86821556 42.06377792 -1.02357817 6 31 1841 44.00000000 3175954957 3175954957 -1.33300000
1.91694891 5.30129385 -2.62868547 18 0 1848 6.22000000 3175954978 3175954978 -25.00000000
13.86267281 38.31610489 -1.18584657 8 2 1849 40.76400000 3175954980 3175954980 -1.66700000
2.46318054 8.01166916 -2.34638405 15 3 1849 8.70400000 3175954980 3175954980 -15.63900000
3.92512965 10.84305096 -2.30633926 6 4 1850 11.76000000 3175954983 3175954983 -11.31000000
19.67717934 63.96166992 0.00000000 23 5 1850 66.92000000 3175954983 3175954983 0.00000000
3.96063280 12.86624718 -2.09438276 17 7 1851 13.62400000 3175954985 3175954985 -8.84300000
6.05775213 16.72523499 -2.26424170 4 8 1851 17.93200000 3175954987 3175954987 -7.25400000
19.87928009 54.85606766 -0.33911353 25 10 1852 58.34800000 3175954989 3175954989 -0.33300000
5.85947084 19.02287865 -2.14408302 3 11 1852 20.02000000 3175954989 3175954989 -6.14800000
8.36373615 19.96478653 -2.02060413 2 12 1853 21.74000000 3175954992 3175954992 -5.33300000
21.59740448 51.52917862 0.65045714 23 14 1854 55.87600000 3175954994 3175954994 0.66700000
7.76955795 25.19274902 -1.84352410 6 15 1854 26.42800000 3175954994 3175954994 -4.00000000
8.09499550 22.30135155 -1.93679988 3 16 1855 23.80400000 3175954996 3175954996 -4.66700000
30.85187721 84.94931793 1.57755792 28 18 1856 90.39200000 3175954999 3175954999 1.00000000
7.07074690 27.61877441 -1.82713902 4 19 1856 28.56800000 3175954999 3175954999 -3.66700000
10.83571815 25.82761574 -1.63114834 4 20 1856 28.05600000 3175955001 3175955001 -3.33300000
42.76749802 138.50169373 8.44178581 42 21 1856 145.20000000 3175955001 3175955001 3.33300000
28.89799118 79.52611542 3.44725537 28 22 1857 84.68400000 3175955003 3175955003 2.33300000
9.55201435 30.91486549 -1.50723612 3 23 1857 32.39200000 3175955003 3175955003 -2.66700000
10.52197838 28.94032478 -1.61383152 5 24 1858 30.83600000 3175955006 3175955006 -3.00000000
45.18800354 124.22047424 10.79088211 28 26 1859 132.62400000 3175955008 3175955008 4.66700000
8.97707844 34.98876190 -1.47164965 6 27 1859 36.15200000 3175955008 3175955008 -2.33300000
13.74377537 32.69515228 -1.23851335 6 28 1860 35.48800000 3175955010 3175955010 -2.00000000
13.00290298 42.00559235 -1.02320600 6 31 1860 43.98400000 3175955013 3175955013 -1.33300000
1.93668687 5.29797506 -2.63037610 14 0 1868 6.22400000 3175955033 3175955033 -25.00000000
12.45619678 48.23399353 -0.86954868 10 1 1868 49.82400000 3175955033 3175955033 -1.00000000
13.98534870 38.23743820 -1.18491566 8 2 1869 40.73200000 3175955036 3175955036 -1.66700000
2.47968340 7.96624327 -2.33560085 12 3 1869 8.66400000 3175955036 3175955036 -15.63900000
3.41029811 9.31907749 -1.98470700 11 4 1870 10.12000000 3175955038 3175955038 -11.31000000
19.82300949 63.64435577 0.00000000 23 5 1870 66.66000000 3175955038 3175955038 0.00000000
18.83854675 44.57538223 -0.56338185 13 6 1871 48.39600000 3175955040 3175955040 -0.66700000
4.05491304 13.01082802 -2.12020898 11 7 1871 13.79200000 3175955040 3175955040 -8.84300000
6.11200428 16.69280815 -2.26272655 4 8 1871 17.92000000 3175955042 3175955042 -7.25400000
19.70885086 76.15364075 0.45718837 28 9 1871 78.66400000 3175955042 3175955042 0.33300000
20.01835632 54.64362335 -0.33823013 24 10 1872 58.19600000 3175955045 3175955045 -0.33300000
5.91754961 18.97573280 -2.14108419 3 11 1872 19.99200000 3175955045 3175955045 -6.14800000
8.40234184 19.86211014 -2.01316857 2 12 1873 21.66000000 3175955047 3175955047 -5.33300000
21.60565758 51.04830170 0.64533508 23 14 1874 55.43600000 3175955049 3175955049 0.66700000
7.85626030 25.16166496 -1.84324503 3 15 1874 26.42400000 3175955049 3175955049 -4.00000000
8.16455173 22.25050163 -1.93484712 3 16 1875 23.78000000 3175955052 3175955052 -4.66700000
7.15627813 27.57199287 -1.82560396 4 19 1875 28.54400000 3175955054 3175955054 -3.66700000
10.92424965 25.78595734 -1.63091576 4 20 1876 28.05200000 3175955056 3175955056 -3.33300000
28.76336479 78.30303192 3.39856935 28 22 1877 83.48800000 3175955059 3175955059 2.33300000
9.62885475 30.78218460 -1.50239694 3 23 1877 32.28800000 3175955059 3175955059 -2.66700000
10.61466694 28.88092422 -1.61257553 5 24 1878 30.81200000 3175955061 3175955061 -3.00000000
45.47411346 123.66161346 10.75605774 28 26 1879 132.19600000 3175955063 3175955063 4.66700000
9.05586624 34.79089737 -1.46464801 6 27 1879 35.98000000 3175955063 3175955063 -2.33300000
13.78909302 32.48506546 -1.23237097 6 28 1880 35.31200000 3175955066 3175955066 -2.00000000
13.15423393 41.97521210 -1.02357817 6 31 1880 44.00000000 3175955068 3175955068 -1.33300000
1.97527301 5.34559059 -2.65742373 14 0 1888 6.28800000 3175955089 3175955089 -25.00000000
12.57381344 47.99677658 -0.86605823 10 1 1888 49.62400000 3175955089 3175955089 -1.00000000
14.06743717 38.04963303 -1.18061018 8 2 1889 40.58400000 3175955091 3175955091 -1.66700000
2.52947092 8.02734184 -2.35608864 15 3 1889 8.74000000 3175955091 3175955091 -15.63900000
3.43464208 9.28504467 -1.98000014 10 4 1890 10.09600000 3175955094 3175955094 -11.31000000
19.96085167 63.30773163 0.00000000 23 5 1890 66.38000000 3175955094 3175955094 0.00000000
18.93761444 44.39861298 -0.56193835 13 6 1890 48.27200000 3175955096 3175955096 -0.66700000
4.06594610 12.89553356 -2.10360646 12 7 1890 13.68400000 3175955096 3175955096 -8.84300000
6.16610432 16.66020775 -2.26121140 4 8 1891 17.90800000 3175955098 3175955098 -7.25400000
20.13119125 54.36335373 -0.33692825 24 10 1892 57.97200000 3175955101 3175955101 -0.33300000
5.97896242 18.93979073 -2.13937068 5 11 1892 19.97600000 3175955101 3175955101 -6.14800000
8.47162247 19.83265877 -2.01316857 2 12 1893 21.66000000 3175955103 3175955103 -5.33300000
29.02711105 91.89443207 2.24247360 28 13 1893 96.39600000 3175955103 3175955103 1.33300000
21.56838036 50.46869659 0.63895577 22 14 1894 54.88800000 3175955105 3175955105 0.66700000
8.00296783 25.32052040 -1.85691738 3 15 1894 26.62000000 3175955105 3175955105 -4.00000000
8.22692108 22.18074989 -1.93126714 3 16 1895 23.73600000 3175955107 3175955107 -4.66700000
43.42790604 164.95074463 4.96412516 28 17 1895 170.64400000 3175955107 3175955107 1.66700000
7.24333191 27.51210213 -1.82330155 4 19 1895 28.50800000 3175955110 3175955110 -3.66700000
10.99848747 25.71095276 -1.62859023 4 20 1896 28.01200000 3175955112 3175955112 -3.33300000
43.92011261 138.78985596 8.47783184 42 21 1896 145.82000000 3175955112 3175955112 3.33300000
28.89740181 77.82747650 3.38228655 28 22 1897 83.08800000 3175955114 3175955114 2.33300000
9.72177124 30.70267487 -1.50016344 3 23 1897 32.24000000 3175955114 3175955114 -2.66700000
10.67924690 28.74633980 -1.60713255 5 24 1898 30.70800000 3175955117 3175955117 -3.00000000
9.17317295 34.74361801 -1.46399665 6 27 1899 35.96400000 3175955119 3175955119 -2.33300000
13.90240288 32.43673706 -1.23237097 6 28 1900 35.31200000 3175955121 3175955121 -2.00000000
13.22208023 41.68127823 -1.01752973 6 31 1900 43.74000000 3175955124 3175955124 -1.33300000
1.99518895 5.34205914 -2.65911412 17 0 1908 6.29200000 3175955144 3175955144 -25.00000000
12.71560097 47.85596085 -0.86431295 10 1 1908 49.52400000 3175955144 3175955144 -1.00000000
14.15958118 37.89168167 -1.17723572 8 2 1909 40.46800000 3175955147 3175955147 -1.66700000
2.53055549 7.93405867 -2.33128762 24 3 1909 8.64800000 3175955147 3175955147 -15.63900000
3.47664762 9.29871655 -1.98549139 8 4 1910 10.12400000 3175955149 3175955149 -11.31000000
20.10266685 62.98997879 0.00000000 23 5 1910 66.12000000 3175955149 3175955149 0.00000000
19.01653862 44.15591049 -0.55970329 13 6 1910 48.08000000 3175955151 3175955151 -0.66700000
4.03643131 12.64780998 -2.06548214 11 7 1910 13.43600000 3175955151 3175955151 -8.84300000
6.21309948 16.60885239 -2.25717068 4 8 1911 17.87600000 3175955154 3175955154 -7.25400000
20.13710022 75.62767029 0.45486361 28 9 1911 78.26400000 3175955154 3175955154 0.33300000
20.25072670 54.10544586 -0.33576587 23 10 1912 57.77200000 3175955156 3175955156 -0.33300000
6.03777552 18.89607430 -2.13680029 4 11 1912 19.95200000 3175955156 3175955156 -6.14800000
8.52660465 19.77005386 -2.00982261 2 12 1913 21.62400000 3175955158 3175955158 -5.33300000
29.33187485 91.74303436 2.24126387 28 13 1913 96.34400000 3175955158 3175955158 1.33300000
21.65092278 50.17642593 0.63620847 22 14 1914 54.65200000 3175955160 3175955160 0.66700000
8.03172874 25.10620499 -1.84324503 3 15 1914 26.42400000 3175955160 3175955160 -4.00000000
8.31129265 22.17056274 -1.93289447 3 16 1915 23.75600000 3175955163 3175955163 -4.66700000
43.90028000 164.41184998 4.95248890 28 17 1915 170.24400000 3175955163 3175955163 1.66700000
7.31151867 27.38252068 -1.81639409 4 19 1915 28.40000000 3175955165 3175955165 -3.66700000
11.08816910 25.67240524 -1.62859023 4 20 1916 28.01200000 3175955167 3175955167 -3.33300000
28.84451485 76.86176300 3.34467292 28 22 1917 82.16400000 3175955170 3175955170 2.33300000
9.81912899 30.63811302 -1.49867439 3 23 1917 32.20800000 3175955170 3175955170 -2.66700000
10.76127243 28.66027260 -1.60441113 5 24 1918 30.65600000 3175955172 3175955172 -3.00000000
45.90588760 122.19538879 10.65614223 28 26 1919 130.96800000 3175955174 3175955174 4.66700000
9.24270725 34.51835251 -1.45585513 6 27 1919 35.76400000 3175955174 3175955174 -2.33300000
13.96473885 32.27060699 -1.22790384 6 28 1920 35.18400000 3175955177 3175955177 -2.00000000
13.32470798 41.50160599 -1.01427293 6 31 1920 43.60000000 3175955179 3175955179 -1.33300000
2.02534628 5.36558723 -2.67432833 14 0 1928 6.32800000 3175955200 3175955200 -25.00000000
12.81805992 47.57186127 -0.85998476 10 1 1928 49.27600000 3175955200 3175955200 -1.00000000
14.27480984 37.79713821 -1.17583942 8 2 1929 40.42000000 3175955202 3175955202 -1.66700000
2.54285264 7.87752342 -2.31726980 20 3 1929 8.59600000 3175955202 3175955202 -15.63900000
3.50631213 9.27918530 -1.98392248 8 4 1930 10.11600000 3175955204 3175955204 -11.31000000
20.19947624 62.53878403 0.00000000 23 5 1930 65.72000000 3175955204 3175955204 0.00000000
19.22159195 44.20663834 -0.56119335 13 6 1930 48.20800000 3175955207 3175955207 -0.66700000
3.99065948 12.35531998 -2.01997876 13 7 1930 13.14000000 3175955207 3175955207 -8.84300000
6.26121473 16.56108093 -2.25363517 4 8 1931 17.84800000 3175955209 3175955209 -7.25400000
20.24456596 74.97766876 0.45137647 28 9 1931 77.66400000 3175955209 3175955209 0.33300000
20.37012291 53.85110855 -0.33462673 23 10 1932 57.57600000 3175955211 3175955211 -0.33300000
6.09513235 18.84839630 -2.13380170 3 11 1932 19.92400000 3175955211 3175955211 -6.14800000
8.58284283 19.71095657 -2.00684834 2 12 1933 21.59200000 3175955213 3175955213 -5.33300000
21.58632278 49.55051422 0.62922382 21 14 1934 54.05200000 3175955216 3175955216 0.66700000
8.13529491 25.12736702 -1.84687245 3 15 1934 26.47600000 3175955216 3175955216 -4.00000000
8.38156986 22.12277603 -1.93126714 3 16 1935 23.73600000 3175955218 3175955218 -4.66700000
43.30567169 159.94285583 4.82239580 28 17 1935 165.77200000 3175955218 3175955218 1.66700000
28.95450211 76.38385773 1.42586160 28 18 1936 81.70000000 3175955220 3175955220 1.00000000
7.40348005 27.32471466 -1.81434751 4 19 1936 28.36800000 3175955220 3175955220 -3.66700000
11.09790802 25.45052528 -1.61696243 4 20 1936 27.81200000 3175955223 3175955223 -3.33300000
44.58137131 137.53398132 8.41992569 42 21 1936 144.82400000 3175955223 3175955223 3.33300000
28.78098869 75.88616180 3.30657101 28 22 1937 81.22800000 3175955225 3175955225 2.33300000
9.89519787 30.50863266 -1.49402130 3 23 1937 32.10800000 3175955225 3175955225 -2.66700000
10.85132885 28.59639168 -1.60294569 5 24 1938 30.62800000 3175955227 3175955227 -3.00000000
9.35895348 34.47044754 -1.45520389 6 27 1939 35.74800000 3175955230 3175955230 -2.33300000
14.05649376 32.17404556 -1.22608912 6 28 1940 35.13200000 3175955232 3175955232 -2.00000000
13.46949482 41.45484161 -1.01427293 6 31 1940 43.60000000 3175955234 3175955234 -1.33300000
2.04793954 5.36864614 -2.67939973 13 0 1948 6.34000000 3175955255 3175955255 -25.00000000
12.97033691 47.47667313 -0.85907727 10 1 1948 49.22400000 3175955255 3175955255 -1.00000000
14.35533428 37.61260223 -1.17165029 8 2 1949 40.27600000 3175955257 3175955257 -1.66700000
2.57392287 7.87958384 -2.32050467 26 3 1949 8.60800000 3175955257 3175955257 -15.63900000
3.53588247 9.25956154 -1.98235357 8 4 1950 10.10800000 3175955259 3175955259 -11.31000000
20.41765404 62.46789551 0.00000000 23 5 1950 65.72000000 3175955259 3175955259 0.00000000
19.29503059 43.93447113 -0.55863231 13 6 1951 47.98800000 3175955262 3175955262 -0.66700000
3.99783087 12.22415352 -2.00091648 17 7 1951 13.01600000 3175955262 3175955262 -8.84300000
6.31332064 16.52429771 -2.25161505 4 8 1951 17.83200000 3175955264 3175955264 -7.25400000
20.50616455 74.90654755 0.45137647 28 9 1951 77.66400000 3175955264 3175955264 0.33300000
20.54369164 53.74231339 -0.33439428 23 10 1952 57.53600000 3175955266 3175955266 -0.33300000
6.15099335 18.79676628 -2.13037443 3 11 1952 19.89200000 3175955266 3175955266 -6.14800000
8.65480042 19.68816948 -2.00759196 2 12 1953 21.60000000 3175955269 3175955269 -5.33300000
29.18520737 89.13418579 2.18245482 57 13 1953 93.81600000 3175955269 3175955269 1.33300000
21.54177284 48.98059082 0.62293762 21 14 1954 53.51200000 3175955271 3175955271 0.66700000
8.20556450 25.04573059 -1.84296608 3 15 1954 26.42000000 3175955271 3175955271 -4.00000000
8.41170120 21.97051811 -1.92052698 3 16 1955 23.60400000 3175955273 3175955273 -4.66700000
42.82752609 156.01602173 4.70847750 28 17 1955 161.85600000 3175955273 3175955273 1.66700000
28.92164040 75.54042053 1.41189969 28 18 1955 80.90000000 3175955276 3175955276 1.00000000
7.48559809 27.26921844 -1.81230080 4 19 1955 28.33600000 3175955276 3175955276 -3.66700000
11.18667984 25.41163063 -1.61696243 4 20 1956 27.81200000 3175955278 3175955278 -3.33300000
46.01701736 140.29158020 8.59852886 42 21 1956 147.89600000 3175955278 3175955278 3.33300000
29.17443657 76.12110901 3.32122564 28 22 1957 81.58800000 3175955280 3175955280 2.33300000
9.99540234 30.45492363 -1.49309075 3 23 1957 32.08800000 3175955280 3175955280 -2.66700000
10.91103745 28.45390701 -1.59708405 5 24 1958 30.51600000 3175955283 3175955283 -3.00000000
46.69644165 121.71187592 10.64214802 28 26 1959 130.79600000 3175955285 3175955285 4.66700000
9.48028183 34.44142532 -1.45536673 6 27 1959 35.75200000 3175955285 3175955285 -2.33300000
14.15258503 32.08820724 -1.22469318 6 28 1960 35.09200000 3175955287 3175955287 -2.00000000
13.51137352 41.07091522 -1.00608432 6 31 1961 43.24800000 3175955289 3175955289 -1.33300000
2.04710889 5.31072521 -2.65404272 14 0 1968 6.28000000 3175955310 3175955310 -25.00000000
13.05592442 47.14203644 -0.85384154 10 1 1968 48.92400000 3175955310 3175955310 -1.00000000
14.47359085 37.52868652 -1.17060304 8 2 1969 40.24000000 3175955312 3175955312 -1.66700000
2.71262503 8.20702457 -2.41970849 14 3 1969 8.97600000 3175955312 3175955312 -15.63900000
3.57241893 9.25814056 -1.98470700 5 4 1970 10.12000000 3175955315 3175955315 -11.31000000
20.50998688 62.01647186 0.00000000 23 5 1970 65.32000000 3175955315 3175955315 0.00000000
19.43854713 43.84491348 -0.55835289 13 6 1971 47.96400000 3175955317 3175955317 -0.66700000
4.05041027 12.24014282 -2.00583577 15 7 1971 13.04800000 3175955317 3175955317 -8.84300000
6.36238813 16.47994995 -2.24858451 4 8 1971 17.80800000 3175955319 3175955319 -7.25400000
20.55359077 74.06365204 0.44672695 28 9 1971 76.86400000 3175955319 3175955319 0.33300000
20.61441994 53.36804199 -0.33251122 22 10 1972 57.21200000 3175955322 3175955322 -0.33300000
6.20781851 18.74875259 -2.12737584 3 11 1972 19.86400000 3175955322 3175955322 -6.14800000
8.71216393 19.63235664 -2.00498939 2 12 1973 21.57200000 3175955324 3175955324 -5.33300000
21.56005287 48.56146622 0.61856061 20 14 1974 53.13600000 3175955326 3175955326 0.66700000
8.29168415 25.01314735 -1.84268701 3 15 1974 26.41600000 3175955326 3175955326 -4.00000000
8.48834133 21.94102287 -1.92052698 3 16 1975 23.60400000 3175955329 3175955329 -4.66700000
29.25730133 75.62550354 1.41539013 28 18 1975 81.10000000 3175955331 3175955331 1.00000000
7.55291653 27.14293480 -1.80564928 4 19 1975 28.23200000 3175955331 3175955331 -3.66700000
11.25747585 25.33228683 -1.61440432 4 20 1976 27.76800000 3175955333 3175955333 -3.33300000
46.50644684 140.13009644 8.59852886 42 21 1976 147.89600000 3175955333 3175955333 3.33300000
29.42120743 75.97035980 3.31910872 28 22 1977 81.53600000 3175955336 3175955336 2.33300000
10.07772350 30.34779739 -1.48955429 3 23 1977 32.01200000 3175955336 3175955336 -2.66700000
11.00019073 28.38957405 -1.59561861 5 24 1978 30.48800000 3175955338 3175955338 -3.00000000
45.35715866 116.99830627 10.24378681 28 26 1979 125.90000000 3175955340 3175955340 4.66700000
9.55855656 34.25798416 -1.44901633 6 27 1979 35.59600000 3175955340 3175955340 -2.33300000
14.22223282 31.94365692 -1.22106361 6 28 1980 34.98800000 3175955342 3175955342 -2.00000000
13.63992214 41.00311661 -1.00552595 6 31 1980 43.22400000 3175955345 3175955345 -1.33300000
2.07615972 5.33057165 -2.66756654 15 0 1988 6.31200000 3175955365 3175955365 -25.00000000
13.20418739 47.03841782 -0.85279441 10 1 1988 48.86400000 3175955365 3175955365 -1.00000000
14.54498100 37.32519531 -1.16583228 8 2 1989 40.07600000 3175955368 3175955368 -1.66700000
2.80600071 8.39111900 -2.47685838 23 3 1989 9.18800000 3175955368 3175955368 -15.63900000
3.61896205 9.28215790 -1.99255168 10 4 1990 10.16000000 3175955370 3175955370 -11.31000000
20.67937851 61.80414963 0.00000000 23 5 1990 65.17200000 3175955370 3175955370 0.00000000
19.51197433 43.61956406 -0.55630410 13 6 1990 47.78800000 3175955372 3175955372 -0.66700000
3.98688507 11.91554356 -1.95479822 8 7 1990 12.71600000 3175955372 3175955372 -8.84300000
6.41554928 16.44655037 -2.24706936 4 8 1991 17.79600000 3175955375 3175955375 -7.25400000
20.70368958 73.60640717 0.44440216 28 9 1991 76.46400000 3175955375 3175955375 0.33300000
20.72641563 53.10572433 -0.33132556 22 10 1992 57.00800000 3175955377 3175955377 -0.33300000
6.28080559 18.74959564 -2.12994599 1 11 1992 19.88800000 3175955377 3175955377 -6.14800000
8.76273060 19.56184387 -2.00089979 2 12 1993 21.52800000 3175955379 3175955379 -5.33300000
21.61002159 48.21946716 0.61516142 20 14 1994 52.84400000 3175955382 3175955382 0.66700000
8.33327007 24.84785652 -1.83264208 3 15 1994 26.27200000 3175955382 3175955382 -4.00000000
8.55762100 21.89269257 -1.91889977 3 16 1995 23.58400000 3175955384 3175955384 -4.66700000
29.73951149 76.08165741 1.42586160 28 18 1995 81.70000000 3175955386 3175955386 1.00000000
7.64219952 27.09719467 -1.80437005 4 19 1995 28.21200000 3175955386 3175955386 -3.66700000
11.35400581 25.31105423 -1.61556709 4 20 1996 27.78800000 3175955389 3175955389 -3.33300000
46.95463562 139.84576416 8.59108639 42 21 1996 147.76800000 3175955389 3175955389 3.33300000
29.74738121 76.02351379 3.32594776 28 22 1997 81.70400000 3175955391 3175955391 2.33300000
10.16578102 30.25940895 -1.48694861 3 23 1997 31.95600000 3175955391 3175955391 -2.66700000
11.07883549 28.29892921 -1.59268785 5 24 1998 30.43200000 3175955393 3175955393 -3.00000000
45.58353043 116.37524414 10.20310497 28 26 1999 125.40000000 3175955395 3175955395 4.66700000
9.67808056 34.22441101 -1.44901633 6 27 1999 35.59600000 3175955395 3175955395 -2.33300000
14.32873440 31.88287926 -1.22064483 6 28 2000 34.97600000 3175955398 3175955398 -2.00000000
13.78373337 40.93389893 -1.00506067 6 31 2001 43.20400000 3175955400 3175955400 -1.33300000
2.07616973 5.27606392 -2.64389992 15 0 2008 6.25600000 3175955421 3175955421 -25.00000000
13.29607582 46.73815155 -0.84818697 10 1 2008 48.60000000 3175955421 3175955421 -1.00000000
14.65906906 37.23327255 -1.16455221 8 2 2009 40.03200000 3175955423 3175955423 -1.66700000
2.84268022 8.40316582 -2.48332834 14 3 2009 9.21200000 3175955423 3175955423 -15.63900000
3.63984060 9.24027348 -1.98627591 8 4 2010 10.12800000 3175955425 3175955425 -11.31000000
20.83086777 61.54214478 0.00000000 22 5 2010 64.97200000 3175955425 3175955425 0.00000000
19.59004784 43.38714600 -0.55420870 13 6 2010 47.60800000 3175955428 3175955428 -0.66700000
4.03098822 11.90904140 -1.95602810 17 7 2010 12.72400000 3175955428 3175955428 -8.84300000
6.46418953 16.40190697 -2.24403882 4 8 2011 17.77200000 3175955430 3175955430 -7.25400000
20.90567398 73.34135437 0.44323978 28 9 2011 76.26400000 3175955430 3175955430 0.33300000
20.89552307 52.99211884 -0.33106986 22 10 2012 56.96400000 3175955432 3175955432 -0.33300000
6.34111023 18.71249199 -2.12823248 1 11 2012 19.87200000 3175955432 3175955432 -6.14800000
8.83096123 19.53113747 -2.00089979 2 12 2013 21.52800000 3175955435 3175955435 -5.33300000
30.81297684 90.87630463 2.23288918 28 13 2013 95.98400000 3175955435 3175955435 1.33300000
21.69907951 47.96881485 0.61292630 20 14 2014 52.65200000 3175955437 3175955437 0.66700000
8.41610909 24.80728149 -1.83180499 3 15 2014 26.26000000 3175955437 3175955437 -4.00000000
8.62373829 21.83673096 -1.91662157 3 16 2015 23.55600000 3175955439 3175955439 -4.66700000
42.01529312 123.70212555 7.60830498 42 21 2016 130.86400000 3175955444 3175955444 3.33300000
29.93322754 75.71850586 3.31715488 28 22 2017 81.48800000 3175955446 3175955446 2.33300000
10.25463009 30.17455864 -1.48452902 3 23 2017 31.90400000 3175955446 3175955446 -2.66700000
11.17167282 28.24522591 -1.59185040 5 24 2018 30.41600000 3175955448 3175955448 -3.00000000
9.73473263 33.97142410 -1.43973505 6 27 2019 35.36800000 3175955451 3175955451 -2.33300000
14.41021347 31.76713943 -1.21813202 6 28 2020 34.90400000 3175955453 3175955453 -2.00000000
13.91879940 40.86282349 -1.00450242 6 31 2021 43.18000000 3175955455 3175955455 -1.33300000
2.11373401 5.31968546 -2.66925693 10 0 2027 6.31600000 3175955476 3175955476 -25.00000000
13.41445923 46.56698227 -0.84588325 10 1 2027 48.46800000 3175955476 3175955476 -1.00000000
14.76325703 37.13615417 -1.16303957 8 2 2028 39.98000000 3175955478 3175955478 -1.66700000
2.75336599 8.05109310 -2.38196778 11 3 2028 8.83600000 3175955478 3175955478 -15.63900000
3.67336154 9.23544216 -1.98784482 12 4 2029 10.13600000 3175955481 3175955481 -11.31000000
20.90144730 61.08292007 0.00000000 22 5 2029 64.56000000 3175955481 3175955481 0.00000000
19.71392059 43.27826691 -0.55364990 13 6 2029 47.56000000 3175955483 3175955483 -0.66700000
4.06789827 11.88812923 -1.95479822 9 7 2029 12.71600000 3175955483 3175955483 -8.84300000
6.51267624 16.36563301 -2.24201870 4 8 2030 17.75600000 3175955485 3175955485 -7.25400000
21.00012970 72.75665283 0.44012460 28 9 2030 75.72800000 3175955485 3175955485 0.33300000
20.98975754 52.71814728 -0.32979122 22 10 2031 56.74400000 3175955488 3175955488 -0.33300000
6.40183926 18.68759918 -2.12780428 1 11 2031 19.86800000 3175955488 3175955488 -6.14800000
8.88410950 19.47638130 -1.99829745 2 12 2032 21.50000000 3175955490 3175955490 -5.33300000
21.75009346 47.66007996 0.60989964 19 14 2033 52.39200000 3175955492 3175955492 0.66700000
8.48797035 24.74904060 -1.82957280 3 15 2033 26.22800000 3175955492 3175955492 -4.00000000
8.69167328 21.79690552 -1.91564512 3 16 2034 23.54400000 3175955495 3175955495 -4.66700000
11.34684181 24.84090233 -1.59045100 12 20 2035 27.35600000 3175955499 3175955499 -3.33300000
42.40193176 123.49413300 7.60411882 42 21 2035 130.79200000 3175955499 3175955499 3.33300000
30.35898781 76.05683136 3.33636880 28 22 2036 81.96000000 3175955501 3175955501 2.33300000
10.33516312 30.08370399 -1.48173714 3 23 2036 31.84400000 3175955501 3175955501 -2.66700000
11.22527504 28.10786438 -1.58619821 5 24 2037 30.30800000 3175955504 3175955504 -3.00000000
46.44857407 116.24738312 10.21937752 28 26 2038 125.60000000 3175955506 3175955506 4.66700000
9.84733200 33.93895340 -1.43973505 6 27 2038 35.36800000 3175955506 3175955506 -2.33300000
14.48054504 31.64284325 -1.21520042 6 28 2039 34.82000000 3175955508 3175955508 -2.00000000
14.05422878 40.81644440 -1.00450242 6 31 2040 43.18000000 3175955511 3175955511 -1.33300000
2.12823915 5.30218172 -2.66418552 13 0 2047 6.30400000 3175955531 3175955531 -25.00000000
13.59261322 46.57362366 -0.84686059 10 1 2047 48.52400000 3175955531 3175955531 -1.00000000
14.84064579 36.95453644 -1.15896690 8 2 2048 39.84000000 3175955534 3175955534 -1.66700000
2.81670880 8.14336205 -2.41216040 16 3 2048 8.94800000 3175955534 3175955534 -15.63900000
3.70557690 9.22256279 -1.98784482 10 4 2049 10.13600000 3175955536 3175955536 -11.31000000
21.06875229 60.87728882 0.00000000 22 5 2049 64.42000000 3175955536 3175955536 0.00000000
19.80138206 43.07109451 -0.55188048 13 6 2049 47.40800000 3175955538 3175955538 -0.66700000
4.09515190 11.83277130 -1.94803429 5 7 2049 12.67200000 3175955538 3175955538 -8.84300000
6.56088305 16.32070923 -2.23898816 3 8 2050 17.73200000 3175955541 3175955541 -7.25400000
21.15854454 72.35658264 0.43814856 28 9 2050 75.38800000 3175955541 3175955541 0.33300000
21.10499191 52.47385025 -0.32872185 21 10 2051 56.56000000 3175955543 3175955543 -0.33300000
6.45531416 18.63131714 -2.12394857 4 11 2051 19.83200000 3175955543 3175955543 -6.14800000
8.95204067 19.44525146 -1.99829745 2 12 2052 21.50000000 3175955545 3175955545 -5.33300000
21.73226738 47.18424606 0.60477757 19 14 2053 51.95200000 3175955547 3175955547 0.66700000
8.56515598 24.69287109 -1.82761955 3 15 2053 26.20000000 3175955547 3175955547 -4.00000000
8.73195648 21.67768097 -1.90783417 3 16 2054 23.44800000 3175955550 3175955550 -4.66700000
49.39306641 168.47441101 5.10946131 28 17 2054 175.64000000 3175955550 3175955550 1.66700000
7.84557724 26.76041603 -1.78722954 4 19 2054 27.94400000 3175955552 3175955552 -3.66700000
11.41676521 24.76487732 -1.58812547 4 20 2055 27.31600000 3175955554 3175955554 -3.33300000
42.83012772 123.33782959 7.60365391 42 21 2055 130.78400000 3175955554 3175955554 3.33300000
30.63475418 75.97634888 3.33750844 28 22 2056 81.98800000 3175955557 3175955557 2.33300000
10.41126060 29.96440887 -1.47764242 3 23 2056 31.75600000 3175955557 3175955557 -2.66700000
11.30538845 28.02405548 -1.58368599 5 24 2057 30.26000000 3175955559 3175955559 -3.00000000
46.96598053 116.36180878 10.24378681 28 26 2058 125.90000000 3175955561 3175955561 4.66700000
9.91727638 33.73949051 -1.43273342 6 27 2058 35.19600000 3175955561 3175955561 -2.33300000
14.56409264 31.53403664 -1.21296692 6 28 2059 34.75600000 3175955564 3175955564 -2.00000000
14.14401436 40.61607742 -1.00078034 6 31 2060 43.02000000 3175955566 3175955566 -1.33300000
2.13447499 5.26448393 -2.64897132 17 0 2067 6.26800000 3175955587 3175955587 -25.00000000
13.75510216 46.52589035 -0.84686059 10 1 2067 48.52400000 3175955587 3175955587 -1.00000000
14.92897034 36.80246735 -1.15582514 8 2 2068 39.73200000 3175955589 3175955589 -1.66700000
2.83239889 8.09712124 -2.40137744 20 3 2068 8.90800000 3175955589 3175955589 -15.63900000
3.72889686 9.18776512 -1.98313808 16 4 2069 10.11200000 3175955591 3175955591 -11.31000000
21.20316315 60.58062363 0.00000000 22 5 2069 64.18400000 3175955591 3175955591 0.00000000
19.92804146 42.95091629 -0.55122858 13 6 2069 47.35200000 3175955594 3175955594 -0.66700000
4.03458691 11.52742100 -1.90007126 15 7 2069 12.36000000 3175955594 3175955594 -8.84300000
6.61333466 16.28667831 -2.23747301 3 8 2070 17.72000000 3175955596 3175955596 -7.25400000
21.32010460 71.97546387 0.43628874 28 9 2070 75.06800000 3175955596 3175955596 0.33300000
21.21426010 52.21827698 -0.32758272 21 10 2071 56.36400000 3175955598 3175955598 -0.33300000
6.49006271 18.52234650 -2.11409569 3 11 2071 19.74000000 3175955598 3175955598 -6.14800000
9.01315022 19.39943695 -1.99681032 2 12 2072 21.48400000 3175955600 3175955600 -5.33300000
8.65393925 24.67035484 -1.82817769 3 15 2073 26.20800000 3175955603 3175955603 -4.00000000
8.79855728 21.62491035 -1.90588140 3 16 2074 23.42400000 3175955605 3175955605 -4.66700000
30.74799156 75.57177734 1.42411637 28 18 2074 81.60000000 3175955607 3175955607 1.00000000
7.94916821 26.76730728 -1.78953195 4 19 2074 27.98000000 3175955607 3175955607 -3.66700000
11.56883526 24.86607742 -1.59719515 4 20 2075 27.47200000 3175955610 3175955610 -3.33300000
43.52634048 123.94487000 7.65039730 42 21 2075 131.58800000 3175955610 3175955610 3.33300000
30.98721123 76.08363342 3.34695268 28 22 2076 82.22000000 3175955612 3175955612 2.33300000
10.49989796 29.88264656 -1.47540891 3 23 2076 31.70800000 3175955612 3175955612 -2.66700000
11.38656139 27.94373131 -1.58138323 5 24 2077 30.21600000 3175955614 3175955614 -3.00000000
10.03156757 33.69317627 -1.43224502 6 27 2078 35.18400000 3175955617 3175955617 -2.33300000
14.66901112 31.47213554 -1.21254814 6 28 2079 34.74400000 3175955619 3175955619 -2.00000000
14.25605488 40.50482559 -0.99919838 6 31 2079 42.95200000 3175955621 3175955621 -1.33300000
2.15146470 5.25364637 -2.64728069 16 0 2087 6.26400000 3175955642 3175955642 -25.00000000
13.86006165 46.28602982 -0.84337008 10 1 2087 48.32400000 3175955642 3175955642 -1.00000000
15.01338291 36.64283752 -1.15245056 8 2 2088 39.61600000 3175955644 3175955644 -1.66700000
2.90817332 8.22154713 -2.44127440 42 3 2088 9.05600000 3175955644 3175955644 -15.63900000
3.75797009 9.16743469 -1.98156905 13 4 2089 10.10400000 3175955647 3175955647 -11.31000000
21.33709526 60.28753281 0.00000000 22 5 2089 63.95200000 3175955647 3175955647 0.00000000
20.02594566 42.75081635 -0.54959881 13 6 2090 47.21200000 3175955649 3175955649 -0.66700000
4.01348066 11.33372021 -1.87055564 6 7 2090 12.16800000 3175955649 3175955649 -8.84300000
6.66562843 16.25248146 -2.23595762 4 8 2090 17.70800000 3175955651 3175955651 -7.25400000
21.51374435 71.70904541 0.43512636 28 9 2090 74.86800000 3175955651 3175955651 0.33300000
21.34174347 52.01068878 -0.32674578 21 10 2091 56.22000000 3175955653 3175955653 -0.33300000
6.54538059 18.47333717 -2.11109710 3 11 2091 19.71200000 3175955653 3175955653 -6.14800000
9.05037975 19.30294800 -1.99011838 2 12 2092 21.41200000 3175955656 3175955656 -5.33300000
35.63788605 75.97515869 0.97696626 28 14 2093 83.92400000 3175955658 3175955658 0.66700000
8.69331455 24.50837135 -1.81841171 3 15 2093 26.06800000 3175955658 3175955658 -4.00000000
8.86944199 21.58300400 -1.90490508 3 16 2094 23.41200000 3175955660 3175955660 -4.66700000
31.13883018 75.73599243 1.42935205 28 18 2095 81.90000000 3175955663 3175955663 1.00000000
8.02881527 26.67683220 -1.78543866 4 19 2095 27.91600000 3175955663 3175955663 -3.66700000
11.70817280 24.93759727 -1.60440445 4 20 2095 27.59600000 3175955665 3175955665 -3.33300000
45.24820709 127.42350006 7.87481403 42 21 2095 135.44800000 3175955665 3175955665 3.33300000
31.20242882 75.85302734 3.34157920 28 22 2096 82.08800000 3175955667 3175955667 2.33300000
10.59477997 29.81945801 -1.47410595 3 23 2096 31.68000000 3175955667 3175955667 -2.66700000
47.77719116 116.03109741 10.24378681 28 26 2098 125.90000000 3175955672 3175955672 4.66700000
10.11219501 33.53550720 -1.42703438 6 27 2098 35.05600000 3175955672 3175955672 -2.33300000
14.73794556 31.33392334 -1.20919776 5 28 2099 34.64800000 3175955674 3175955674 -2.00000000
14.33836174 40.28904724 -0.99510407 6 31 2099 42.77600000 3175955677 3175955677 -1.33300000
2.20442915 5.32985449 -2.68954253 14 0 2107 6.36400000 3175955697 3175955697 -25.00000000
13.94030094 45.96945572 -0.83848339 10 1 2107 48.04400000 3175955697 3175955697 -1.00000000
2.99393082 8.37093067 -2.48871970 21 3 2108 9.23200000 3175955700 3175955700 -15.63900000
3.79444861 9.16513348 -1.98392248 13 4 2109 10.11600000 3175955702 3175955702 -11.31000000
21.44228554 59.91893005 0.00000000 22 5 2109 63.64000000 3175955702 3175955702 0.00000000
20.07762146 42.47453690 -0.54694468 13 6 2110 46.98400000 3175955704 3175955704 -0.66700000
4.02770376 11.24894047 -1.85887229 5 7 2110 12.09200000 3175955704 3175955704 -8.84300000
6.71320868 16.20711899 -2.23292732 4 8 2110 17.68400000 3175955706 3175955706 -7.25400000
21.61159897 71.13214874 0.43208092 28 9 2110 74.34400000 3175955706 3175955706 0.33300000
21.37462234 51.57744217 -0.32449076 20 10 2111 55.83200000 3175955709 3175955709 -0.33300000
6.60311842 18.43165779 -2.10895514 3 11 2111 19.69200000 3175955709 3175955709 -6.14800000
9.10918808 19.25323868 -1.98825955 2 12 2112 21.39200000 3175955711 3175955711 -5.33300000
8.77342319 24.46285248 -1.81729567 3 15 2113 26.05200000 3175955713 3175955713 -4.00000000
8.93402958 21.52613640 -1.90262687 3 16 2114 23.38400000 3175955716 3175955716 -4.66700000
42.24401474 101.78502655 1.92360425 28 18 2114 110.22000000 3175955718 3175955718 1.00000000
8.11723423 26.65006065 -1.78543866 4 19 2114 27.91600000 3175955718 3175955718 -3.66700000
11.80198860 24.91101265 -1.60533464 4 20 2115 27.61200000 3175955720 3175955720 -3.33300000
45.60366440 127.01672363 7.85946560 42 21 2115 135.18400000 3175955720 3175955720 3.33300000
41.62226486 100.18815613 4.41999674 28 22 2116 108.58000000 3175955723 3175955723 2.33300000
10.68124294 29.73340797 -1.47168636 3 23 2116 31.62800000 3175955723 3175955723 -2.66700000
48.43909836 116.48204803 10.29846382 28 26 2118 126.57200000 3175955727 3175955727 4.66700000
10.25020313 33.56880951 -1.42996538 6 27 2118 35.12800000 3175955727 3175955727 -2.33300000
14.82152081 31.22811508 -1.20710385 5 28 2119 34.58800000 3175955730 3175955730 -2.00000000
14.47349358 40.22370148 -0.99473190 6 31 2119 42.76000000 3175955732 3175955732 -1.33300000
2.21743155 5.30874634 -2.68278074 14 0 2127 6.34800000 3175955752 3175955752 -25.00000000
14.08659172 45.87463760 -0.83764571 10 1 2127 47.99600000 3175955752 3175955752 -1.00000000
15.12391281 36.19035721 -1.14151251 24 2 2128 39.24000000 3175955754 3175955754 -1.66700000
3.01527357 8.33869457 -2.48224998 18 3 2128 9.20800000 3175955754 3175955754 -15.63900000
3.84003496 9.18440151 -1.99098277 13 4 2129 10.15200000 3175955757 3175955757 -11.31000000
21.51658440 59.47134018 0.00000000 22 5 2129 63.24400000 3175955757 3175955757 0.00000000
20.21319771 42.39689255 -0.54680496 12 6 2129 46.97200000 3175955759 3175955759 -0.66700000
5.15417957 14.24603271 -2.35694933 2 7 2129 15.33200000 3175955759 3175955759 -8.84300000
6.76055336 16.16162300 -2.22989678 4 8 2130 17.66000000 3175955761 3175955761 -7.25400000
21.63159370 70.31459045 0.42757088 28 9 2130 73.56800000 3175955761 3175955761 0.33300000
21.39701843 51.12615204 -0.32211950 19 10 2131 55.42400000 3175955764 3175955764 -0.33300000
6.65793610 18.38232040 -2.10595632 3 11 2131 19.66400000 3175955764 3175955764 -6.14800000
9.17119122 19.21054077 -1.98714423 2 12 2132 21.38000000 3175955766 3175955766 -5.33300000
29.00954437 80.05066681 1.98127508 28 13 2132 85.16800000 3175955766 3175955766 1.33300000
