# .PCD v0.7 - Point Cloud Data file format
VERSION 0.7
FIELDS x y z intensity laser_id azimuth distance_m adjustedtime timestamp vertical_angle
SIZE 4 4 4 1 1 2 8 8 4 8
TYPE F F F U U U F U U F
COUNT 1 1 1 1 1 1 1 1 1 1
WIDTH 522
HEIGHT 1
VIEWPOINT 0 0 0 1 0 0 0
POINTS 522
DATA ascii
20.88777733 16.74624062 -0.46730563 24 1 5548 26.77600000 3180565227 3180565227 -1.00000000
20.82120323 13.57835007 -0.72342342 20 2 5549 24.86800000 3180565229 3180565229 -1.66700000
7.24109983 5.24360847 -2.50273776 5 3 5549 9.28400000 3180565229 3180565229 -15.63900000
9.73583221 6.34670925 -2.32438207 2 4 5550 11.85200000 3180565232 3180565232 -11.31000000
40.54744339 29.35145378 0.00000000 28 5 5550 50.05600000 3180565232 3180565232 0.00000000
39.41708374 23.02425575 -0.53143871 12 6 5551 45.65200000 3180565234 3180565234 -0.66700000
11.07911396 8.01699448 -2.12758780 2 7 5551 13.84000000 3180565234 3180565234 -8.84300000
13.31435490 8.67620754 -2.02281690 2 8 5551 16.02000000 3180565236 3180565236 -7.25400000
40.01602554 32.04741669 0.29796520 25 9 5551 51.26800000 3180565236 3180565236 0.33300000
40.24242783 26.21369553 -0.27913460 27 10 5552 48.02800000 3180565238 3180565238 -0.33300000
14.12675953 10.21855545 -1.87805378 4 11 5552 17.53600000 3180565238 3180565238 -6.14800000
16.63431358 9.70862770 -1.79791009 2 12 5553 19.34400000 3180565241 3180565241 -5.33300000
40.04631042 28.95675087 1.14994359 18 13 5553 49.43200000 3180565241 3180565241 1.33300000
39.94043732 23.30191612 0.53833026 27 14 5554 46.24400000 3180565243 3180565243 0.66700000
18.18102074 13.14153099 -1.56868362 4 15 5554 22.48800000 3180565243 3180565243 -4.00000000
17.32652473 11.27348614 -1.68749917 2 16 5555 20.74000000 3180565245 3180565245 -4.66700000
39.71922684 31.76423264 1.48012638 36 17 5555 50.88000000 3180565245 3180565245 1.66700000
40.54024124 26.36739731 0.84413797 39 18 5556 48.36800000 3180565248 3180565248 1.00000000
18.33661842 14.65890121 -1.50453711 2 19 5556 23.52400000 3180565248 3180565248 -3.66700000
20.79223633 12.12081146 -1.40161550 7 20 5556 24.10800000 3180565250 3180565250 -3.33300000
39.86856842 28.79645157 2.86416078 27 21 5556 49.26400000 3180565250 3180565250 3.33300000
40.11196518 26.07888412 1.94922745 20 22 5557 47.88400000 3180565252 3180565252 2.33300000
20.78474045 15.00697803 -1.19417477 6 23 5557 25.66400000 3180565252 3180565252 -2.66700000
20.75911713 13.49143314 -1.29751301 12 24 5558 24.79200000 3180565255 3180565255 -3.00000000
44.59321976 32.18531418 6.75253677 40 25 5558 55.40800000 3180565255 3180565255 7.00000000
43.03342056 27.95690918 4.18929386 29 26 5559 51.48800000 3180565257 3180565257 4.66700000
20.79642677 16.60751343 -1.08427918 17 27 5559 26.63600000 3180565257 3180565257 -2.33300000
20.77141953 12.08925438 -0.83926308 15 28 5560 24.04800000 3180565259 3180565259 -2.00000000
20.88410568 15.06209278 -0.59916544 22 31 5560 25.75600000 3180565262 3180565262 -1.33300000
4.01997280 2.60262799 -2.23311496 8 0 5568 5.28400000 3180565282 3180565282 -25.00000000
20.88665390 16.62590027 -0.46597925 23 1 5568 26.70000000 3180565282 3180565282 -1.00000000
20.81812286 13.47300243 -0.72167796 20 2 5569 24.80800000 3180565285 3180565285 -1.66700000
7.25623178 5.21605206 -2.50165939 3 3 5569 9.28000000 3180565285 3180565285 -15.63900000
9.76780701 6.31907797 -2.32673550 2 4 5570 11.86400000 3180565287 3180565287 -11.31000000
40.58793640 29.16539001 0.00000000 18 5 5570 49.98000000 3180565287 3180565287 0.00000000
39.50067139 22.88852882 -0.53148532 12 6 5571 45.65600000 3180565289 3180565289 -0.66700000
11.10061073 7.97366047 -2.12635803 3 7 5571 13.83200000 3180565289 3180565289 -8.84300000
13.38787460 8.65769005 -2.02938294 2 8 5571 16.07200000 3180565291 3180565291 -7.25400000
40.00241470 31.80795860 0.29703528 24 9 5571 51.10800000 3180565291 3180565291 0.33300000
40.23962784 26.01226234 -0.27848366 26 10 5572 47.91600000 3180565294 3180565294 -0.33300000
14.16557312 10.17150116 -1.87848222 4 11 5572 17.54000000 3180565294 3180565294 -6.14800000
16.66810226 9.65050411 -1.79791009 2 12 5573 19.34400000 3180565296 3180565296 -5.33300000
40.03343964 28.73517227 1.14668667 18 13 5573 49.29200000 3180565296 3180565296 1.33300000
40.31924438 23.33465576 0.54233479 28 14 5574 46.58800000 3180565298 3180565298 0.66700000
18.23002625 13.08031368 -1.56896257 4 15 5574 22.49200000 3180565298 3180565298 -4.00000000
17.36911964 11.21509933 -1.68782461 2 16 5575 20.74400000 3180565301 3180565301 -4.66700000
39.82046890 31.61793518 1.47977734 24 17 5575 50.86800000 3180565301 3180565301 1.66700000
40.47290421 26.13302231 0.84092677 26 18 5575 48.18400000 3180565303 3180565303 1.00000000
18.37262344 14.58808517 -1.50351381 2 19 5575 23.50800000 3180565303 3180565303 -3.66700000
20.81713486 12.03816319 -1.40045273 11 20 5576 24.08800000 3180565305 3180565305 -3.33300000
39.82280731 28.55240059 2.85369563 27 21 5576 49.08400000 3180565305 3180565305 3.33300000
39.98781967 25.80003357 1.93880641 30 22 5577 47.62800000 3180565308 3180565308 2.33300000
20.78178787 14.89476395 -1.19101059 19 23 5577 25.59600000 3180565308 3180565308 -2.66700000
20.74230385 13.37775230 -1.29353547 17 24 5578 24.71600000 3180565310 3180565310 -3.00000000
44.16955566 31.64562225 6.67161512 37 25 5578 54.74400000 3180565310 3180565310 7.00000000
43.24802017 27.88213158 4.20068502 29 26 5579 51.62800000 3180565312 3180565312 4.66700000
20.81042671 16.50005531 -1.08199954 17 27 5579 26.58000000 3180565312 3180565312 -2.33300000
20.76848602 11.99069118 -0.83744830 12 28 5580 23.99600000 3180565315 3180565315 -2.00000000
20.87477684 14.94487190 -0.59739745 22 31 5580 25.68000000 3180565317 3180565317 -1.33300000
4.01943254 2.58340263 -2.22804356 7 0 5587 5.27200000 3180565338 3180565338 -25.00000000
20.88520050 16.51189995 -0.46472269 23 1 5587 26.62800000 3180565338 3180565338 -1.00000000
20.81895638 13.37579727 -0.72016525 19 2 5588 24.75600000 3180565340 3180565340 -1.66700000
7.26721859 5.18748522 -2.49950266 5 3 5588 9.27200000 3180565340 3180565340 -15.63900000
9.77880764 6.28029299 -2.32438207 2 4 5589 11.85200000 3180565343 3180565343 -11.31000000
40.54116058 28.92840576 0.00000000 27 5 5589 49.80400000 3180565343 3180565343 0.00000000
39.57585144 22.76631546 -0.53153187 12 6 5589 45.66000000 3180565345 3180565345 -0.66700000
11.12560558 7.93874788 -2.12635803 3 7 5589 13.83200000 3180565345 3180565345 -8.84300000
13.41651058 8.61324692 -2.02938294 2 8 5590 16.07200000 3180565347 3180565347 -7.25400000
39.89735794 31.50903320 0.29547769 35 9 5590 50.84000000 3180565347 3180565347 0.33300000
40.23477554 25.82035065 -0.27785596 26 10 5591 47.80800000 3180565350 3180565350 -0.33300000
14.19274902 10.11985302 -1.87762547 2 11 5591 17.53200000 3180565350 3180565350 -6.14800000
16.70691872 9.59914589 -1.79865360 2 12 5592 19.35200000 3180565352 3180565352 -5.33300000
40.24248123 28.68349457 1.14994359 18 13 5592 49.43200000 3180565352 3180565352 1.33300000
40.15361404 23.06138420 0.53907526 41 14 5593 46.30800000 3180565354 3180565354 0.66700000
18.26030159 13.01052666 -1.56784654 4 15 5593 22.47600000 3180565354 3180565354 -4.00000000
17.40285873 11.15528774 -1.68749917 2 16 5594 20.74000000 3180565356 3180565356 -4.66700000
39.47929001 31.13413811 1.46325386 22 17 5594 50.30000000 3180565356 3180565356 1.66700000
40.39772415 25.89506721 0.83757591 25 18 5594 47.99200000 3180565359 3180565359 1.00000000
18.41776276 14.52460670 -1.50325799 5 19 5594 23.50400000 3180565359 3180565359 -3.66700000
20.81191444 11.94322681 -1.39742947 11 20 5595 24.03600000 3180565361 3180565361 -3.33300000
39.88473892 28.39702606 2.85137010 26 21 5595 49.04400000 3180565361 3180565361 3.33300000
39.94863129 25.58752823 1.93278170 30 22 5596 47.48000000 3180565363 3180565363 2.33300000
20.77572632 14.78637981 -1.18784654 14 23 5596 25.52800000 3180565363 3180565363 -2.66700000
20.74618340 13.28304863 -1.29102337 12 24 5597 24.66800000 3180565366 3180565366 -3.00000000
43.78900146 31.15374565 6.59849358 35 25 5597 54.14400000 3180565366 3180565366 7.00000000
42.55449677 27.23567200 4.12452793 26 26 5598 50.69200000 3180565368 3180565368 4.66700000
20.79594994 16.37655640 -1.07841730 17 27 5598 26.49200000 3180565368 3180565368 -2.33300000
20.77691650 11.90386868 -0.83619195 12 28 5599 23.96000000 3180565370 3180565370 -2.00000000
20.87207413 14.83849430 -0.59590858 22 31 5599 25.61600000 3180565373 3180565373 -1.33300000
4.00747633 2.55501103 -2.21621013 6 0 5608 5.24400000 3180565393 3180565393 -25.00000000
20.88265038 16.38586426 -0.46332648 23 1 5608 26.54800000 3180565393 3180565393 -1.00000000
20.82400894 13.27146626 -0.71865255 19 2 5609 24.70400000 3180565396 3180565396 -1.66700000
7.28303957 5.15858793 -2.49842453 6 3 5609 9.26800000 3180565396 3180565396 -15.63900000
9.78852749 6.23598003 -2.32124424 2 4 5610 11.83600000 3180565398 3180565398 -11.31000000
40.52286530 28.69178581 0.00000000 18 5 5610 49.65200000 3180565398 3180565398 0.00000000
39.65208054 22.61714745 -0.53143871 24 6 5610 45.65200000 3180565400 3180565400 -0.66700000
11.15785408 7.90020084 -2.12697291 2 7 5610 13.83600000 3180565400 3180565400 -8.84300000
13.45133686 8.56614685 -2.02988791 2 8 5611 16.07600000 3180565403 3180565403 -7.25400000
40.10387039 31.43415070 0.29615188 24 9 5611 50.95600000 3180565403 3180565403 0.33300000
40.40000153 25.71781731 -0.27834418 26 10 5612 47.89200000 3180565405 3180565405 -0.33300000
14.22325134 10.06317139 -1.87676871 4 11 5612 17.52400000 3180565405 3180565405 -6.14800000
16.73160744 9.53193283 -1.79753828 2 12 5613 19.34000000 3180565407 3180565407 -5.33300000
40.14492035 28.39264107 1.14417434 18 13 5613 49.18400000 3180565407 3180565407 1.33300000
40.32476044 22.96354103 0.54023939 27 14 5614 46.40800000 3180565409 3180565409 0.66700000
18.29808998 12.93660164 -1.56700945 4 15 5614 22.46400000 3180565409 3180565409 -4.00000000
17.45708466 11.09998512 -1.68880105 2 16 5615 20.75600000 3180565412 3180565412 -4.66700000
39.59628677 30.99169350 1.46337020 33 17 5615 50.30400000 3180565412 3180565412 1.66700000
40.44848633 25.71893120 0.83666837 25 18 5615 47.94000000 3180565414 3180565414 1.00000000
18.34828186 14.36105156 -1.49328065 5 19 5615 23.34800000 3180565414 3180565414 -3.66700000
20.70630836 11.78194904 -1.38742959 7 20 5616 23.86400000 3180565416 3180565416 -3.33300000
39.83200455 28.14005470 2.84020734 26 21 5616 48.85200000 3180565416 3180565416 3.33300000
39.99829102 25.41307449 1.93066490 30 22 5617 47.42800000 3180565419 3180565419 2.33300000
20.76776886 14.66633987 -1.18431020 19 23 5617 25.45200000 3180565419 3180565419 -2.66700000
20.75089264 13.17908001 -1.28830194 21 24 5618 24.61600000 3180565421 3180565421 -3.00000000
42.65403748 27.07951927 4.12452793 26 26 5619 50.69200000 3180565423 3180565423 4.66700000
20.79600143 16.25346375 -1.07532346 20 27 5619 26.41600000 3180565423 3180565423 -2.33300000
20.78217316 11.80591774 -0.83465636 12 28 5620 23.91600000 3180565426 3180565426 -2.00000000
20.88383865 14.73192787 -0.59469891 24 31 5620 25.56400000 3180565428 3180565428 -1.33300000
3.97698283 2.51511598 -2.19423413 4 0 5629 5.19200000 3180565449 3180565449 -25.00000000
20.88577080 16.26498413 -0.46206990 16 1 5629 26.47600000 3180565449 3180565449 -1.00000000
20.82181740 13.16300583 -0.71690714 19 2 5630 24.64400000 3180565451 3180565451 -1.66700000
7.30504942 5.13407469 -2.49950266 4 3 5630 9.27200000 3180565451 3180565451 -15.63900000
9.82458115 6.20844269 -2.32438207 2 4 5631 11.85200000 3180565453 3180565453 -11.31000000
40.50010681 28.45339203 0.00000000 18 5 5631 49.49600000 3180565453 3180565453 0.00000000
39.70337296 22.45394135 -0.53101963 12 6 5631 45.61600000 3180565456 3180565456 -0.66700000
11.17703247 7.85243607 -2.12512827 2 7 5631 13.82400000 3180565456 3180565456 -8.84300000
13.46922398 8.50831127 -2.02786779 2 8 5632 16.06000000 3180565458 3180565458 -7.25400000
40.05148315 31.15678215 0.29491976 35 9 5632 50.74400000 3180565458 3180565458 0.33300000
40.47369766 25.55675697 -0.27820468 26 10 5633 47.86800000 3180565460 3180565460 -0.33300000
14.25352955 10.00640297 -1.87591195 4 11 5633 17.51600000 3180565460 3180565460 -6.14800000
16.74909401 9.46075153 -1.79567945 2 12 5634 19.32000000 3180565462 3180565462 -5.33300000
40.10796356 28.14653778 1.14017308 18 13 5634 49.01200000 3180565462 3180565462 1.33300000
40.42258835 22.82345581 0.54042566 27 14 5635 46.42400000 3180565465 3180565465 0.66700000
18.34538269 12.86944866 -1.56700945 4 15 5635 22.46400000 3180565465 3180565465 -4.00000000
17.48416328 11.02741909 -1.68749917 2 16 5636 20.74000000 3180565467 3180565467 -4.66700000
39.62119675 30.77767944 1.46011209 21 17 5636 50.19200000 3180565467 3180565467 1.66700000
40.00902176 25.22429276 0.82556862 25 18 5637 47.30400000 3180565469 3180565469 1.00000000
18.34023094 14.24152851 -1.48816407 11 19 5637 23.26800000 3180565469 3180565469 -3.66700000
20.69718361 11.67654514 -1.38394129 7 20 5637 23.80400000 3180565472 3180565472 -3.33300000
39.98065186 28.02596283 2.84346318 26 21 5637 48.90800000 3180565472 3180565472 3.33300000
39.73275757 25.04042625 1.91340506 30 22 5638 47.00400000 3180565474 3180565474 2.33300000
20.78538895 14.56490135 -1.18226278 21 23 5638 25.40800000 3180565474 3180565474 -2.66700000
20.75850105 13.07738590 -1.28578973 25 24 5639 24.56800000 3180565476 3180565476 -3.00000000
44.08218002 27.76003075 4.25275850 15 26 5640 52.26800000 3180565479 3180565479 4.66700000
20.79858971 16.13303947 -1.07239258 20 27 5640 26.34400000 3180565479 3180565479 -2.33300000
20.77305794 11.70024014 -0.83256239 12 28 5641 23.85600000 3180565481 3180565481 -2.00000000
20.87872314 14.61400986 -0.59302396 24 31 5641 25.49200000 3180565483 3180565483 -1.33300000
3.94538713 2.47685623 -2.17225790 4 0 5648 5.14000000 3180565504 3180565504 -25.00000000
20.88264847 16.15159035 -0.46081334 16 1 5648 26.40400000 3180565504 3180565504 -1.00000000
20.81455231 13.06200695 -0.71516168 19 2 5649 24.58400000 3180565506 3180565506 -1.66700000
7.32519341 5.11202669 -2.50058103 5 3 5649 9.27600000 3180565506 3180565506 -15.63900000
9.83514690 6.16957617 -2.32202864 2 4 5650 11.84000000 3180565508 3180565508 -11.31000000
40.40396118 28.18619347 0.00000000 18 5 5650 49.26400000 3180565508 3180565508 0.00000000
39.63848877 22.23498535 -0.52911049 24 6 5651 45.45200000 3180565511 3180565511 -0.66700000
11.19789028 7.80885124 -2.12389851 3 7 5651 13.81600000 3180565511 3180565511 -8.84300000
13.49736500 8.46359825 -2.02786779 4 8 5651 16.06000000 3180565513 3180565513 -7.25400000
40.16724396 31.03357887 0.29501274 23 9 5651 50.76000000 3180565513 3180565513 0.33300000
40.47688293 25.37141609 -0.27764675 17 10 5652 47.77200000 3180565515 3180565515 -0.33300000
14.28989601 9.96135616 -1.87634027 4 11 5652 17.52000000 3180565515 3180565515 -6.14800000
16.77689934 9.40320969 -1.79530764 2 12 5653 19.31600000 3180565518 3180565518 -5.33300000
40.10264969 27.94479179 1.13738143 27 13 5653 48.89200000 3180565518 3180565518 1.33300000
40.18400574 22.51333809 0.53623486 40 14 5654 46.06400000 3180565520 3180565520 0.66700000
18.40432930 12.81994629 -1.56840456 4 15 5654 22.48400000 3180565520 3180565520 -4.00000000
17.51049805 10.96303272 -1.68652284 2 16 5655 20.72800000 3180565522 3180565522 -4.66700000
39.75153351 30.66810226 1.46115935 22 17 5655 50.22800000 3180565522 3180565522 1.66700000
40.04400253 25.07088661 0.82466114 25 18 5655 47.25200000 3180565525 3180565525 1.00000000
18.33431244 14.14482689 -1.48407078 31 19 5655 23.20400000 3180565525 3180565525 -3.66700000
20.70094681 11.58834171 -1.38161564 7 20 5656 23.76400000 3180565527 3180565527 -3.33300000
39.99143219 27.83619690 2.83764935 26 21 5656 48.80800000 3180565527 3180565527 3.33300000
39.80879974 24.90429115 1.91307938 30 22 5657 46.99600000 3180565529 3180565529 2.33300000
20.77781487 14.45709896 -1.17909873 23 23 5657 25.34000000 3180565529 3180565529 -2.66700000
20.75094986 12.97670650 -1.28264964 25 24 5658 24.50800000 3180565532 3180565532 -3.00000000
43.71729660 30.40695000 6.53853416 34 25 5658 53.65200000 3180565532 3180565532 7.00000000
43.63648224 27.27769089 4.20101070 14 26 5659 51.63200000 3180565534 3180565534 4.66700000
20.78865242 16.01519775 -1.06913602 23 27 5659 26.26400000 3180565534 3180565534 -2.33300000
20.76288986 11.60398674 -0.83060801 15 28 5660 23.80000000 3180565536 3180565536 -2.00000000
20.87377930 14.50225258 -0.59144205 22 31 5661 25.42400000 3180565538 3180565538 -1.33300000
3.94477773 2.45731878 -2.16718650 2 0 5668 5.12800000 3180565559 3180565559 -25.00000000
20.87228584 16.02744675 -0.45934734 20 1 5668 26.32000000 3180565559 3180565559 -1.00000000
20.81929207 12.96390915 -0.71376532 19 2 5669 24.53600000 3180565561 3180565561 -1.66700000
7.33349371 5.07984543 -2.49734616 3 3 5669 9.26400000 3180565561 3180565561 -15.63900000
9.85329247 6.13313484 -2.32124424 2 4 5670 11.83600000 3180565564 3180565564 -11.31000000
40.60404968 28.11557770 0.00000000 18 5 5670 49.38800000 3180565564 3180565564 0.00000000
39.70886993 22.09259796 -0.52901739 12 6 5671 45.44400000 3180565566 3180565566 -0.66700000
11.22832966 7.77196550 -2.12451339 4 7 5671 13.82000000 3180565566 3180565566 -8.84300000
13.49313545 8.39546967 -2.02281690 2 8 5671 16.02000000 3180565568 3180565568 -7.25400000
40.35467148 30.95404053 0.29559392 23 9 5671 50.86000000 3180565568 3180565568 0.33300000
40.49387360 25.18560791 -0.27715853 17 10 5672 47.68800000 3180565571 3180565571 -0.33300000
14.31476974 9.90462589 -1.87505507 4 11 5672 17.50800000 3180565571 3180565571 -6.14800000
16.80962181 9.34459019 -1.79530764 2 12 5673 19.31600000 3180565573 3180565573 -5.33300000
40.05852890 27.70682144 1.13338017 18 13 5673 48.72000000 3180565573 3180565573 1.33300000
40.21339798 22.34573364 0.53558296 27 14 5674 46.00800000 3180565575 3180565575 0.66700000
18.41942787 12.73520088 -1.56589329 4 15 5674 22.44800000 3180565575 3180565575 -4.00000000
17.56559181 10.91236210 -1.68815005 2 16 5675 20.74800000 3180565578 3180565578 -4.66700000
39.75359726 30.44892502 1.45731938 32 17 5675 50.09600000 3180565578 3180565578 1.66700000
40.25696945 25.00904083 0.82724404 25 18 5675 47.40000000 3180565580 3180565580 1.00000000
18.36773109 14.06860542 -1.48279154 28 19 5675 23.18400000 3180565580 3180565580 -3.66700000
20.70286751 11.49468899 -1.37905753 7 20 5676 23.72000000 3180565582 3180565582 -3.33300000
39.96679688 27.61244774 2.82904482 26 21 5676 48.66000000 3180565582 3180565582 3.33300000
39.92265320 24.78204346 1.91438198 30 22 5677 47.02800000 3180565585 3180565585 2.33300000
20.77226067 14.34588146 -1.17593455 23 23 5677 25.27200000 3180565585 3180565585 -2.66700000
20.74860191 12.87470818 -1.27971876 25 24 5678 24.45200000 3180565587 3180565587 -3.00000000
43.70228195 30.17070580 6.52049732 33 25 5678 53.50400000 3180565587 3180565587 7.00000000
20.79363632 15.90368652 -1.06653070 23 27 5679 26.20000000 3180565589 3180565589 -2.33300000
20.77180099 11.51399708 -0.82935166 18 28 5680 23.76400000 3180565591 3180565591 -2.00000000
20.87567329 14.40116215 -0.59013933 24 31 5680 25.36800000 3180565594 3180565594 -1.33300000
4.93703842 3.05155849 -2.70644736 6 0 5688 6.40400000 3180565614 3180565614 -25.00000000
20.87721634 15.91569710 -0.45823038 16 1 5688 26.25600000 3180565614 3180565614 -1.00000000
20.82019806 12.86383724 -0.71225262 19 2 5689 24.48400000 3180565617 3180565617 -1.66700000
7.34483290 5.04985142 -2.49518967 11 3 5689 9.25600000 3180565617 3180565617 -15.63900000
9.87464142 6.09870291 -2.32124424 2 4 5690 11.83600000 3180565619 3180565619 -11.31000000
40.54700851 27.86718750 0.00000000 18 5 5690 49.20000000 3180565619 3180565619 0.00000000
39.76090622 21.94919777 -0.52873802 12 6 5690 45.42000000 3180565621 3180565621 -0.66700000
11.25729847 7.73692703 -2.12512827 2 7 5690 13.82400000 3180565621 3180565621 -8.84300000
13.51898193 8.34623432 -2.02231193 2 8 5691 16.01600000 3180565624 3180565624 -7.25400000
40.39564896 30.76209831 0.29510573 23 9 5691 50.77600000 3180565624 3180565624 0.33300000
40.51005554 24.99999046 -0.27667034 17 10 5692 47.60400000 3180565626 3180565626 -0.33300000
14.34597778 9.85234547 -1.87462676 4 11 5692 17.50400000 3180565626 3180565626 -6.14800000
16.84562492 9.28777981 -1.79567945 2 12 5693 19.32000000 3180565628 3180565628 -5.33300000
40.05939484 27.50118637 1.13068163 18 13 5693 48.60400000 3180565628 3180565628 1.33300000
40.52935791 22.33650398 0.53874934 27 14 5694 46.28000000 3180565631 3180565631 0.66700000
18.46706009 12.67308521 -1.56617236 4 15 5694 22.45200000 3180565631 3180565631 -4.00000000
17.60018158 10.84888744 -1.68782461 2 16 5695 20.74400000 3180565633 3180565633 -4.66700000
39.87873459 30.32449532 1.45801759 32 17 5695 50.12000000 3180565633 3180565633 1.66700000
40.15677261 24.75294304 0.82340455 25 18 5695 47.18000000 3180565635 3180565635 1.00000000
18.39448547 13.98749161 -1.48100078 8 19 5695 23.15600000 3180565635 3180565635 -3.66700000
20.70088959 11.39923763 -1.37626696 7 20 5696 23.67200000 3180565638 3180565638 -3.33300000
39.94108582 27.38920975 2.82044029 26 21 5696 48.51200000 3180565638 3180565638 3.33300000
39.87279510 24.55869675 1.90786886 20 22 5697 46.86800000 3180565640 3180565640 2.33300000
20.77936745 14.24391651 -1.17351496 23 23 5697 25.22000000 3180565640 3180565640 -2.66700000
20.74579620 12.77288342 -1.27678800 24 24 5698 24.39600000 3180565642 3180565642 -3.00000000
43.35537338 29.70827866 6.45322561 31 25 5698 52.95200000 3180565642 3180565642 7.00000000
43.53046417 26.79059410 4.17269564 28 26 5699 51.28400000 3180565644 3180565644 4.66700000
20.80127716 15.79475212 -1.06408834 23 27 5699 26.14000000 3180565644 3180565644 -2.33300000
20.76982880 11.41831017 -0.82767648 18 28 5700 23.71600000 3180565647 3180565647 -2.00000000
20.87551498 14.28841305 -0.58865052 24 31 5701 25.30400000 3180565649 3180565649 -1.33300000
5.00893116 3.07308578 -2.74025679 7 0 5707 6.48400000 3180565670 3180565670 -25.00000000
20.87248611 15.80292320 -0.45697382 16 1 5707 26.18400000 3180565670 3180565670 -1.00000000
20.81502342 12.76546001 -0.71062356 19 2 5708 24.42800000 3180565672 3180565672 -1.66700000
7.36471939 5.02763891 -2.49626780 47 3 5708 9.26000000 3180565672 3180565672 -15.63900000
9.89815521 6.06797361 -2.32202864 2 4 5709 11.84000000 3180565674 3180565674 -11.31000000
40.58963776 27.69875526 0.00000000 18 5 5709 49.14000000 3180565674 3180565674 0.00000000
39.81943893 21.80953979 -0.52855176 12 6 5709 45.40400000 3180565677 3180565677 -0.66700000
11.28289318 7.69955397 -2.12512827 2 7 5709 13.82400000 3180565677 3180565677 -8.84300000
13.54996872 8.30343151 -2.02281690 2 8 5710 16.02000000 3180565679 3180565679 -7.25400000
40.51020050 30.63762283 0.29519871 35 9 5710 50.79200000 3180565679 3180565679 0.33300000
40.51769638 24.81955147 -0.27615890 17 10 5711 47.51600000 3180565681 3180565681 -0.33300000
14.37528419 9.80247784 -1.87419832 4 11 5711 17.50000000 3180565681 3180565681 -6.14800000
16.88331985 9.23568916 -1.79642296 2 12 5712 19.32800000 3180565684 3180565684 -5.33300000
40.18011093 27.38846588 1.13151908 18 13 5712 48.64000000 3180565684 3180565684 1.33300000
40.60671234 22.20389938 0.53879589 27 14 5713 46.28400000 3180565686 3180565686 0.66700000
18.37708282 12.52190113 -1.55501127 6 15 5713 22.29200000 3180565686 3180565686 -4.00000000
17.64286232 10.79462528 -1.68847549 2 16 5714 20.75200000 3180565688 3180565688 -4.66700000
40.03969955 30.23786736 1.46022844 21 17 5714 50.19600000 3180565688 3180565688 1.66700000
40.33756638 24.68017387 0.82542902 25 18 5714 47.29600000 3180565691 3180565691 1.00000000
20.70353508 11.31138229 -1.37394130 7 20 5715 23.63200000 3180565693 3180565693 -3.33300000
39.87985992 27.15322876 2.80974269 25 21 5715 48.32800000 3180565693 3180565693 3.33300000
39.82785034 24.34920502 1.90184414 29 22 5716 46.72000000 3180565695 3180565695 2.33300000
20.76703072 14.13446331 -1.17016470 23 23 5716 25.14800000 3180565695 3180565695 -2.66700000
20.74372864 12.67693901 -1.27406657 24 24 5717 24.34400000 3180565697 3180565697 -3.00000000
43.85083389 29.83457184 6.51221037 33 25 5717 53.43600000 3180565697 3180565697 7.00000000
43.24482727 26.41748047 4.13689518 26 26 5718 50.84400000 3180565700 3180565700 4.66700000
20.78652763 15.67515182 -1.06066895 23 27 5718 26.05600000 3180565700 3180565700 -2.33300000
20.77248573 11.33022976 -0.82628047 17 28 5719 23.67600000 3180565702 3180565702 -2.00000000
20.86986351 14.18314552 -0.58716166 23 31 5720 25.24000000 3180565704 3180565704 -1.33300000
5.02272463 3.05746770 -2.74194717 6 0 5727 6.48800000 3180565725 3180565725 -25.00000000
20.86677742 15.68431187 -0.45564744 16 1 5727 26.10800000 3180565725 3180565725 -1.00000000
20.80822182 12.66154766 -0.70887816 19 2 5728 24.36800000 3180565727 3180565727 -1.66700000
7.37584686 4.99757957 -2.49411130 54 3 5728 9.25200000 3180565727 3180565727 -15.63900000
9.92597866 6.03746271 -2.32359767 2 4 5729 11.84800000 3180565730 3180565730 -11.31000000
40.59334564 27.49409485 0.00000000 18 5 5729 49.02800000 3180565730 3180565730 0.00000000
39.77934265 21.60741043 -0.52701509 12 6 5729 45.27200000 3180565732 3180565732 -0.66700000
11.30642796 7.65790558 -2.12451339 2 7 5729 13.82000000 3180565732 3180565732 -8.84300000
13.58226109 8.25814342 -2.02332211 2 8 5730 16.02400000 3180565734 3180565734 -7.25400000
40.59130859 30.47681618 0.29501274 35 9 5730 50.76000000 3180565734 3180565734 0.33300000
40.31354523 24.50138474 -0.27418283 17 10 5731 47.17600000 3180565737 3180565737 -0.33300000
14.40282631 9.74778080 -1.87334156 4 11 5731 17.49200000 3180565737 3180565737 -6.14800000
16.91545486 9.17669964 -1.79642296 2 12 5732 19.32800000 3180565739 3180565739 -5.33300000
39.90119934 26.99483490 1.12100422 26 13 5732 48.18800000 3180565739 3180565739 1.33300000
40.52926636 21.97812653 0.53674704 13 14 5733 46.10800000 3180565741 3180565741 0.66700000
18.34135246 12.40402889 -1.54831469 8 15 5733 22.19600000 3180565741 3180565741 -4.00000000
17.66680336 10.72469902 -1.68717372 2 16 5734 20.73600000 3180565744 3180565744 -4.66700000
40.07462692 30.04515457 1.45766842 32 17 5734 50.10800000 3180565744 3180565744 1.66700000
40.35167694 24.49563599 0.82396299 12 18 5734 47.21200000 3180565746 3180565746 1.00000000
18.52440071 13.88830090 -1.48381495 5 19 5734 23.20000000 3180565746 3180565746 -3.66700000
20.70778275 11.22002125 -1.37161577 7 20 5735 23.59200000 3180565748 3180565748 -3.33300000
39.74941254 26.86181641 2.79392886 25 21 5735 48.05600000 3180565748 3180565748 3.33300000
39.96727753 24.24319649 1.90444946 20 22 5736 46.78400000 3180565750 3180565750 2.33300000
20.76657677 14.02833748 -1.16737282 23 23 5736 25.08800000 3180565750 3180565750 -2.66700000
20.74345016 12.57752895 -1.27134502 24 24 5737 24.29200000 3180565753 3180565753 -3.00000000
42.90511322 28.97256088 6.35670519 43 25 5737 52.16000000 3180565753 3180565753 7.00000000
43.27882004 26.23123741 4.13136244 26 26 5738 50.77600000 3180565755 3180565755 4.66700000
20.78352737 15.55938339 -1.05773795 23 27 5738 25.98400000 3180565755 3180565755 -2.33300000
20.75916672 11.22912216 -0.82418650 17 28 5739 23.61600000 3180565757 3180565757 -2.00000000
20.87283134 14.07890320 -0.58585894 23 31 5740 25.18400000 3180565760 3180565760 -1.33300000
5.02768993 3.03529048 -2.73856640 8 0 5748 6.48000000 3180565780 3180565780 -25.00000000
20.87283134 15.56946564 -0.45453048 16 1 5748 26.04400000 3180565780 3180565780 -1.00000000
20.81683350 12.56247234 -0.70759815 19 2 5749 24.32400000 3180565783 3180565783 -1.66700000
7.38772058 4.96621418 -2.49195457 57 3 5749 9.24400000 3180565783 3180565783 -15.63900000
9.94468117 5.99901533 -2.32281327 2 4 5750 11.84400000 3180565785 3180565785 -11.31000000
40.56103897 27.25588799 0.00000000 18 5 5750 48.86800000 3180565785 3180565785 0.00000000
39.78783798 21.42354202 -0.52608383 24 6 5750 45.19200000 3180565787 3180565787 -0.66700000
11.33770084 7.61861849 -2.12512827 2 7 5750 13.82400000 3180565787 3180565787 -8.84300000
13.60564137 8.20420933 -2.02231193 2 8 5751 16.01600000 3180565790 3180565790 -7.25400000
40.56481552 30.22507095 0.29401308 23 9 5751 50.58800000 3180565790 3180565790 0.33300000
40.48871994 24.40508461 -0.27476403 17 10 5752 47.27600000 3180565792 3180565792 -0.33300000
14.42525005 9.68605900 -1.87162805 4 11 5752 17.47600000 3180565792 3180565792 -6.14800000
16.95248413 9.11652565 -1.79679477 2 12 5753 19.33200000 3180565794 3180565794 -5.33300000
39.77408981 26.69685936 1.11467659 17 13 5753 47.91600000 3180565794 3180565794 1.33300000
40.75046921 21.90518379 0.53860962 13 14 5754 46.26800000 3180565796 3180565796 0.66700000
18.35355759 12.31448841 -1.54552448 23 15 5754 22.15600000 3180565796 3180565796 -4.00000000
17.71623993 10.66604424 -1.68815005 2 16 5755 20.74800000 3180565799 3180565799 -4.66700000
39.94068146 29.71668243 1.44882500 31 17 5755 49.80400000 3180565799 3180565799 1.66700000
40.36923218 24.30425644 0.82249701 12 18 5755 47.12800000 3180565801 3180565801 1.00000000
18.56236839 13.81078053 -1.48279154 5 19 5755 23.18400000 3180565801 3180565801 -3.66700000
20.70303345 11.11948490 -1.36859250 7 20 5756 23.54000000 3180565803 3180565803 -3.33300000
39.72156143 26.63144684 2.78509164 17 21 5756 47.90400000 3180565803 3180565803 3.33300000
39.75106049 23.91318512 1.88995767 29 22 5757 46.42800000 3180565806 3180565806 2.33300000
20.77138519 13.92098618 -1.16476715 22 23 5757 25.03200000 3180565806 3180565806 -2.66700000
20.73806000 12.47053814 -1.26820493 24 24 5758 24.23200000 3180565808 3180565808 -3.00000000
43.13635254 28.89908218 6.37522888 43 25 5758 52.31200000 3180565808 3180565808 7.00000000
42.77328873 25.71094704 4.07408190 24 26 5759 50.07200000 3180565810 3180565810 4.66700000
20.79229355 15.44735146 -1.05529559 22 27 5759 25.92400000 3180565810 3180565810 -2.33300000
20.75790596 11.13029194 -0.82251132 17 28 5760 23.56800000 3180565813 3180565813 -2.00000000
20.87444305 13.96894550 -0.58446312 23 31 5761 25.12400000 3180565815 3180565815 -1.33300000
5.03461790 3.01673818 -2.73687577 6 0 5767 6.47600000 3180565836 3180565836 -25.00000000
20.86328697 15.45493126 -0.45320410 16 1 5767 25.96800000 3180565836 3180565836 -1.00000000
20.81378746 12.46666431 -0.70608544 18 2 5768 24.27200000 3180565838 3180565838 -1.66700000
7.41055632 4.94596481 -2.49411130 54 3 5768 9.25200000 3180565838 3180565838 -15.63900000
9.95778942 5.96197510 -2.32124424 2 4 5769 11.83600000 3180565840 3180565840 -11.31000000
40.54804993 27.05241394 0.00000000 17 5 5769 48.74400000 3180565840 3180565840 0.00000000
39.62934494 21.16898918 -0.52305716 12 6 5769 44.93200000 3180565843 3180565843 -0.66700000
11.35961437 7.57878590 -2.12451339 2 7 5769 13.82000000 3180565843 3180565843 -8.84300000
13.62936783 8.15700817 -2.02180672 2 8 5770 16.01200000 3180565845 3180565845 -7.25400000
40.51048660 29.97618294 0.29289719 22 9 5770 50.39600000 3180565845 3180565845 0.33300000
39.79710388 23.80864143 -0.26953331 25 10 5771 46.37600000 3180565847 3180565847 -0.33300000
14.42420101 9.61610889 -1.86734414 2 11 5771 17.43600000 3180565847 3180565847 -6.14800000
16.97559357 9.05650997 -1.79605114 2 12 5772 19.32400000 3180565849 3180565849 -5.33300000
39.72263718 26.47167778 1.11076844 25 13 5772 47.74800000 3180565849 3180565849 1.33300000
40.85817719 21.78874969 0.53907526 13 14 5773 46.30800000 3180565852 3180565852 0.66700000
18.39429283 12.25355816 -1.54552448 29 15 5773 22.15600000 3180565852 3180565852 -4.00000000
17.64884377 10.54588699 -1.67838633 2 16 5774 20.62800000 3180565854 3180565854 -4.66700000
40.03257370 29.57931900 1.44859219 21 17 5774 49.79600000 3180565854 3180565854 1.66700000
40.48394012 24.19076729 0.82319510 24 18 5774 47.16800000 3180565856 3180565856 1.00000000
18.64659119 13.77761555 -1.48586154 5 19 5774 23.23200000 3180565856 3180565856 -3.66700000
20.69397926 11.02635860 -1.36556935 7 20 5775 23.48800000 3180565859 3180565859 -3.33300000
39.73652649 26.45089912 2.77997541 25 21 5775 47.81600000 3180565859 3180565859 3.33300000
39.88504791 23.81401443 1.89256287 29 22 5776 46.49200000 3180565861 3180565861 2.33300000
20.76421165 13.81661320 -1.16178906 20 23 5776 24.96800000 3180565861 3180565861 -2.66700000
20.74499893 12.38122845 -1.26611149 24 24 5777 24.19200000 3180565863 3180565863 -3.00000000
42.92336655 25.60777283 4.08026552 36 26 5778 50.14800000 3180565866 3180565866 4.66700000
20.78551483 15.33560562 -1.05236459 26 27 5778 25.85200000 3180565866 3180565866 -2.33300000
20.76646805 11.04637623 -0.82139456 17 28 5779 23.53600000 3180565868 3180565868 -2.00000000
20.86160660 13.86566734 -0.58288121 23 31 5779 25.05600000 3180565870 3180565870 -1.33300000
5.04823399 3.00099802 -2.73856640 6 0 5787 6.48000000 3180565891 3180565891 -25.00000000
20.86233330 15.34173203 -0.45201734 13 1 5787 25.90000000 3180565891 3180565891 -1.00000000
20.80561829 12.36329651 -0.70433998 21 2 5788 24.21200000 3180565893 3180565893 -1.66700000
7.41814184 4.91368580 -2.49087644 48 3 5788 9.24000000 3180565893 3180565893 -15.63900000
9.97179604 5.92317343 -2.31967521 2 4 5789 11.82800000 3180565896 3180565896 -11.31000000
40.57553101 26.86654282 0.00000000 17 5 5789 48.66400000 3180565896 3180565896 0.00000000
39.83391953 21.09097481 -0.52473348 24 6 5790 45.07600000 3180565898 3180565898 -0.66700000
11.39061165 7.53928137 -2.12512827 2 7 5790 13.82400000 3180565898 3180565898 -8.84300000
13.65775776 8.10938358 -2.02180672 2 8 5790 16.01200000 3180565900 3180565900 -7.25400000
40.57619095 29.80617523 0.29261824 22 9 5790 50.34800000 3180565900 3180565900 0.33300000
40.36840439 23.95947647 -0.27283448 26 10 5791 46.94400000 3180565902 3180565902 -0.33300000
14.45104599 9.56131172 -1.86648738 2 11 5791 17.42800000 3180565902 3180565902 -6.14800000
17.00006294 8.99347401 -1.79530764 2 12 5792 19.31600000 3180565905 3180565905 -5.33300000
39.84815216 26.35491943 1.11169899 25 13 5792 47.78800000 3180565905 3180565905 1.33300000
40.87387466 21.61421013 0.53828371 13 14 5793 46.24000000 3180565907 3180565907 0.66700000
18.40699577 12.16946983 -1.54301322 16 15 5793 22.12000000 3180565907 3180565907 -4.00000000
17.77814293 10.53910828 -1.68717372 2 16 5794 20.73600000 3180565909 3180565909 -4.66700000
39.99050140 29.33298302 1.44335592 31 17 5794 49.61600000 3180565909 3180565909 1.66700000
40.44158554 23.96474648 0.82054234 24 18 5795 47.01600000 3180565912 3180565912 1.00000000
18.68408585 13.69973850 -1.48483825 5 19 5795 23.21600000 3180565912 3180565912 -3.66700000
20.70056534 10.93726730 -1.36347628 7 20 5795 23.45200000 3180565914 3180565914 -3.33300000
39.73865509 26.25260162 2.77369642 25 21 5795 47.70800000 3180565914 3180565914 3.33300000
39.96792984 23.67464638 1.89256287 19 22 5796 46.49200000 3180565916 3180565916 2.33300000
20.75896645 13.70881939 -1.15881109 16 23 5796 24.90400000 3180565916 3180565916 -2.66700000
20.74684525 12.28431702 -1.26359928 24 24 5797 24.14400000 3180565919 3180565919 -3.00000000
42.83174515 28.27452087 6.30162001 27 25 5797 51.70800000 3180565919 3180565919 7.00000000
42.81007385 25.33798027 4.06106377 24 26 5798 49.91200000 3180565921 3180565921 4.66700000
20.78088188 15.22044849 -1.04943371 22 27 5798 25.78000000 3180565921 3180565921 -2.33300000
20.75893402 10.94957542 -0.81957978 17 28 5799 23.48400000 3180565923 3180565923 -2.00000000
20.86314583 13.76193523 -0.58157849 23 31 5799 25.00000000 3180565926 3180565926 -1.33300000
5.05555582 2.98151660 -2.73687577 6 0 5807 6.47600000 3180565946 3180565946 -25.00000000
20.86407471 15.23108482 -0.45090038 16 1 5807 25.83600000 3180565946 3180565946 -1.00000000
20.80042648 12.26216984 -0.70271093 21 2 5808 24.15600000 3180565949 3180565949 -1.66700000
7.43524837 4.88776159 -2.49087644 18 3 5808 9.24000000 3180565949 3180565949 -15.63900000
10.00592804 5.89629412 -2.32281327 2 4 5809 11.84400000 3180565951 3180565951 -11.31000000
40.58215332 26.66763115 0.00000000 17 5 5809 48.56000000 3180565951 3180565951 0.00000000
39.82938766 20.91089630 -0.52370906 24 6 5810 44.98800000 3180565953 3180565953 -0.66700000
11.41685963 7.49947500 -2.12512827 2 7 5810 13.82400000 3180565953 3180565953 -8.84300000
13.68940067 8.06367302 -2.02231193 2 8 5810 16.01600000 3180565955 3180565955 -7.25400000
40.52808762 29.55359077 0.29152560 21 9 5810 50.16000000 3180565955 3180565955 0.33300000
40.34494400 23.75550461 -0.27211380 26 10 5811 46.82000000 3180565958 3180565958 -0.33300000
14.48100853 9.50862694 -1.86605895 2 11 5811 17.42400000 3180565958 3180565958 -6.14800000
17.04193306 8.93962765 -1.79642296 2 12 5812 19.32800000 3180565960 3180565960 -5.33300000
40.02348328 26.27052116 1.11402524 26 13 5812 47.88800000 3180565960 3180565960 1.33300000
40.78258514 21.38410378 0.53609514 27 14 5813 46.05200000 3180565962 3180565962 0.66700000
18.45937157 12.11171055 -1.54385030 4 15 5813 22.13200000 3180565962 3180565962 -4.00000000
17.72203636 10.42241859 -1.67838633 2 16 5814 20.62800000 3180565965 3180565965 -4.66700000
39.95366287 29.09201050 1.43835235 31 17 5814 49.44400000 3180565965 3180565965 1.66700000
40.41396332 23.76765633 0.81837827 24 18 5814 46.89200000 3180565967 3180565967 1.00000000
18.72618675 13.63535500 -1.48458242 5 19 5814 23.21200000 3180565967 3180565967 -3.66700000
20.73508072 10.86308861 -1.36324382 10 20 5815 23.44800000 3180565969 3180565969 -3.33300000
39.70315170 26.03052711 2.76485920 25 21 5815 47.55600000 3180565969 3180565969 3.33300000
40.00897598 23.51068878 1.89060891 19 22 5816 46.44400000 3180565972 3180565972 2.33300000
20.75990486 13.60560989 -1.15620542 12 23 5816 24.84800000 3180565972 3180565972 -2.66700000
20.72760201 12.17540550 -1.25983119 28 24 5817 24.07200000 3180565974 3180565974 -3.00000000
42.92353821 28.12048531 6.30064487 27 25 5817 51.70000000 3180565974 3180565974 7.00000000
43.19735718 25.36401176 4.08937836 37 26 5818 50.26000000 3180565976 3180565976 4.66700000
20.78539658 15.11256218 -1.04699123 22 27 5818 25.72000000 3180565976 3180565976 -2.33300000
20.75806236 10.85666656 -0.81804419 20 28 5819 23.44000000 3180565979 3180565979 -2.00000000
20.86421776 13.65836239 -0.58027577 23 31 5819 24.94400000 3180565981 3180565981 -1.33300000
5.06906176 2.96568203 -2.73856640 6 0 5827 6.48000000 3180566001 3180566001 -25.00000000
20.87177658 15.12530708 -0.44992304 16 1 5827 25.78000000 3180566001 3180566001 -1.00000000
20.80513763 12.16728497 -0.70143098 21 2 5828 24.11200000 3180566003 3180566003 -1.66700000
7.45226479 4.86177778 -2.49087644 6 3 5828 9.24000000 3180566003 3180566003 -15.63900000
10.01628971 5.85539293 -2.32045984 2 4 5829 11.83200000 3180566006 3180566006 -11.31000000
40.53427124 26.43404198 0.00000000 26 5 5829 48.39200000 3180566006 3180566006 0.00000000
39.91979980 20.78978729 -0.52398843 12 6 5829 45.01200000 3180566008 3180566008 -0.66700000
11.44166565 7.46157408 -2.12512827 2 7 5829 13.82400000 3180566008 3180566008 -8.84300000
13.75514984 8.03786087 -2.02786779 4 8 5830 16.06000000 3180566010 3180566010 -7.25400000
40.53055954 29.33923149 0.29080492 31 9 5830 50.03600000 3180566010 3180566010 0.33300000
40.35854340 23.57417870 -0.27164885 17 10 5831 46.74000000 3180566013 3180566013 -0.33300000
14.50744724 9.45367813 -1.86520219 2 11 5831 17.41600000 3180566013 3180566013 -6.14800000
17.07303429 8.88008595 -1.79642296 2 12 5832 19.32800000 3180566015 3180566015 -5.33300000
40.33943939 26.27688980 1.12025976 17 13 5832 48.15600000 3180566015 3180566015 1.33300000
40.60857010 21.11246490 0.53283566 13 14 5833 45.77200000 3180566017 3180566017 0.66700000
18.49150658 12.04066944 -1.54301322 4 15 5833 22.12000000 3180566017 3180566017 -4.00000000
17.74797821 10.35446739 -1.67741001 2 16 5834 20.61600000 3180566019 3180566019 -4.66700000
39.88646698 28.83057213 1.43230152 30 17 5834 49.23600000 3180566019 3180566019 1.66700000
40.27214050 23.49543953 0.81384063 36 18 5834 46.63200000 3180566022 3180566022 1.00000000
18.76719856 13.56522846 -1.48407078 5 19 5834 23.20400000 3180566022 3180566022 -3.66700000
20.75161171 10.77959919 -1.36184847 7 20 5835 23.42400000 3180566024 3180566024 -3.33300000
39.86740875 25.93968964 2.76997542 25 21 5835 47.64400000 3180566024 3180566024 3.33300000
39.91470718 23.26823425 1.88230467 19 22 5836 46.24000000 3180566026 3180566026 2.33300000
20.76707649 13.50691891 -1.15397191 18 23 5836 24.80000000 3180566026 3180566026 -2.66700000
20.72856140 12.07884502 -1.25731897 24 24 5837 24.02400000 3180566029 3180566029 -3.00000000
42.55874634 24.78967476 4.02070665 35 26 5838 49.41600000 3180566031 3180566031 4.66700000
20.78940964 15.00483036 -1.04454887 22 27 5838 25.66000000 3180566031 3180566031 -2.33300000
20.74969864 10.76021767 -0.81622940 20 28 5839 23.38800000 3180566033 3180566033 -2.00000000
20.85811234 13.55059242 -0.57878691 23 31 5839 24.88000000 3180566036 3180566036 -1.33300000
5.07676172 2.94526386 -2.73687577 6 0 5848 6.47600000 3180566056 3180566056 -25.00000000
20.85888481 14.99967289 -0.44845703 15 1 5848 25.69600000 3180566056 3180566056 -1.00000000
20.80808640 12.06687832 -0.70003462 21 2 5849 24.06400000 3180566059 3180566059 -1.66700000
7.48620272 4.84489536 -2.49626780 3 3 5849 9.26000000 3180566059 3180566059 -15.63900000
10.03429031 5.81667471 -2.31967521 2 4 5850 11.82800000 3180566061 3180566061 -11.31000000
40.56371307 26.24184418 0.00000000 17 5 5850 48.31200000 3180566061 3180566061 0.00000000
39.82157135 20.55344582 -0.52170676 23 6 5850 44.81600000 3180566063 3180566063 -0.66700000
11.47225571 7.42173481 -2.12574315 3 7 5850 13.82800000 3180566063 3180566063 -8.84300000
13.77421761 7.98142338 -2.02635241 4 8 5851 16.04800000 3180566066 3180566066 -7.25400000
40.57284546 29.14381218 0.29033995 31 9 5851 49.95600000 3180566066 3180566066 0.33300000
40.34429932 23.36795998 -0.27097467 17 10 5852 46.62400000 3180566068 3180566068 -0.33300000
14.53866005 9.39828396 -1.86477375 2 11 5852 17.41200000 3180566068 3180566068 -6.14800000
17.08776665 8.80832672 -1.79456413 2 12 5853 19.30800000 3180566070 3180566070 -5.33300000
40.33471680 26.06375122 1.11746824 17 13 5853 48.03600000 3180566070 3180566070 1.33300000
40.77456665 21.00928497 0.53399974 13 14 5854 45.87200000 3180566072 3180566072 0.66700000
18.53551292 11.97281361 -1.54301322 4 15 5854 22.12000000 3180566072 3180566072 -4.00000000
17.79616356 10.29533672 -1.67838633 2 16 5855 20.62800000 3180566075 3180566075 -4.66700000
39.95288086 28.65622330 1.43090522 20 17 5855 49.18800000 3180566075 3180566075 1.66700000
40.47568893 23.41576958 0.81621414 24 18 5855 46.76800000 3180566077 3180566077 1.00000000
18.81030464 13.49169922 -1.48355913 5 19 5855 23.19600000 3180566077 3180566077 -3.66700000
20.78743172 10.70164013 -1.36161590 7 20 5856 23.42000000 3180566079 3180566079 -3.33300000
39.96221542 25.79339409 2.76997542 25 21 5856 47.64400000 3180566079 3180566079 3.33300000
40.07584381 23.16578674 1.88588691 19 22 5857 46.32800000 3180566082 3180566082 2.33300000
20.75600815 13.39172077 -1.15062165 28 23 5857 24.72800000 3180566082 3180566082 -2.66700000
20.73464775 11.98080635 -1.25501621 24 24 5858 23.98000000 3180566084 3180566084 -3.00000000
42.71836472 24.67340279 4.02721596 35 26 5859 49.49600000 3180566086 3180566086 4.66700000
20.78577805 14.88664436 -1.04161787 26 27 5859 25.58800000 3180566086 3180566086 -2.33300000
20.74988747 10.66399384 -0.81469387 20 28 5860 23.34400000 3180566089 3180566089 -2.00000000
20.85721779 13.44155884 -0.57739115 23 31 5860 24.82000000 3180566091 3180566091 -1.33300000
5.08335876 2.92660379 -2.73518538 6 0 5867 6.47200000 3180566112 3180566112 -25.00000000
20.85968971 14.89555740 -0.44740990 15 1 5867 25.63600000 3180566112 3180566112 -1.00000000
20.79254150 11.96590137 -0.69817281 18 2 5868 24.00000000 3180566114 3180566114 -1.66700000
7.49574661 4.81587934 -2.49411130 3 3 5868 9.25200000 3180566114 3180566114 -15.63900000
10.05352402 5.78336763 -2.31967521 2 4 5869 11.82800000 3180566116 3180566116 -11.31000000
40.51925278 26.02288437 0.00000000 17 5 5869 48.15600000 3180566116 3180566116 0.00000000
39.56196213 20.25359344 -0.51742285 11 6 5869 44.44800000 3180566119 3180566119 -0.66700000
11.50678062 7.39005852 -2.12758780 4 7 5869 13.84000000 3180566119 3180566119 -8.84300000
13.76277161 7.91394472 -2.02079654 2 8 5870 16.00400000 3180566121 3180566121 -7.25400000
40.53575516 28.91387367 0.28938681 31 9 5870 49.79200000 3180566121 3180566121 0.33300000
40.25857544 23.14035988 -0.26988202 25 10 5871 46.43600000 3180566123 3180566123 -0.33300000
14.56305122 9.34572411 -1.86391699 2 11 5871 17.40400000 3180566123 3180566123 -6.14800000
17.12042809 8.75342655 -1.79493582 2 12 5872 19.31200000 3180566125 3180566125 -5.33300000
39.90931320 25.60165405 1.10332417 25 13 5872 47.42800000 3180566125 3180566125 1.33300000
40.85113144 20.87759781 0.53409290 13 14 5873 45.88000000 3180566128 3180566128 0.66700000
18.56503677 11.90481949 -1.54217613 4 15 5873 22.10800000 3180566128 3180566128 -4.00000000
17.81637573 10.22832680 -1.67708457 2 16 5874 20.61200000 3180566130 3180566130 -4.66700000
39.78063965 28.33337402 1.42136347 30 17 5874 48.86000000 3180566130 3180566130 1.66700000
40.46005249 23.21860313 0.81425947 24 18 5875 46.65600000 3180566132 3180566132 1.00000000
18.84102440 13.41438007 -1.48227990 5 19 5875 23.17600000 3180566132 3180566132 -3.66700000
20.69477463 10.56727219 -1.35324383 7 20 5875 23.27600000 3180566135 3180566135 -3.33300000
39.93321609 25.58748436 2.76206851 16 21 5875 47.50800000 3180566135 3180566135 3.33300000
40.29458237 23.11429787 1.89256287 19 22 5876 46.49200000 3180566137 3180566137 2.33300000
20.75656128 13.29480171 -1.14820206 24 23 5876 24.67600000 3180566137 3180566137 -2.66700000
20.73614502 11.89012527 -1.25271344 28 24 5877 23.93600000 3180566139 3180566139 -3.00000000
42.83799744 24.55341530 4.03079605 23 26 5878 49.54000000 3180566142 3180566142 4.66700000
20.78291893 14.78057289 -1.03901267 29 27 5878 25.52400000 3180566142 3180566142 -2.33300000
20.75664520 10.58060265 -0.81357706 17 28 5879 23.31200000 3180566144 3180566144 -2.00000000
20.85788536 13.34430408 -0.57618147 25 31 5879 24.76800000 3180566146 3180566146 -1.33300000
5.09983969 2.91243720 -2.73856640 6 0 5887 6.48000000 3180566167 3180566167 -25.00000000
20.86587906 14.79027367 -0.44643256 15 1 5887 25.58000000 3180566167 3180566167 -1.00000000
20.79251480 11.86946201 -0.69677645 18 2 5888 23.95200000 3180566169 3180566169 -1.66700000
7.50601578 4.78554344 -2.49195457 4 3 5888 9.24400000 3180566169 3180566169 -15.63900000
10.07705688 5.75018311 -2.32045984 2 4 5889 11.83200000 3180566171 3180566171 -11.31000000
40.51876450 25.82324409 0.00000000 26 5 5889 48.04800000 3180566171 3180566171 0.00000000
39.65019989 20.11569405 -0.51760912 11 6 5890 44.46400000 3180566174 3180566174 -0.66700000
11.53712273 7.34995794 -2.12820292 3 7 5890 13.84400000 3180566174 3180566174 -8.84300000
13.79031277 7.86585522 -2.02079654 2 8 5890 16.00400000 3180566176 3180566176 -7.25400000
40.59399796 28.74215317 0.28908458 20 9 5890 49.74000000 3180566176 3180566176 0.33300000
40.41207886 23.04129601 -0.27037022 26 10 5891 46.52000000 3180566178 3180566178 -0.33300000
14.58887672 9.29055977 -1.86306024 4 11 5891 17.39600000 3180566178 3180566178 -6.14800000
17.15087891 8.69361115 -1.79493582 2 12 5892 19.31200000 3180566181 3180566181 -5.33300000
40.11650467 25.53734970 1.10658109 17 13 5892 47.56800000 3180566181 3180566181 1.33300000
40.90592194 20.72583389 0.53386009 13 14 5893 45.86000000 3180566183 3180566183 0.66700000
18.59638023 11.83351707 -1.54133904 4 15 5893 22.09600000 3180566183 3180566183 -4.00000000
17.86236382 10.17199230 -1.67806089 2 16 5894 20.62400000 3180566185 3180566185 -4.66700000
39.80747223 28.14356041 1.41880357 20 17 5894 48.77200000 3180566185 3180566185 1.66700000
40.47774506 23.05065918 0.81307268 24 18 5894 46.58800000 3180566188 3180566188 1.00000000
18.88540459 13.35182762 -1.48227990 5 19 5894 23.17600000 3180566188 3180566188 -3.66700000
20.71728325 10.48775578 -1.35231364 7 20 5895 23.26000000 3180566190 3180566190 -3.33300000
