# .PCD v0.7 - Point Cloud Data file format
VERSION 0.7
FIELDS x y z intensity laser_id azimuth distance_m adjustedtime timestamp vertical_angle
SIZE 4 4 4 1 1 2 8 8 4 8
TYPE F F F U U U F U U F
COUNT 1 1 1 1 1 1 1 1 1 1
WIDTH 511
HEIGHT 1
VIEWPOINT 0 0 0 1 0 0 0
POINTS 511
DATA ascii
39.64350128 -9.64938545 -0.94941527 16 31 10508 40.81200000 3186379028 3186379028 -1.33300000
5.76827288 -1.71521282 -2.80618525 6 0 10516 6.64000000 3186379049 3186379049 -25.00000000
39.82590485 -7.71252155 -0.70807904 25 1 10516 40.57200000 3186379049 3186379049 -1.00000000
39.88621902 -11.86786175 -1.21109712 27 2 10517 41.63200000 3186379051 3186379051 -1.66700000
8.94523144 -2.19219398 -2.57821870 2 3 10517 9.56400000 3186379051 3186379051 -15.63900000
11.78521919 -3.50884724 -2.45931077 4 4 10518 12.54000000 3186379053 3186379053 -11.31000000
39.55963135 -9.70213604 0.00000000 19 5 10518 40.73200000 3186379053 3186379053 0.00000000
39.60378265 -13.93892479 -0.48878580 31 6 10519 41.98800000 3186379056 3186379056 -0.66700000
14.17568111 -3.47925806 -2.27086186 3 7 10519 14.77200000 3186379056 3186379056 -8.84300000
16.53080177 -4.92490482 -2.19555187 3 8 10519 17.38800000 3186379058 3186379058 -7.25400000
39.68197250 -7.70620680 0.23494080 25 9 10519 40.42400000 3186379058 3186379058 0.33300000
39.76588058 -11.85472393 -0.24117117 23 10 10520 41.49600000 3186379060 3186379060 -0.33300000
18.15231895 -4.45863724 -2.01342440 3 11 10520 18.80000000 3186379060 3186379060 -6.14800000
20.31422234 -7.15775251 -2.01056600 16 12 10521 21.63200000 3186379063 3186379063 -5.33300000
39.09337616 -9.60948944 0.93676013 18 13 10521 40.26800000 3186379063 3186379063 1.33300000
39.89448166 -14.06471920 0.49246439 45 14 10522 42.30400000 3186379065 3186379065 0.66700000
20.41214180 -5.02125835 -1.46990836 26 15 10522 21.07200000 3186379065 3186379065 -4.00000000
20.38343430 -6.08818865 -1.73664331 33 16 10523 21.34400000 3186379067 3186379067 -4.66700000
39.13066101 -7.62749481 1.16024685 60 17 10523 39.88400000 3186379067 3186379067 1.66700000
38.98019791 -11.64272976 0.71010351 26 18 10523 40.68800000 3186379070 3186379070 1.00000000
20.44057274 -3.98435307 -1.33466589 27 19 10523 20.86800000 3186379070 3186379070 -3.66700000
20.41321945 -7.20465183 -1.26068652 20 20 10524 21.68400000 3186379072 3186379072 -3.33300000
40.01374054 -9.85794258 2.39997888 18 21 10524 41.28000000 3186379072 3186379072 3.33300000
39.16801834 -11.71372128 1.66557908 25 22 10525 40.91600000 3186379074 3186379074 2.33300000
20.47598076 -5.04833412 -0.98236507 23 23 10525 21.11200000 3186379074 3186379074 -2.66700000
20.45063210 -6.11992455 -1.11873341 29 24 10526 21.37600000 3186379077 3186379077 -3.00000000
94.75734711 -23.37988091 11.98365593 28 25 10526 98.33200000 3186379077 3186379077 7.00000000
41.68642044 -12.48273754 3.55237293 29 26 10527 43.66000000 3186379079 3186379079 4.66700000
35.70095062 -6.98483801 -1.48207068 6 27 10527 36.40800000 3186379079 3186379079 -2.33300000
39.31544113 -13.90688419 -1.45628619 24 28 10528 41.72800000 3186379081 3186379081 -2.00000000
94.97633362 -28.47620010 18.07822800 28 30 10529 100.78800000 3186379083 3186379083 10.33300000
39.74761963 -9.82917976 -0.95276517 16 31 10529 40.95600000 3186379083 3186379083 -1.33300000
5.76225042 -1.73533738 -2.80618525 7 0 10536 6.64000000 3186379104 3186379104 -25.00000000
39.73596191 -7.83910751 -0.70696211 25 1 10536 40.50800000 3186379104 3186379104 -1.00000000
39.87900543 -12.01740074 -1.21214437 27 2 10537 41.66800000 3186379106 3186379106 -1.66700000
8.94126320 -2.22433519 -2.57929707 3 3 10537 9.56800000 3186379106 3186379106 -15.63900000
11.78416443 -3.55336118 -2.46166420 3 4 10538 12.55200000 3186379109 3186379109 -11.31000000
39.56821823 -9.85079575 0.00000000 19 5 10538 40.77600000 3186379109 3186379109 0.00000000
39.65662766 -14.11329079 -0.49004304 31 6 10539 42.09600000 3186379111 3186379111 -0.66700000
14.16728497 -3.52967453 -2.27147675 3 7 10539 14.77600000 3186379111 3186379111 -8.84300000
16.53250504 -4.98830891 -2.19807720 3 8 10539 17.40800000 3186379113 3186379113 -7.25400000
39.61559296 -7.83691359 0.23470832 25 9 10539 40.38400000 3186379113 3186379113 0.33300000
39.76638031 -12.00617790 -0.24142690 23 10 10540 41.54000000 3186379116 3186379116 -0.33300000
18.14822197 -4.52485991 -2.01470971 3 11 10540 18.81200000 3186379116 3186379116 -6.14800000
20.30412102 -7.23396540 -2.01205325 16 12 10541 21.64800000 3186379118 3186379118 -5.33300000
39.20315170 -9.78171158 0.94020307 18 13 10541 40.41600000 3186379118 3186379118 1.33300000
39.88658524 -14.21866417 0.49297658 15 14 10542 42.34800000 3186379120 3186379120 0.66700000
20.41384697 -5.09731293 -1.47130358 26 15 10542 21.09200000 3186379120 3186379120 -4.00000000
20.38113785 -6.16507435 -1.73827064 30 16 10543 21.36400000 3186379123 3186379123 -4.66700000
39.17046738 -7.77727747 1.16222501 15 17 10543 39.95200000 3186379123 3186379123 1.66700000
39.40251923 -11.91883755 0.71855050 18 18 10543 41.17200000 3186379125 3186379125 1.00000000
20.43828583 -4.05801201 -1.33543348 27 19 10543 20.88000000 3186379125 3186379125 -3.66700000
20.39922905 -7.27988958 -1.26138425 20 20 10544 21.69600000 3186379127 3186379127 -3.33300000
40.18827820 -10.04986954 2.41253686 36 21 10544 41.49600000 3186379127 3186379127 3.33300000
39.17279053 -11.86427402 1.66753304 25 22 10545 40.96400000 3186379130 3186379130 2.33300000
20.48149109 -5.12559795 -0.98348182 22 23 10545 21.13600000 3186379130 3186379130 -2.66700000
20.44443512 -6.19590759 -1.11957073 29 24 10546 21.39200000 3186379132 3186379132 -3.00000000
94.49415588 -23.66517067 11.96074486 28 25 10546 98.14400000 3186379132 3186379132 7.00000000
41.67311478 -12.63742924 3.55497646 29 26 10547 43.69200000 3186379134 3186379134 4.66700000
35.75474548 -7.12503672 -1.48532724 6 27 10547 36.48800000 3186379134 3186379134 -2.33300000
39.35322952 -14.07499981 -1.45949697 16 28 10548 41.82000000 3186379136 3186379136 -2.00000000
98.07460022 -29.75995064 18.68664742 28 30 10548 104.18000000 3186379139 3186379139 10.33300000
39.83504868 -9.99109173 -0.95564979 16 31 10548 41.08000000 3186379139 3186379139 -1.33300000
5.75615788 -1.75544083 -2.80618525 7 0 10556 6.64000000 3186379159 3186379159 -25.00000000
39.86911774 -8.01006317 -0.70982426 17 1 10556 40.67200000 3186379159 3186379159 -1.00000000
39.84446335 -12.15886497 -1.21237707 27 2 10557 41.67600000 3186379162 3186379162 -1.66700000
8.93717861 -2.25647545 -2.58037543 3 3 10557 9.57200000 3186379162 3186379162 -15.63900000
11.77544117 -3.59561944 -2.46244860 3 4 10558 12.55600000 3186379164 3186379164 -11.31000000
39.58400726 -10.00159359 0.00000000 13 5 10558 40.82800000 3186379164 3186379164 0.00000000
39.62842560 -14.25148773 -0.49027586 21 6 10558 42.11600000 3186379166 3186379166 -0.66700000
14.17083073 -3.58050847 -2.27393651 4 7 10558 14.79200000 3186379166 3186379166 -8.84300000
16.52637482 -5.04946613 -2.19959235 3 8 10559 17.42000000 3186379169 3186379169 -7.25400000
39.62720490 -7.98304939 0.23494080 25 9 10559 40.42400000 3186379169 3186379169 0.33300000
39.64007568 -12.11918736 -0.24091545 23 10 10560 41.45200000 3186379171 3186379171 -0.33300000
18.14388275 -4.59110785 -2.01599479 3 11 10560 18.82400000 3186379171 3186379171 -6.14800000
20.30122757 -7.31289434 -2.01428390 11 12 10561 21.67200000 3186379173 3186379173 -5.33300000
39.07185364 -9.89395523 0.93787676 49 13 10561 40.31600000 3186379173 3186379173 1.33300000
20.41140175 -5.17246008 -1.47241962 26 15 10562 21.10800000 3186379176 3186379176 -4.00000000
20.37855339 -6.24201822 -1.73989785 33 16 10563 21.38400000 3186379178 3186379178 -4.66700000
38.97456360 -7.87988949 1.15722144 45 17 10563 39.78000000 3186379178 3186379178 1.66700000
39.28419495 -12.03287888 0.71715426 27 18 10563 41.09200000 3186379180 3186379180 1.00000000
20.43573570 -4.13170338 -1.33620095 24 19 10563 20.89200000 3186379180 3186379180 -3.66700000
20.39998627 -7.36053896 -1.26301205 20 20 10564 21.72400000 3186379183 3186379183 -3.33300000
39.43690491 -10.00837135 2.36951399 17 21 10564 40.75600000 3186379183 3186379183 3.33300000
39.18845367 -12.01851749 1.66997552 25 22 10565 41.02400000 3186379185 3186379185 2.33300000
20.48283958 -5.20197821 -0.98441243 22 23 10565 21.15600000 3186379185 3186379185 -2.66700000
20.43795776 -6.27192163 -1.12040818 29 24 10566 21.40800000 3186379187 3186379187 -3.00000000
41.71258926 -12.80856514 3.56213665 19 26 10567 43.78000000 3186379189 3186379189 4.66700000
35.85891342 -7.27602768 -1.49070060 6 27 10567 36.62000000 3186379189 3186379189 -2.33300000
39.36024857 -14.23267365 -1.46159089 16 28 10568 41.88000000 3186379192 3186379192 -2.00000000
97.73542023 -30.04866982 18.64288139 28 30 10569 103.93600000 3186379194 3186379194 10.33300000
39.82141495 -10.14295006 -0.95620811 16 31 10569 41.10400000 3186379194 3186379194 -1.33300000
5.76416111 -1.77879524 -2.81294703 6 0 10575 6.65600000 3186379215 3186379215 -25.00000000
39.66600800 -8.10619545 -0.70668286 25 1 10575 40.49200000 3186379215 3186379215 -1.00000000
39.90325165 -12.32159901 -1.21540248 27 2 10576 41.78000000 3186379217 3186379217 -1.66700000
8.93710995 -2.28801036 -2.58253193 4 3 10576 9.58000000 3186379217 3186379217 -15.63900000
11.77469540 -3.63812208 -2.46480203 3 4 10577 12.56800000 3186379219 3186379219 -11.31000000
39.51962662 -10.12486172 0.00000000 19 5 10577 40.79600000 3186379219 3186379219 0.00000000
39.74259567 -14.44156075 -0.49227813 21 6 10577 42.28800000 3186379222 3186379222 -0.66700000
14.16653633 -3.62944293 -2.27516627 4 7 10577 14.80000000 3186379222 3186379222 -8.84300000
16.53228569 -5.11127424 -2.20262289 3 8 10578 17.44400000 3186379224 3186379224 -7.25400000
39.65145493 -8.12485218 0.23524302 25 9 10578 40.47600000 3186379224 3186379224 0.33300000
39.55763626 -12.23756790 -0.24065973 23 10 10579 41.40800000 3186379226 3186379226 -0.33300000
18.15167046 -4.65718031 -2.01856518 3 11 10579 18.84800000 3186379226 3186379226 -6.14800000
20.31803322 -7.39515924 -2.01837349 11 12 10580 21.71600000 3186379229 3186379229 -5.33300000
38.97298431 -10.00656223 0.93629485 18 13 10580 40.24800000 3186379229 3186379229 1.33300000
39.35667801 -14.33243847 0.48762169 30 14 10581 41.88800000 3186379231 3186379231 0.66700000
20.40959549 -5.24409056 -1.47353578 28 15 10581 21.12400000 3186379231 3186379231 -4.00000000
20.37297440 -6.31428242 -1.74119973 33 16 10582 21.40000000 3186379233 3186379233 -4.66700000
39.00304794 -8.02036476 1.15885055 22 17 10582 39.83600000 3186379233 3186379233 1.66700000
39.19441605 -12.14769173 0.71624678 27 18 10582 41.04000000 3186379236 3186379236 1.00000000
20.42974091 -4.20105600 -1.33671260 24 19 10582 20.90000000 3186379236 3186379236 -3.66700000
20.40547943 -7.43908930 -1.26487255 20 20 10583 21.75600000 3186379238 3186379238 -3.33300000
40.10734177 -10.32020187 2.41183925 24 21 10583 41.48400000 3186379238 3186379238 3.33300000
39.28198242 -12.18986320 1.67567444 26 22 10584 41.16400000 3186379240 3186379240 2.33300000
20.47708511 -5.27286243 -0.98497081 23 23 10584 21.16800000 3186379240 3186379240 -2.66700000
20.43230629 -6.34439993 -1.12124550 29 24 10585 21.42400000 3186379242 3186379242 -3.00000000
41.72318649 -12.96337891 3.56669307 19 26 10586 43.83600000 3186379245 3186379245 4.66700000
36.00681305 -7.43044090 -1.49786508 6 27 10586 36.79600000 3186379245 3186379245 -2.33300000
39.28279495 -14.35214329 -1.46047413 16 28 10587 41.84800000 3186379247 3186379247 -2.00000000
97.63147736 -30.37143898 18.64216423 28 30 10588 103.93200000 3186379249 3186379249 10.33300000
39.85338211 -10.29194450 -0.95779002 11 31 10588 41.17200000 3186379249 3186379249 -1.33300000
5.75414276 -1.79882824 -2.81125665 8 0 10596 6.65200000 3186379270 3186379270 -25.00000000
39.62428665 -8.24907875 -0.70647341 25 1 10596 40.48000000 3186379270 3186379270 -1.00000000
39.91887665 -12.48686695 -1.21726429 27 2 10597 41.84400000 3186379272 3186379272 -1.66700000
8.92866421 -2.32075119 -2.58253193 3 3 10597 9.58000000 3186379272 3186379272 -15.63900000
11.76128197 -3.68125415 -2.46480203 3 4 10598 12.56800000 3186379275 3186379275 -11.31000000
39.37772751 -10.24245358 0.00000000 19 5 10598 40.68800000 3186379275 3186379275 0.00000000
39.70441437 -14.59264660 -0.49246439 21 6 10598 42.30400000 3186379277 3186379277 -0.66700000
14.16461468 -3.68432641 -2.27701092 3 7 10598 14.81200000 3186379277 3186379277 -8.84300000
16.51722717 -5.17301941 -2.20312786 3 8 10599 17.44800000 3186379279 3186379279 -7.25400000
39.53918457 -8.25296402 0.23475482 25 9 10599 40.39200000 3186379279 3186379279 0.33300000
39.47434616 -12.37051010 -0.24042724 23 10 10600 41.36800000 3186379282 3186379282 -0.33300000
18.15757179 -4.72969294 -2.02113557 3 11 10600 18.87200000 3186379282 3186379282 -6.14800000
20.30200386 -7.47370625 -2.01948881 14 12 10601 21.72800000 3186379284 3186379284 -5.33300000
38.91283035 -10.14328575 0.93573654 18 13 10601 40.22400000 3186379284 3186379284 1.33300000
39.43899918 -14.52635860 0.48929802 30 14 10602 42.03200000 3186379286 3186379286 0.66700000
20.40954208 -5.32389593 -1.47493088 28 15 10602 21.14400000 3186379286 3186379286 -4.00000000
20.36490822 -6.39368773 -1.74250150 33 16 10603 21.41600000 3186379289 3186379289 -4.66700000
39.16123199 -8.20261002 1.16443586 15 17 10603 40.02800000 3186379289 3186379289 1.66700000
39.15344238 -12.29246330 0.71631658 18 18 10603 41.04400000 3186379291 3186379291 1.00000000
20.42983437 -4.27918005 -1.33773589 24 19 10603 20.91600000 3186379291 3186379291 -3.66700000
20.40055656 -7.52211761 -1.26626790 20 20 10604 21.78000000 3186379293 3186379293 -3.33300000
39.50902557 -10.32078934 2.37811852 17 21 10604 40.90400000 3186379293 3186379293 3.33300000
39.44674301 -12.39967442 1.68463016 26 22 10605 41.38400000 3186379295 3186379295 2.33300000
20.48081589 -5.35394287 -0.98608756 22 23 10605 21.19200000 3186379295 3186379295 -2.66700000
20.43177986 -6.42643642 -1.12250161 29 24 10606 21.44800000 3186379298 3186379298 -3.00000000
97.20251465 -25.42808533 12.33658981 28 25 10606 101.22800000 3186379298 3186379298 7.00000000
46.19697952 -14.53926277 3.95366240 11 26 10607 48.59200000 3186379300 3186379300 4.66700000
36.03018188 -7.57304955 -1.49998188 6 27 10607 36.84800000 3186379300 3186379300 -2.33300000
39.22243118 -14.49325466 -1.46019495 16 28 10608 41.84000000 3186379302 3186379302 -2.00000000
97.53827667 -30.73498535 18.64575195 28 30 10609 103.95200000 3186379305 3186379305 10.33300000
39.82699585 -10.44098759 -0.95806915 16 31 10609 41.18400000 3186379305 3186379305 -1.33300000
5.74782848 -1.81890297 -2.81125665 7 0 10616 6.65200000 3186379325 3186379325 -25.00000000
39.78696442 -8.42795372 -0.70989406 17 1 10616 40.67600000 3186379325 3186379325 -1.00000000
39.91697693 -12.63941097 -1.21854424 27 2 10617 41.88800000 3186379328 3186379328 -1.66700000
8.92423344 -2.35288596 -2.58361030 3 3 10617 9.58400000 3186379328 3186379328 -15.63900000
11.75209904 -3.72347093 -2.46558666 3 4 10618 12.57200000 3186379330 3186379330 -11.31000000
39.64341354 -10.45943832 0.00000000 20 5 10618 41.00000000 3186379330 3186379330 0.00000000
39.54450226 -14.69075871 -0.49111402 21 6 10618 42.18800000 3186379332 3186379332 -0.66700000
14.16313267 -3.73677254 -2.27885580 3 7 10618 14.82400000 3186379332 3186379332 -8.84300000
16.51420021 -5.23544025 -2.20514822 3 8 10619 17.46400000 3186379335 3186379335 -7.25400000
39.35754013 -8.35852432 0.23384815 33 9 10619 40.23600000 3186379335 3186379335 0.33300000
39.45761490 -12.51669216 -0.24058998 23 10 10620 41.39600000 3186379337 3186379337 -0.33300000
18.14479637 -4.79406214 -2.02156401 3 11 10620 18.87600000 3186379337 3186379337 -6.14800000
20.30565262 -7.55563927 -2.02246284 14 12 10621 21.76000000 3186379339 3186379339 -5.33300000
39.31791687 -10.39558411 0.94634455 18 13 10621 40.68000000 3186379339 3186379339 1.33300000
39.17814255 -14.58578968 0.48669040 20 14 10622 41.80800000 3186379341 3186379341 0.66700000
20.40626526 -5.39918900 -1.47604704 28 15 10622 21.16000000 3186379341 3186379341 -4.00000000
20.36526299 -6.47198009 -1.74445426 33 16 10623 21.44000000 3186379344 3186379344 -4.66700000
39.18710709 -8.35092449 1.16606498 38 17 10623 40.08400000 3186379344 3186379344 1.66700000
39.26657104 -12.47872257 0.71917874 27 18 10623 41.20800000 3186379346 3186379346 1.00000000
20.42258072 -4.35213137 -1.33824754 24 19 10623 20.92400000 3186379346 3186379346 -3.66700000
20.40036774 -7.60304499 -1.26789582 16 20 10624 21.80800000 3186379348 3186379348 -3.33300000
39.39555740 -10.43818378 2.37346745 17 21 10624 40.82400000 3186379348 3186379348 3.33300000
39.48700714 -12.56395340 1.68821239 26 22 10625 41.47200000 3186379351 3186379351 2.33300000
20.46972656 -5.42744970 -0.98645985 22 23 10625 21.20000000 3186379351 3186379351 -2.66700000
20.42825317 -6.50377655 -1.12354827 29 24 10626 21.46800000 3186379353 3186379353 -3.00000000
94.86827850 -25.17159081 12.05141544 28 25 10626 98.88800000 3186379353 3186379353 7.00000000
36.15204620 -7.73052979 -1.50616932 6 27 10627 37.00000000 3186379355 3186379355 -2.33300000
39.17534637 -14.63147736 -1.46033454 16 28 10628 41.84400000 3186379358 3186379358 -2.00000000
96.76681519 -30.86362076 18.51875877 28 30 10629 103.24400000 3186379360 3186379360 10.33300000
39.81735992 -10.58714008 -0.95872051 16 31 10629 41.21200000 3186379360 3186379360 -1.33300000
5.73799181 -1.83784986 -2.80956626 7 0 10636 6.64800000 3186379381 3186379381 -25.00000000
39.82767868 -8.58194828 -0.71115065 25 1 10636 40.74800000 3186379381 3186379381 -1.00000000
39.91069031 -12.79087257 -1.21970797 27 2 10637 41.92800000 3186379383 3186379383 -1.66700000
8.91596603 -2.38402295 -2.58361030 2 3 10637 9.58400000 3186379383 3186379383 -15.63900000
11.75397015 -3.76926160 -2.46872449 4 4 10638 12.58800000 3186379385 3186379385 -11.31000000
39.65303040 -10.61016369 0.00000000 20 5 10638 41.04800000 3186379385 3186379385 0.00000000
39.57161713 -14.85823059 -0.49209186 21 6 10638 42.27200000 3186379388 3186379388 -0.66700000
14.16527462 -3.79027486 -2.28131533 2 7 10638 14.84000000 3186379388 3186379388 -8.84300000
16.51093674 -5.29790306 -2.20716858 3 8 10639 17.48000000 3186379390 3186379390 -7.25400000
39.38286209 -8.50768185 0.23417363 25 9 10639 40.29200000 3186379390 3186379390 0.33300000
39.65361404 -12.73138332 -0.24205458 23 10 10640 41.64800000 3186379392 3186379392 -0.33300000
18.15484238 -4.86457491 -2.02456260 4 11 10640 18.90400000 3186379392 3186379392 -6.14800000
20.30152321 -7.63488483 -2.02469349 17 12 10641 21.78400000 3186379394 3186379394 -5.33300000
39.15006638 -10.49755287 0.94318074 37 13 10641 40.54400000 3186379394 3186379394 1.33300000
39.08955383 -14.70837212 0.48622477 30 14 10642 41.76800000 3186379397 3186379397 0.66700000
20.40656281 -5.47555780 -1.47744215 30 15 10642 21.18000000 3186379397 3186379397 -4.00000000
20.38429642 -6.55645657 -1.74803436 33 16 10643 21.48400000 3186379399 3186379399 -4.66700000
39.24368668 -8.50629616 1.16862488 15 17 10643 40.17200000 3186379399 3186379399 1.66700000
39.41313553 -12.67694187 0.72266924 27 18 10643 41.40800000 3186379401 3186379401 1.00000000
20.42677116 -4.42762089 -1.33952665 24 19 10643 20.94400000 3186379401 3186379401 -3.66700000
20.41107368 -7.68828535 -1.27022135 20 20 10644 21.84800000 3186379404 3186379404 -3.33300000
40.00290680 -10.74868488 2.41230416 24 21 10644 41.49200000 3186379404 3186379404 3.33300000
39.32117462 -12.66250992 1.68300176 26 22 10645 41.34400000 3186379406 3186379406 2.33300000
20.46994972 -5.50405693 -0.98739046 23 23 10645 21.22000000 3186379406 3186379406 -2.66700000
20.43964577 -6.58607101 -1.12543237 29 24 10646 21.50400000 3186379408 3186379408 -3.00000000
93.89805603 -25.26532745 11.93929577 28 25 10646 97.96800000 3186379408 3186379408 7.00000000
36.15998840 -7.86432123 -1.50763488 6 27 10647 37.03600000 3186379411 3186379411 -2.33300000
39.17639160 -14.78789997 -1.46228886 16 28 10648 41.90000000 3186379413 3186379413 -2.00000000
97.27437592 -31.38127518 18.63570786 28 30 10648 103.89600000 3186379415 3186379415 10.33300000
39.83609009 -10.73368549 -0.96002328 16 31 10648 41.26800000 3186379415 3186379415 -1.33300000
5.73563862 -1.85698378 -2.81125665 7 0 10654 6.65200000 3186379436 3186379436 -25.00000000
39.83568192 -8.71472073 -0.71177894 25 1 10654 40.78400000 3186379436 3186379436 -1.00000000
39.93877411 -12.93837261 -1.22180247 18 2 10655 42.00000000 3186379438 3186379438 -1.66700000
8.90843201 -2.41202164 -2.58361030 2 3 10655 9.58400000 3186379438 3186379438 -15.63900000
11.73833942 -3.80495954 -2.46794009 3 4 10656 12.58400000 3186379441 3186379441 -11.31000000
39.55000687 -10.71585560 0.00000000 20 5 10656 40.97600000 3186379441 3186379441 0.00000000
39.63431931 -15.03192425 -0.49348879 21 6 10657 42.39200000 3186379443 3186379443 -0.66700000
14.16025734 -3.83929634 -2.28254509 3 7 10657 14.84800000 3186379443 3186379443 -8.84300000
16.51308250 -5.35586882 -2.20969391 3 8 10657 17.50000000 3186379445 3186379445 -7.25400000
39.50440979 -8.66392517 0.23505704 25 9 10657 40.44400000 3186379445 3186379445 0.33300000
39.61722565 -12.85713005 -0.24207783 23 10 10658 41.65200000 3186379447 3186379447 -0.33300000
18.15482330 -4.92575169 -2.02627611 3 11 10658 18.92000000 3186379447 3186379447 -6.14800000
20.29605293 -7.70569420 -2.02655244 15 12 10659 21.80400000 3186379450 3186379450 -5.33300000
39.09759903 -10.61525536 0.94271547 18 13 10659 40.52400000 3186379450 3186379450 1.33300000
39.07680511 -14.84388542 0.48664385 30 14 10660 41.80400000 3186379452 3186379452 0.66700000
20.40851402 -5.54487038 -1.47883725 28 15 10660 21.20000000 3186379452 3186379452 -4.00000000
20.37117958 -6.62292862 -1.74868524 30 16 10661 21.49200000 3186379454 3186379454 -4.66700000
39.31439209 -8.65102291 1.17153394 22 17 10661 40.27200000 3186379454 3186379454 1.66700000
39.41651917 -12.82241726 0.72350699 18 18 10662 41.45600000 3186379457 3186379457 1.00000000
20.42757034 -4.49876833 -1.34055007 24 19 10662 20.96000000 3186379457 3186379457 -3.66700000
20.40921402 -7.76088619 -1.27161670 20 20 10662 21.87200000 3186379459 3186379459 -3.33300000
39.54124069 -10.75794029 2.38649058 18 21 10662 41.04800000 3186379459 3186379459 3.33300000
39.73725128 -12.93442249 1.70254135 26 22 10663 41.82400000 3186379461 3186379461 2.33300000
20.46412277 -5.57148647 -0.98794883 23 23 10663 21.23200000 3186379461 3186379461 -2.66700000
20.43784332 -6.65643644 -1.12647915 29 24 10664 21.52400000 3186379464 3186379464 -3.00000000
93.46581268 -25.46417999 11.89444828 28 25 10664 97.60000000 3186379464 3186379464 7.00000000
47.99198151 -15.63985538 4.12062216 13 26 10665 50.64400000 3186379466 3186379466 4.66700000
36.18584061 -7.98908377 -1.50975168 6 27 10665 37.08800000 3186379466 3186379466 -2.33300000
39.19698334 -14.93652534 -1.46480167 24 28 10666 41.97200000 3186379468 3186379468 -2.00000000
39.84075165 -10.86930656 -0.96095377 16 31 10666 41.30800000 3186379471 3186379471 -1.33300000
5.73601198 -1.87925088 -2.81463766 7 0 10674 6.66000000 3186379491 3186379491 -25.00000000
39.85577393 -8.86500835 -0.71268648 25 1 10674 40.83600000 3186379491 3186379491 -1.00000000
39.83637619 -13.05902386 -1.22005701 18 2 10675 41.94000000 3186379494 3186379494 -1.66700000
8.90367317 -2.44412279 -2.58468866 2 3 10675 9.58800000 3186379494 3186379494 -15.63900000
11.73989391 -3.85080075 -2.47107792 3 4 10676 12.60000000 3186379496 3186379496 -11.31000000
39.60493088 -10.87927437 0.00000000 20 5 10676 41.07200000 3186379496 3186379496 0.00000000
39.59281158 -15.17447662 -0.49362850 32 6 10677 42.40400000 3186379498 3186379498 -0.66700000
14.15439224 -3.89079666 -2.28377509 3 7 10677 14.85600000 3186379498 3186379498 -8.84300000
16.50936699 -5.41842699 -2.21171427 3 8 10677 17.51600000 3186379500 3186379500 -7.25400000
39.59885406 -8.82962513 0.23580097 16 9 10677 40.57200000 3186379500 3186379500 0.33300000
39.50370026 -12.97287750 -0.24165937 23 10 10678 41.58000000 3186379503 3186379503 -0.33300000
18.15285683 -4.99331284 -2.02798963 3 11 10678 18.93600000 3186379503 3186379503 -6.14800000
20.29506111 -7.78647995 -2.02915502 15 12 10679 21.83200000 3186379505 3186379505 -5.33300000
39.17982864 -10.78456593 0.94560015 18 13 10679 40.64800000 3186379505 3186379505 1.33300000
39.09569931 -15.00743294 0.48752856 30 14 10680 41.88000000 3186379507 3186379507 0.66700000
20.40057564 -5.61925459 -1.47967434 28 15 10680 21.21200000 3186379507 3186379507 -4.00000000
20.37444687 -6.70271826 -1.75096345 30 16 10681 21.52000000 3186379510 3186379510 -4.66700000
39.03033066 -8.73146534 1.16397047 22 17 10681 40.01200000 3186379510 3186379510 1.66700000
39.25601196 -12.91431236 0.72134286 27 18 10681 41.33200000 3186379512 3186379512 1.00000000
20.43201637 -4.57084131 -1.34182918 24 19 10681 20.98000000 3186379512 3186379512 -3.66700000
20.40063667 -7.83924246 -1.27277946 20 20 10682 21.89200000 3186379514 3186379514 -3.33300000
40.11936569 -11.06578255 2.42369962 43 21 10682 41.68800000 3186379514 3186379514 3.33300000
39.65389633 -13.06054974 1.70091295 26 22 10683 41.78400000 3186379517 3186379517 2.33300000
20.46380806 -5.64820147 -0.98887944 20 23 10683 21.25200000 3186379517 3186379517 -2.66700000
20.43724632 -6.73523903 -1.12773514 29 24 10684 21.54800000 3186379519 3186379519 -3.00000000
95.20561218 -26.29551697 12.12746239 28 25 10684 99.51200000 3186379519 3186379519 7.00000000
48.93286514 -16.13563919 4.20621777 14 26 10685 51.69600000 3186379521 3186379521 4.66700000
36.26302338 -8.13897896 -1.51414800 6 27 10685 37.19600000 3186379521 3186379521 -2.33300000
39.12594986 -15.06607437 -1.46410370 24 28 10686 41.95200000 3186379524 3186379524 -2.00000000
39.72548676 -10.98699093 -0.95909274 16 31 10686 41.22800000 3186379526 3186379526 -1.33300000
5.72941685 -1.89926195 -2.81463766 7 0 10694 6.66000000 3186379547 3186379547 -25.00000000
39.84799194 -9.00936890 -0.71310532 17 1 10694 40.86000000 3186379547 3186379547 -1.00000000
39.88162994 -13.22820950 -1.22284973 27 2 10695 42.03600000 3186379549 3186379549 -1.66700000
8.90622044 -2.47828531 -2.58792353 2 3 10695 9.60000000 3186379549 3186379549 -15.63900000
11.73754883 -3.89546371 -2.47343135 3 4 10696 12.61200000 3186379552 3186379552 -11.31000000
39.48964691 -10.99599457 0.00000000 20 5 10696 40.99200000 3186379552 3186379552 0.00000000
39.55452347 -15.31836605 -0.49381474 32 6 10697 42.42000000 3186379554 3186379554 -0.66700000
14.14833927 -3.94230294 -2.28500485 3 7 10697 14.86400000 3186379554 3186379554 -8.84300000
16.50822449 -5.48515606 -2.21423960 3 8 10698 17.53600000 3186379556 3186379556 -7.25400000
39.60133362 -8.98266697 0.23601019 25 9 10698 40.60800000 3186379556 3186379556 0.33300000
39.41642380 -13.09681892 -0.24140365 23 10 10698 41.53600000 3186379559 3186379559 -0.33300000
18.15063858 -5.06092024 -2.02970338 4 11 10698 18.95200000 3186379559 3186379559 -6.14800000
20.29003716 -7.86591291 -2.03138566 12 12 10699 21.85600000 3186379561 3186379561 -5.33300000
39.00328064 -10.88257313 0.94225025 18 13 10699 40.50400000 3186379561 3186379561 1.33300000
39.03934479 -15.14236450 0.48748201 20 14 10700 41.87600000 3186379563 3186379563 0.66700000
20.39620972 -5.69472408 -1.48079038 28 15 10700 21.22800000 3186379563 3186379563 -4.00000000
20.36984062 -6.78009272 -1.75259078 33 16 10701 21.54000000 3186379565 3186379565 -4.66700000
39.13217545 -8.89779472 1.16792679 22 17 10701 40.14800000 3186379565 3186379565 1.66700000
39.28809738 -13.08464432 0.72280884 27 18 10702 41.41600000 3186379568 3186379568 1.00000000
20.43069649 -4.64924049 -1.34285247 24 19 10702 20.99600000 3186379568 3186379568 -3.66700000
20.39037895 -7.92119169 -1.27394223 23 20 10703 21.91200000 3186379570 3186379570 -3.33300000
39.53631210 -11.06105518 2.39090919 18 21 10703 41.12400000 3186379570 3186379570 3.33300000
39.67021561 -13.22729206 1.70368111 26 22 10704 41.85200000 3186379572 3186379572 2.33300000
20.46220779 -5.72855282 -0.98981005 22 23 10704 21.27200000 3186379572 3186379572 -2.66700000
20.43255997 -6.81285477 -1.12878191 32 24 10704 21.56800000 3186379575 3186379575 -3.00000000
96.60810852 -27.04618645 12.31806564 28 25 10704 101.07600000 3186379575 3186379575 7.00000000
49.28467941 -16.44261360 4.24136734 15 26 10705 52.12800000 3186379577 3186379577 4.66700000
36.28115082 -8.27617741 -1.51610196 6 27 10705 37.24400000 3186379577 3186379577 -2.33300000
39.05821991 -15.19676018 -1.46354532 24 28 10706 41.93600000 3186379579 3186379579 -2.00000000
39.80815887 -11.16708183 -0.96207041 16 31 10707 41.35600000 3186379582 3186379582 -1.33300000
5.72208214 -1.92124724 -2.81463766 7 0 10716 6.66000000 3186379602 3186379602 -25.00000000
39.68448639 -9.13270855 -0.71080160 25 1 10716 40.72800000 3186379602 3186379602 -1.00000000
39.87223434 -13.39525223 -1.22412968 18 2 10717 42.08000000 3186379605 3186379605 -1.66700000
8.90775967 -2.51560497 -2.59115839 2 3 10717 9.61200000 3186379605 3186379605 -15.63900000
11.72250462 -3.94050384 -2.47343135 3 4 10718 12.61200000 3186379607 3186379607 -11.31000000
39.50872040 -11.16494751 0.00000000 13 5 10718 41.05600000 3186379607 3186379607 0.00000000
38.89953613 -15.23672962 -0.48636445 31 6 10719 41.78000000 3186379609 3186379609 -0.66700000
14.15211391 -4.00197697 -2.28807926 4 7 10719 14.88400000 3186379609 3186379609 -8.84300000
16.49080276 -5.54976845 -2.21474457 3 8 10720 17.54000000 3186379612 3186379612 -7.25400000
39.47690964 -9.11396313 0.23547550 25 9 10720 40.51600000 3186379612 3186379612 0.33300000
39.68428802 -13.35523891 -0.24335645 15 10 10720 41.87200000 3186379614 3186379614 -0.33300000
18.13872528 -5.13274193 -2.03056002 3 11 10720 18.96000000 3186379614 3186379614 -6.14800000
20.28934860 -7.95539379 -2.03435969 10 12 10721 21.88800000 3186379616 3186379616 -5.33300000
39.08048248 -11.06602955 0.94513488 25 13 10721 40.62800000 3186379616 3186379616 1.33300000
39.10751343 -15.34181690 0.48906520 30 14 10722 42.01200000 3186379618 3186379618 0.66700000
20.38954926 -5.77734900 -1.48190653 26 15 10722 21.24400000 3186379618 3186379618 -4.00000000
20.36632347 -6.86589861 -1.75454354 35 16 10723 21.56400000 3186379621 3186379621 -4.66700000
39.16004562 -9.06240845 1.16978860 22 17 10723 40.21200000 3186379621 3186379621 1.66700000
39.40810013 -13.29292583 0.72595030 18 18 10724 41.59600000 3186379623 3186379623 1.00000000
20.42824936 -4.73125696 -1.34387577 26 19 10724 21.01200000 3186379623 3186379623 -3.66700000
20.38211250 -8.00818825 -1.27533758 20 20 10725 21.93600000 3186379625 3186379625 -3.33300000
39.29763794 -11.15715981 2.37904882 23 21 10725 40.92000000 3186379625 3186379625 3.33300000
39.62670898 -13.38207436 1.70400679 26 22 10726 41.86000000 3186379628 3186379628 2.33300000
20.45159149 -5.81035566 -0.99036843 19 23 10726 21.28400000 3186379628 3186379628 -2.66700000
20.42895699 -6.89892817 -1.13003802 29 24 10726 21.59200000 3186379630 3186379630 -3.00000000
97.60343170 -27.72941589 12.45845890 28 25 10726 102.22800000 3186379630 3186379630 7.00000000
36.28803635 -8.42446327 -1.51773024 6 27 10727 37.28400000 3186379632 3186379632 -2.33300000
39.01818085 -15.35393906 -1.46424329 24 28 10728 41.95600000 3186379635 3186379635 -2.00000000
39.82652283 -11.33736897 -0.96355927 16 31 10729 41.42000000 3186379637 3186379637 -1.33300000
5.71567965 -1.94021177 -2.81463766 9 0 10735 6.66000000 3186379658 3186379658 -25.00000000
39.62282562 -9.25697803 -0.71024311 25 1 10735 40.69600000 3186379658 3186379658 -1.00000000
39.74809265 -13.50039577 -1.22168612 27 2 10736 41.99600000 3186379660 3186379660 -1.66700000
8.89566517 -2.54407120 -2.59008002 2 3 10736 9.60800000 3186379660 3186379660 -15.63900000
11.71680069 -3.98187947 -2.47500014 3 4 10737 12.62000000 3186379662 3186379662 -11.31000000
39.39841461 -11.27499104 0.00000000 20 5 10737 40.98000000 3186379662 3186379662 0.00000000
39.70796967 -15.70546627 -0.49712083 32 6 10738 42.70400000 3186379665 3186379665 -0.66700000
14.14256477 -4.04997301 -2.28869438 2 7 10738 14.88800000 3186379665 3186379665 -8.84300000
16.49206924 -5.60793543 -2.21726990 3 8 10738 17.56000000 3186379667 3186379667 -7.25400000
39.52597427 -9.25617886 0.23594044 25 9 10738 40.59600000 3186379667 3186379667 0.33300000
39.63978195 -13.48676300 -0.24335645 15 10 10739 41.87200000 3186379669 3186379669 -0.33300000
18.13689804 -5.19724607 -2.03227353 4 11 10739 18.97600000 3186379669 3186379669 -6.14800000
20.28877640 -8.03289509 -2.03696227 7 12 10740 21.91600000 3186379671 3186379671 -5.33300000
39.12429428 -11.21871090 0.94708896 18 13 10740 40.71200000 3186379671 3186379671 1.33300000
39.16426086 -15.51413631 0.49041554 20 14 10741 42.12800000 3186379674 3186379674 0.66700000
20.38178635 -5.84823275 -1.48274362 30 15 10741 21.25600000 3186379674 3186379674 -4.00000000
20.35853767 -6.93854237 -1.75584531 33 16 10742 21.58000000 3186379676 3186379676 -4.66700000
39.14924240 -9.19679070 1.17037034 53 17 10742 40.23200000 3186379676 3186379676 1.66700000
39.42058182 -13.44289780 0.72699744 28 18 10743 41.65600000 3186379678 3186379678 1.00000000
20.43187714 -4.80354118 -1.34515500 28 19 10743 21.03200000 3186379678 3186379678 -3.66700000
20.37771606 -8.08456898 -1.27673292 20 20 10744 21.96000000 3186379681 3186379681 -3.33300000
39.17599106 -11.26313972 2.37393260 23 21 10744 40.83200000 3186379681 3186379681 3.33300000
39.45351410 -13.46950340 1.69847059 26 22 10745 41.72400000 3186379683 3186379683 2.33300000
20.45141029 -5.88366699 -0.99129903 19 23 10745 21.30400000 3186379683 3186379683 -2.66700000
20.42365074 -6.97665262 -1.13108468 29 24 10746 21.61200000 3186379685 3186379685 -3.00000000
97.99439240 -28.21053123 12.52085590 28 25 10746 102.74000000 3186379685 3186379685 7.00000000
48.32067490 -16.50618553 4.16846466 14 26 10746 51.23200000 3186379688 3186379688 4.66700000
36.41550446 -8.58142185 -1.52424335 6 27 10746 37.44400000 3186379688 3186379688 -2.33300000
39.07478714 -15.52605152 -1.46829164 16 28 10747 42.07200000 3186379690 3186379690 -2.00000000
51.42031097 -17.58505630 9.90833569 20 30 10748 55.24000000 3186379692 3186379692 10.33300000
39.85018921 -11.48709774 -0.96504813 16 31 10748 41.48400000 3186379692 3186379692 -1.33300000
5.71195841 -1.96232557 -2.81632805 8 0 10756 6.66400000 3186379713 3186379713 -25.00000000
39.67423630 -9.42247105 -0.71177894 17 1 10756 40.78400000 3186379713 3186379713 -1.00000000
39.66809464 -13.63559151 -1.22075522 18 2 10757 41.96400000 3186379715 3186379715 -1.66700000
8.90107822 -2.58094931 -2.59439325 3 3 10757 9.62400000 3186379715 3186379715 -15.63900000
11.70954514 -4.02734852 -2.47656918 4 4 10758 12.62800000 3186379717 3186379717 -11.31000000
39.46054459 -11.44941330 0.00000000 13 5 10758 41.08800000 3186379717 3186379717 0.00000000
39.77641296 -15.90137768 -0.49870402 32 6 10759 42.84000000 3186379720 3186379720 -0.66700000
14.14280891 -4.10618925 -2.29115391 4 7 10759 14.90400000 3186379720 3186379720 -8.84300000
16.48542213 -5.67638636 -2.21929026 3 8 10760 17.57600000 3186379722 3186379722 -7.25400000
39.59130859 -9.43198013 0.23654489 17 9 10760 40.70000000 3186379722 3186379722 0.33300000
39.55982971 -13.62154198 -0.24317047 23 10 10760 41.84000000 3186379724 3186379724 -0.33300000
18.14064217 -5.27034378 -2.03484392 4 11 10760 19.00000000 3186379724 3186379724 -6.14800000
20.29247665 -8.12051964 -2.04030824 12 12 10761 21.95200000 3186379727 3186379727 -5.33300000
38.99459457 -11.33635807 0.94494873 18 13 10761 40.62000000 3186379727 3186379727 1.33300000
39.13684082 -15.66946888 0.49078807 20 14 10762 42.16000000 3186379729 3186379729 0.66700000
20.37937164 -5.92846966 -1.48413873 28 15 10762 21.27600000 3186379729 3186379729 -4.00000000
20.35558319 -7.02091312 -1.75779808 30 16 10763 21.60400000 3186379731 3186379731 -4.66700000
39.16193771 -9.35136127 1.17176676 30 17 10763 40.28000000 3186379731 3186379731 1.66700000
39.42019272 -13.60425186 0.72790498 18 18 10764 41.70800000 3186379734 3186379734 1.00000000
20.42578125 -4.88117886 -1.34592247 28 19 10764 21.04400000 3186379734 3186379734 -3.66700000
20.38130379 -8.17257881 -1.27882588 20 20 10765 21.99600000 3186379736 3186379736 -3.33300000
39.19961929 -11.42564774 2.37788606 17 21 10765 40.90000000 3186379736 3186379736 3.33300000
39.46432495 -13.63489914 1.70107579 26 22 10766 41.78800000 3186379738 3186379738 2.33300000
20.45272446 -5.96529865 -0.99241579 20 23 10766 21.32800000 3186379738 3186379738 -2.66700000
20.42059517 -7.05929279 -1.13234079 29 24 10767 21.63600000 3186379741 3186379741 -3.00000000
94.54030609 -27.59179497 12.09236336 28 25 10767 99.22400000 3186379741 3186379741 7.00000000
48.15435028 -16.64670753 4.15935183 41 26 10767 51.12000000 3186379743 3186379743 4.66700000
36.46543121 -8.73438358 -1.52766287 6 27 10767 37.52800000 3186379743 3186379743 -2.33300000
39.11777878 -15.70938683 -1.47206080 25 28 10768 42.18000000 3186379745 3186379745 -2.00000000
51.67160416 -17.88279724 9.96932125 20 30 10769 55.58000000 3186379747 3186379747 10.33300000
39.94983673 -11.67458153 -0.96849108 17 31 10769 41.63200000 3186379747 3186379747 -1.33300000
5.71261501 -1.98263788 -2.81970906 7 0 10774 6.67200000 3186379768 3186379768 -25.00000000
39.78830338 -9.58170986 -0.71436191 25 1 10774 40.93200000 3186379768 3186379768 -1.00000000
39.77991867 -13.81392097 -1.22552598 27 2 10775 42.12800000 3186379770 3186379770 -1.66700000
8.88553429 -2.60673141 -2.59223676 2 3 10775 9.61600000 3186379770 3186379770 -15.63900000
11.69683552 -4.06411505 -2.47656918 3 4 10776 12.62800000 3186379773 3186379773 -11.31000000
39.53568649 -11.60599899 0.00000000 20 5 10776 41.20400000 3186379773 3186379773 0.00000000
39.53709030 -15.94994545 -0.49632922 32 6 10777 42.63600000 3186379775 3186379775 -0.66700000
14.14121532 -4.15394163 -2.29299855 5 7 10777 14.91600000 3186379775 3186379775 -8.84300000
16.48250008 -5.73336315 -2.22131062 3 8 10778 17.59200000 3186379777 3186379777 -7.25400000
39.47983170 -9.53659058 0.23605669 25 9 10778 40.61600000 3186379777 3186379777 0.33300000
39.56217575 -13.76152420 -0.24344943 23 10 10778 41.88800000 3186379780 3186379780 -0.33300000
18.13925743 -5.33179426 -2.03655744 4 11 10778 19.01600000 3186379780 3186379780 -6.14800000
20.29271507 -8.19466972 -2.04291058 15 12 10779 21.98000000 3186379782 3186379782 -5.33300000
39.13142776 -11.50958443 0.94913614 19 13 10779 40.80000000 3186379782 3186379782 1.33300000
39.17271805 -15.82680511 0.49185905 31 14 10780 42.25200000 3186379784 3186379784 0.66700000
20.38361359 -5.99922371 -1.48581290 26 15 10780 21.30000000 3186379784 3186379784 -4.00000000
20.34848404 -7.09007454 -1.75909996 33 16 10781 21.62000000 3186379787 3186379787 -4.66700000
39.14791107 -9.47810936 1.17223215 22 17 10781 40.29600000 3186379787 3186379787 1.66700000
39.52076721 -13.77805710 0.73055774 19 18 10782 41.86000000 3186379789 3186379789 1.00000000
20.42974281 -4.95002413 -1.34720159 26 19 10782 21.06400000 3186379789 3186379789 -3.66700000
20.38884354 -8.25004864 -1.28091896 16 20 10783 22.03200000 3186379791 3186379791 -3.33300000
39.51590729 -11.65265083 2.39928102 12 21 10783 41.26800000 3186379791 3186379791 3.33300000
39.38356018 -13.74564266 1.69944751 17 22 10784 41.74800000 3186379794 3186379794 2.33300000
20.44921112 -6.03404617 -0.99316031 20 23 10784 21.34400000 3186379794 3186379794 -2.66700000
20.41841698 -7.12643242 -1.13338745 29 24 10784 21.65600000 3186379796 3186379796 -3.00000000
93.98965454 -27.73397636 12.03240395 28 25 10784 98.73200000 3186379796 3186379796 7.00000000
47.60122299 -16.62309265 4.11606598 26 26 10785 50.58800000 3186379798 3186379798 4.66700000
36.51937103 -8.86870670 -1.53108227 6 27 10785 37.61200000 3186379798 3186379798 -2.33300000
39.11639786 -15.85171986 -1.47387552 16 28 10786 42.23200000 3186379800 3186379800 -2.00000000
51.54087448 -18.01906776 9.95497227 20 30 10787 55.50000000 3186379803 3186379803 10.33300000
39.98199081 -11.82043743 -0.97016603 17 31 10787 41.70400000 3186379803 3186379803 -1.33300000
5.70223904 -2.00136590 -2.81801867 6 0 10794 6.66800000 3186379823 3186379823 -25.00000000
39.61087418 -9.68539143 -0.71177894 25 1 10794 40.78400000 3186379823 3186379823 -1.00000000
39.81068039 -13.98051548 -1.22796965 27 2 10795 42.21200000 3186379826 3186379826 -1.66700000
8.88007355 -2.63882899 -2.59331489 3 3 10795 9.62000000 3186379826 3186379826 -15.63900000
11.68997860 -4.10752058 -2.47813797 3 4 10796 12.63600000 3186379828 3186379828 -11.31000000
39.34156799 -11.69833088 0.00000000 20 5 10796 41.04400000 3186379828 3186379828 0.00000000
39.51450729 -16.10144234 -0.49674830 32 6 10797 42.67200000 3186379830 3186379830 -0.66700000
14.13041782 -4.20440578 -2.29361367 4 7 10797 14.92000000 3186379830 3186379830 -8.84300000
16.47361565 -5.79481316 -2.22282577 3 8 10798 17.60400000 3186379833 3186379833 -7.25400000
39.50846100 -9.68958664 0.23642865 25 9 10798 40.68000000 3186379833 3186379833 0.33300000
39.54408264 -13.91015720 -0.24363542 15 10 10798 41.92000000 3186379835 3186379835 -0.33300000
18.13959312 -5.40075397 -2.03869939 3 11 10798 19.03600000 3186379835 3186379835 -6.14800000
20.28980064 -8.27598381 -2.04551315 15 12 10799 22.00800000 3186379837 3186379837 -5.33300000
39.06801987 -11.63925743 0.94857782 31 13 10799 40.77600000 3186379837 3186379837 1.33300000
39.27647400 -16.02843094 0.49386132 21 14 10800 42.42400000 3186379840 3186379840 0.66700000
20.38549042 -6.07717896 -1.48748708 26 15 10800 21.32400000 3186379840 3186379840 -4.00000000
20.34993172 -7.17033482 -1.76137817 30 16 10801 21.64800000 3186379842 3186379842 -4.66700000
38.98645782 -9.58320808 1.16839218 22 17 10801 40.16400000 3186379842 3186379842 1.66700000
39.44225693 -13.90528870 0.72999924 28 18 10802 41.82800000 3186379844 3186379844 1.00000000
20.42396927 -5.02416801 -1.34796906 28 19 10802 21.07600000 3186379844 3186379844 -3.66700000
20.39319038 -8.33476543 -1.28301191 20 20 10803 22.06800000 3186379847 3186379847 -3.33300000
40.17136383 -11.99850941 2.44160628 18 21 10803 41.99600000 3186379847 3186379847 3.33300000
39.27126694 -13.86042023 1.69667947 26 22 10804 41.68000000 3186379849 3186379849 2.33300000
20.44333839 -6.10996723 -0.99390483 20 23 10804 21.36000000 3186379849 3186379849 -2.66700000
20.42229271 -7.21186256 -1.13506222 29 24 10805 21.68800000 3186379851 3186379851 -3.00000000
64.91059113 -19.41238213 8.31880093 28 25 10805 68.26000000 3186379851 3186379851 7.00000000
47.54290771 -16.78915024 4.11606598 26 26 10805 50.58800000 3186379853 3186379853 4.66700000
36.53475571 -9.00761032 -1.53303623 6 27 10805 37.66000000 3186379853 3186379853 -2.33300000
39.10152054 -16.00482178 -1.47541118 25 28 10806 42.27600000 3186379856 3186379856 -2.00000000
39.94814682 -11.96222305 -0.97035211 17 31 10807 41.71200000 3186379858 3186379858 -1.33300000
5.69451237 -2.02324605 -2.81801867 8 0 10816 6.66800000 3186379879 3186379879 -25.00000000
39.75580978 -9.88276196 -0.71506000 17 1 10816 40.97200000 3186379879 3186379879 -1.00000000
39.79814529 -14.14800644 -1.22924960 18 2 10817 42.25600000 3186379881 3186379881 -1.66700000
8.88831615 -2.67846346 -2.59870648 6 3 10817 9.64000000 3186379881 3186379881 -15.63900000
11.68890285 -4.15763426 -2.48127604 3 4 10818 12.65200000 3186379883 3186379883 -11.31000000
39.67166901 -11.96247387 0.00000000 20 5 10818 41.43600000 3186379883 3186379883 0.00000000
39.60401917 -16.31551170 -0.49865744 32 6 10819 42.83600000 3186379886 3186379886 -0.66700000
14.12552166 -4.26205635 -2.29545832 3 7 10819 14.93200000 3186379886 3186379886 -8.84300000
16.46619606 -5.86334848 -2.22484612 3 8 10820 17.62000000 3186379888 3186379888 -7.25400000
39.21868896 -9.77831745 0.23491755 25 9 10820 40.42000000 3186379888 3186379888 0.33300000
39.73154449 -14.14776611 -0.24512327 18 10 10820 42.17600000 3186379890 3186379890 -0.33300000
18.14537430 -5.47841120 -2.04169822 4 11 10820 19.06400000 3186379890 3186379890 -6.14800000
20.28364754 -8.36445808 -2.04811549 15 12 10821 22.03600000 3186379893 3186379893 -5.33300000
39.17998886 -11.83659744 0.95239294 25 13 10821 40.94000000 3186379893 3186379893 1.33300000
39.12959671 -16.14403725 0.49279034 31 14 10822 42.33200000 3186379895 3186379895 0.66700000
20.38874245 -6.16349125 -1.48944020 28 15 10822 21.35200000 3186379895 3186379895 -4.00000000
20.35604477 -7.26047373 -1.76430726 30 16 10823 21.68400000 3186379897 3186379897 -4.66700000
38.94161606 -9.73089504 1.16815948 22 17 10823 40.15600000 3186379897 3186379897 1.66700000
39.81421280 -14.20853138 0.73788774 29 18 10824 42.28000000 3186379900 3186379900 1.00000000
20.41227150 -5.10448980 -1.34848082 26 19 10824 21.08400000 3186379900 3186379900 -3.66700000
20.37948990 -8.42063236 -1.28417468 16 20 10825 22.08800000 3186379902 3186379902 -3.33300000
40.17085648 -12.16655827 2.44439697 31 21 10825 42.04400000 3186379902 3186379902 3.33300000
39.00698853 -13.93580914 1.68756104 17 22 10826 41.45600000 3186379904 3186379904 2.33300000
20.45031738 -6.19769001 -0.99539381 19 23 10826 21.39200000 3186379904 3186379904 -2.66700000
20.42205429 -7.29607296 -1.13652766 29 24 10826 21.71600000 3186379906 3186379906 -3.00000000
64.75541687 -19.62482834 8.30807686 56 25 10826 68.17200000 3186379906 3186379906 7.00000000
45.58227158 -16.29389572 3.95170975 11 26 10827 48.56800000 3186379909 3186379909 4.66700000
36.63946533 -9.18280506 -1.53889799 7 27 10827 37.80400000 3186379909 3186379909 -2.33300000
39.05825043 -16.16248512 -1.47610915 25 28 10828 42.29600000 3186379911 3186379911 -2.00000000
39.95932007 -12.13295174 -0.97174788 17 31 10829 41.77200000 3186379913 3186379913 -1.33300000
5.69836473 -2.04479933 -2.82309008 7 0 10834 6.68000000 3186379934 3186379934 -25.00000000
39.75559235 -10.01542568 -0.71561849 17 1 10834 41.00400000 3186379934 3186379934 -1.00000000
39.74974060 -14.27161503 -1.22913325 37 2 10835 42.25200000 3186379936 3186379936 -1.66700000
8.87248802 -2.70412779 -2.59654999 3 3 10835 9.63200000 3186379936 3186379936 -15.63900000
11.69054890 -4.19963980 -2.48441386 3 4 10836 12.66800000 3186379939 3186379939 -11.31000000
39.66832733 -12.09754848 0.00000000 20 5 10836 41.47200000 3186379939 3186379939 0.00000000
39.49716568 -16.41682434 -0.49795899 32 6 10837 42.77600000 3186379941 3186379941 -0.66700000
14.13096428 -4.31218004 -2.29853272 4 7 10837 14.95200000 3186379941 3186379941 -8.84300000
16.47009659 -5.92310667 -2.22787642 3 8 10838 17.64400000 3186379943 3186379943 -7.25400000
39.42433929 -9.96125031 0.23633566 17 9 10838 40.66400000 3186379943 3186379943 0.33300000
18.13567924 -5.53771210 -2.04255486 4 11 10838 19.07200000 3186379946 3186379946 -6.14800000
20.28301048 -8.43884850 -2.05071783 15 12 10839 22.06400000 3186379948 3186379948 -5.33300000
38.79076767 -11.85212421 0.94383210 37 13 10839 40.57200000 3186379948 3186379948 1.33300000
39.14515305 -16.29455376 0.49362850 31 14 10840 42.40400000 3186379950 3186379950 0.66700000
20.39217567 -6.23451328 -1.49111438 28 15 10840 21.37600000 3186379950 3186379950 -4.00000000
20.35564041 -7.33249521 -1.76626003 35 16 10841 21.70800000 3186379953 3186379953 -4.66700000
39.13565826 -9.91011238 1.17490852 22 17 10841 40.38800000 3186379953 3186379953 1.66700000
39.15609741 -14.11250305 0.72650880 28 18 10842 41.62800000 3186379955 3186379955 1.00000000
20.41161346 -5.17251396 -1.34950411 28 19 10842 21.10000000 3186379955 3186379955 -3.66700000
20.38242149 -8.49690723 -1.28603518 16 20 10843 22.12000000 3186379957 3186379957 -3.33300000
39.20080948 -12.00733852 2.38765335 18 21 10843 41.06800000 3186379957 3186379957 3.33300000
39.15850830 -14.12881947 1.69602811 26 22 10844 41.66400000 3186379959 3186379959 2.33300000
20.44602776 -6.26658964 -0.99613827 19 23 10844 21.40800000 3186379959 3186379959 -2.66700000
20.42028999 -7.37189293 -1.13778365 29 24 10845 21.74000000 3186379962 3186379962 -3.00000000
64.65202332 -19.82781601 8.30320168 56 25 10845 68.13200000 3186379962 3186379962 7.00000000
44.17715836 -15.94831848 3.83421946 33 26 10845 47.12400000 3186379964 3186379964 4.66700000
