# .PCD v0.7 - Point Cloud Data file format
VERSION 0.7
FIELDS x y z intensity laser_id azimuth distance_m adjustedtime timestamp vertical_angle
SIZE 4 4 4 1 1 2 8 8 4 8
TYPE F F F U U U F U U F
COUNT 1 1 1 1 1 1 1 1 1 1
WIDTH 525
HEIGHT 1
VIEWPOINT 0 0 0 1 0 0 0
POINTS 525
DATA ascii
5.76018763 1.10715210 -2.73518538 6 0 7772 6.47200000 3179171491 3179171491 -25.00000000
39.68935776 11.74145508 -0.72245979 17 1 7772 41.39600000 3179171491 3179171491 -1.00000000
38.47643661 7.38850307 -1.14023256 24 2 7773 39.19600000 3179171493 3179171493 -1.66700000
8.62716293 2.09829068 -2.48548484 2 3 7773 9.22000000 3179171493 3179171493 -15.63900000
11.38673306 2.18449616 -2.31889081 2 4 7774 11.82400000 3179171496 3179171496 -11.31000000
40.45829391 9.83275032 0.00000000 20 5 7774 41.63600000 3179171496 3179171496 0.00000000
39.90811157 5.64423800 -0.46922877 19 6 7775 40.30800000 3179171498 3179171498 -0.66700000
13.35836411 3.24407077 -2.13865638 2 7 7775 13.91200000 3179171498 3179171498 -8.84300000
15.69731903 3.00862312 -2.03443360 2 8 7775 16.11200000 3179171500 3179171500 -7.25400000
40.45660782 11.94540024 0.24516977 26 9 7775 42.18400000 3179171500 3179171500 0.33300000
39.96915436 7.65344667 -0.23652165 22 10 7776 40.69600000 3179171503 3179171503 -0.33300000
16.85065651 4.08905745 -1.86777258 2 11 7776 17.44000000 3179171503 3179171503 -6.14800000
19.28832054 2.72109628 -1.81835771 6 12 7777 19.56400000 3179171505 3179171505 -5.33300000
40.08328629 9.71938705 0.95974410 13 13 7777 41.25600000 3179171505 3179171505 1.33300000
39.49915695 5.56530523 0.46438608 25 14 7778 39.89200000 3179171507 3179171507 0.66700000
20.58078766 4.98662186 -1.48079038 9 15 7778 21.22800000 3179171507 3179171507 -4.00000000
20.22217751 3.86124468 -1.68066454 5 16 7779 20.65600000 3179171510 3179171510 -4.66700000
40.41014099 11.90101528 1.22599149 24 17 7779 42.14400000 3179171510 3179171510 1.66700000
39.91274261 7.62098312 0.70926577 26 18 7779 40.64000000 3179171512 3179171512 1.00000000
20.56664848 6.05699444 -1.37406373 30 19 7779 21.48400000 3179171512 3179171512 -3.66700000
20.59041595 2.89379430 -1.21091950 19 20 7780 20.82800000 3179171514 3179171514 -3.33300000
40.08185196 9.69682026 2.40160680 24 21 7780 41.30800000 3179171514 3179171514 3.33300000
39.77846527 7.58095264 1.64978468 25 22 7781 40.52800000 3179171517 3179171517 2.33300000
20.63849640 4.98916483 -0.98906559 19 23 7781 21.25600000 3179171517 3179171517 -2.66700000
20.60505676 3.92317104 -1.09926438 31 24 7782 21.00400000 3179171519 3179171519 -3.00000000
42.25041580 10.20584106 5.33690214 17 25 7782 43.79200000 3179171519 3179171519 7.00000000
40.70039368 7.74193144 3.38215852 27 26 7783 41.56800000 3179171521 3179171521 4.66700000
20.66884804 6.07141495 -0.87764895 25 27 7783 21.56000000 3179171521 3179171521 -2.33300000
20.66622353 2.88973713 -0.72870147 6 28 7784 20.88000000 3179171523 3179171523 -2.00000000
96.16137695 18.27419662 17.84648514 28 30 7784 99.49600000 3179171526 3179171526 10.33300000
38.73452377 9.34224796 -0.92717570 25 31 7784 39.85600000 3179171526 3179171526 -1.33300000
5.76401711 1.08703864 -2.73518538 6 0 7792 6.47200000 3179171546 3179171546 -25.00000000
39.70322800 11.59499359 -0.72197115 26 1 7792 41.36800000 3179171546 3179171546 -1.00000000
38.49413681 7.25266933 -1.13999987 16 2 7793 39.18800000 3179171549 3179171549 -1.66700000
8.62319660 2.06547165 -2.48224998 2 3 7793 9.20800000 3179171549 3179171549 -15.63900000
11.40199852 2.14618683 -2.32045984 2 4 7794 11.83200000 3179171551 3179171551 -11.31000000
40.46513748 9.68494701 0.00000000 20 5 7794 41.60800000 3179171551 3179171551 0.00000000
40.00188828 5.52225924 -0.47011352 29 6 7794 40.38400000 3179171553 3179171553 -0.66700000
13.37673664 3.20159483 -2.13988614 2 7 7794 13.92000000 3179171553 3179171553 -8.84300000
15.70772457 2.95381093 -2.03443360 2 8 7795 16.11200000 3179171556 3179171556 -7.25400000
40.45197678 11.79067612 0.24489079 17 9 7795 42.13600000 3179171556 3179171556 0.33300000
39.97597122 7.51018906 -0.23640540 22 10 7796 40.67600000 3179171558 3179171558 -0.33300000
16.86482811 4.03021288 -1.86777258 4 11 7796 17.44000000 3179171558 3179171558 -6.14800000
19.29770088 2.65375090 -1.81835771 6 12 7797 19.56400000 3179171560 3179171560 -5.33300000
40.14808655 9.58684063 0.96048856 13 13 7797 41.28800000 3179171560 3179171560 1.33300000
39.95026016 5.48671246 0.46946159 17 14 7798 40.32800000 3179171563 3179171563 0.66700000
20.58254433 4.91104698 -1.47967434 15 15 7798 21.21200000 3179171563 3179171563 -4.00000000
20.23553276 3.79063272 -1.68066454 5 16 7799 20.65600000 3179171565 3179171565 -4.66700000
40.41304398 11.74872398 1.22482789 24 17 7799 42.10400000 3179171565 3179171565 1.66700000
39.99020767 7.49118805 0.71017331 17 18 7799 40.69200000 3179171567 3179171567 1.00000000
20.57233429 5.98070908 -1.37304044 30 19 7799 21.46800000 3179171567 3179171567 -3.66700000
20.57269669 2.81810904 -1.20929158 19 20 7800 20.80000000 3179171570 3179171570 -3.33300000
40.05718613 9.54296780 2.39811826 18 21 7800 41.24800000 3179171570 3179171570 3.33300000
39.77325439 7.43617773 1.64848208 25 22 7801 40.49600000 3179171572 3179171572 2.33300000
20.63246346 4.91154099 -0.98794883 20 23 7801 21.23200000 3179171572 3179171572 -2.66700000
20.60684586 3.84902167 -1.09863639 35 24 7802 20.99200000 3179171574 3179171574 -3.00000000
42.42869186 10.09229088 5.35493898 61 25 7802 43.94000000 3179171574 3179171574 7.00000000
40.73892975 7.60200739 3.38313484 27 26 7803 41.58000000 3179171576 3179171576 4.66700000
20.66688347 5.99255180 -0.87667197 25 27 7803 21.53600000 3179171576 3179171576 -2.33300000
20.66826248 2.81650138 -0.72842228 6 28 7804 20.87200000 3179171579 3179171579 -2.00000000
97.44631958 18.14858246 18.07248878 28 30 7805 100.75600000 3179171581 3179171581 10.33300000
38.76072311 9.19836998 -0.92698961 25 31 7805 39.84800000 3179171581 3179171581 -1.33300000
5.77134132 1.06757116 -2.73687577 6 0 7812 6.47600000 3179171602 3179171602 -25.00000000
39.65891647 11.43196297 -0.72043532 17 1 7812 41.28000000 3179171602 3179171602 -1.00000000
38.69614792 7.15095139 -1.14523613 24 2 7813 39.36800000 3179171604 3179171604 -1.66700000
8.63410378 2.03624272 -2.48332834 2 3 7813 9.21200000 3179171604 3179171604 -15.63900000
11.41327763 2.10708547 -2.32124424 2 4 7814 11.83600000 3179171606 3179171606 -11.31000000
40.46365738 9.53538132 0.00000000 20 5 7814 41.57200000 3179171606 3179171606 0.00000000
40.04074097 5.38525867 -0.47034633 19 6 7814 40.40400000 3179171609 3179171609 -0.66700000
13.38783073 3.15488195 -2.13988614 2 7 7814 13.92000000 3179171609 3179171609 -8.84300000
15.72574425 2.90040207 -2.03544378 2 8 7815 16.12000000 3179171611 3179171611 -7.25400000
40.45444870 11.63834190 0.24465832 26 9 7815 42.09600000 3179171611 3179171611 0.33300000
39.89966583 7.35175610 -0.23580097 22 10 7816 40.57200000 3179171613 3179171613 -0.33300000
16.88266373 3.97222996 -1.86820090 2 11 7816 17.44400000 3179171613 3179171613 -6.14800000
19.31079483 2.58690190 -1.81872952 6 12 7817 19.56800000 3179171616 3179171616 -5.33300000
39.93216705 9.38806725 0.95453316 19 13 7817 41.03200000 3179171616 3179171616 1.33300000
40.08810043 5.36313772 0.47085854 26 14 7818 40.44800000 3179171618 3179171618 0.66700000
20.58013916 4.83460760 -1.47827923 11 15 7818 21.19200000 3179171618 3179171618 -4.00000000
20.27608871 3.72501707 -1.68294275 5 16 7819 20.68400000 3179171620 3179171620 -4.66700000
40.41153336 11.59545422 1.22354782 24 17 7819 42.06000000 3179171620 3179171620 1.66700000
39.93350601 7.33637476 0.70870733 17 18 7819 40.60800000 3179171623 3179171623 1.00000000
20.57006264 5.90225601 -1.37150550 28 19 7819 21.44400000 3179171623 3179171623 -3.66700000
20.57845116 2.74575162 -1.20905912 22 20 7820 20.79600000 3179171625 3179171625 -3.33300000
40.11358261 9.40855598 2.39951372 18 21 7820 41.27200000 3179171625 3179171625 3.33300000
39.73607254 7.28576517 1.64587677 25 22 7821 40.43200000 3179171627 3179171627 2.33300000
20.63392067 4.83584309 -0.98720431 22 23 7821 21.21600000 3179171627 3179171627 -2.66700000
20.61229706 3.77562761 -1.09821773 35 24 7822 20.98400000 3179171629 3179171629 -3.00000000
41.78718185 9.78570747 5.26963043 17 25 7822 43.24000000 3179171629 3179171629 7.00000000
40.69462585 7.44683838 3.37727666 27 26 7823 41.50800000 3179171632 3179171632 4.66700000
20.66846275 5.91487646 -0.87585783 25 27 7823 21.51600000 3179171632 3179171632 -2.33300000
20.68193245 2.74486446 -0.72856188 6 28 7824 20.87600000 3179171634 3179171634 -2.00000000
101.63566589 18.56196976 18.83731842 28 30 7825 105.02000000 3179171636 3179171636 10.33300000
38.78091431 9.06028461 -0.92671043 25 31 7825 39.83600000 3179171636 3179171636 -1.33300000
5.77146530 1.04677200 -2.73518538 7 0 7832 6.47200000 3179171657 3179171657 -25.00000000
39.74858856 11.30768394 -0.72134286 17 1 7832 41.33200000 3179171657 3179171657 -1.00000000
38.81529236 7.03294182 -1.14802885 24 2 7833 39.46400000 3179171659 3179171659 -1.66700000
8.64866257 2.00783372 -2.48548484 2 3 7833 9.22000000 3179171659 3179171659 -15.63900000
11.42056370 2.06723285 -2.32124424 2 4 7834 11.83600000 3179171662 3179171662 -11.31000000
40.45383453 9.38413525 0.00000000 20 5 7834 41.52800000 3179171662 3179171662 0.00000000
40.09498978 5.25013113 -0.47076541 19 6 7834 40.44000000 3179171664 3179171664 -0.66700000
13.40646172 3.10991669 -2.14111590 2 7 7834 13.92800000 3179171664 3179171664 -8.84300000
15.74358177 2.84690332 -2.03645396 2 8 7835 16.12800000 3179171666 3179171666 -7.25400000
40.44480515 11.48285675 0.24435610 17 9 7835 42.04400000 3179171666 3179171666 0.33300000
39.84242249 7.19750309 -0.23531276 22 10 7836 40.48800000 3179171669 3179171669 -0.33300000
16.90417671 3.91506886 -1.86905766 2 11 7836 17.45200000 3179171669 3179171669 -6.14800000
19.31575775 2.51896381 -1.81835771 6 12 7837 19.56400000 3179171671 3179171671 -5.33300000
40.04261398 9.26665211 0.95639420 12 13 7837 41.11200000 3179171671 3179171671 1.33300000
40.08277893 5.22007227 0.47057915 26 14 7838 40.42400000 3179171673 3179171673 0.66700000
20.57745171 4.75824547 -1.47688401 33 15 7838 21.17200000 3179171673 3179171673 -4.00000000
20.28504562 3.65351081 -1.68261731 5 16 7839 20.68000000 3179171676 3179171676 -4.66700000
40.39405823 11.43798065 1.22180247 24 17 7839 42.00000000 3179171676 3179171676 1.66700000
39.94312668 7.19410038 0.70842808 17 18 7839 40.59200000 3179171678 3179171678 1.00000000
20.57517624 5.82606697 -1.37048221 26 19 7839 21.42800000 3179171678 3179171678 -3.66700000
20.58395004 2.67338824 -1.20882654 19 20 7840 20.79200000 3179171680 3179171680 -3.33300000
39.99443436 9.23344231 2.39044404 18 21 7840 41.11600000 3179171680 3179171680 3.33300000
39.74945831 7.14489460 1.64538825 25 22 7841 40.42000000 3179171682 3179171682 2.33300000
20.63899612 4.76109362 -0.98664594 22 23 7841 21.20400000 3179171682 3179171682 -2.66700000
20.60569382 3.70012426 -1.09717095 35 24 7842 20.96400000 3179171685 3179171685 -3.00000000
41.90232849 9.65851021 5.27986765 25 25 7842 43.32400000 3179171685 3179171685 7.00000000
40.77923584 7.31530142 3.38215852 18 26 7843 41.56800000 3179171687 3179171687 4.66700000
20.66205978 5.83509064 -0.87471807 27 27 7843 21.48800000 3179171687 3179171687 -2.33300000
20.71121025 2.67521477 -0.72925991 6 28 7844 20.89600000 3179171689 3179171689 -2.00000000
101.66885376 18.20153427 18.83157730 28 30 7845 104.98800000 3179171692 3179171692 10.33300000
38.80451202 8.92306614 -0.92652434 20 31 7845 39.82800000 3179171692 3179171692 -1.33300000
5.77865362 1.02725399 -2.73687577 6 0 7852 6.47600000 3179171712 3179171712 -25.00000000
39.93798828 11.21102142 -0.72406542 26 1 7852 41.48800000 3179171712 3179171712 -1.00000000
38.87897491 6.90439939 -1.14919245 16 2 7853 39.50400000 3179171715 3179171715 -1.66700000
8.64435291 1.97505820 -2.48224998 2 3 7853 9.20800000 3179171715 3179171715 -15.63900000
11.42384815 2.02666974 -2.32045984 2 4 7854 11.83200000 3179171717 3179171717 -11.31000000
40.43564987 9.23129463 0.00000000 20 5 7854 41.47600000 3179171717 3179171717 0.00000000
40.12497330 5.11165810 -0.47090510 19 6 7854 40.45200000 3179171719 3179171719 -0.66700000
13.42494297 3.06485987 -2.14234567 2 7 7854 13.93600000 3179171719 3179171719 -8.84300000
15.74560928 2.79054594 -2.03544378 2 8 7855 16.12000000 3179171722 3179171722 -7.25400000
40.45382690 11.33297539 0.24417011 17 9 7855 42.01200000 3179171722 3179171722 0.33300000
39.86336517 7.05768585 -0.23528951 22 10 7856 40.48400000 3179171724 3179171724 -0.33300000
16.92549324 3.85780597 -1.86991441 2 11 7856 17.46000000 3179171724 3179171724 -6.14800000
19.33628654 2.45302773 -1.81947303 6 12 7857 19.57600000 3179171726 3179171726 -5.33300000
39.71990204 9.04601383 0.94792646 19 13 7857 40.74800000 3179171726 3179171726 1.33300000
39.96584320 5.06303406 0.46899596 25 14 7858 40.28800000 3179171728 3179171728 0.66700000
20.58615303 4.68461657 -1.47632599 24 15 7858 21.16400000 3179171728 3179171728 -4.00000000
20.30160141 3.58337355 -1.68294275 5 16 7859 20.68400000 3179171731 3179171731 -4.66700000
40.39907837 11.28722668 1.22075522 24 17 7859 41.96400000 3179171731 3179171731 1.66700000
39.73168564 7.01291847 0.70423949 17 18 7859 40.35200000 3179171733 3179171733 1.00000000
20.57616615 5.74883986 -1.36920297 26 19 7859 21.40800000 3179171733 3179171733 -3.66700000
20.57730865 2.59951878 -1.20789635 22 20 7860 20.77600000 3179171735 3179171735 -3.33300000
40.24448395 9.14332294 2.40346718 18 21 7860 41.34000000 3179171735 3179171735 3.33300000
39.81351852 7.01303291 1.64701653 25 22 7861 40.46000000 3179171738 3179171738 2.33300000
20.63990211 4.68548298 -0.98590147 22 23 7861 21.18800000 3179171738 3179171738 -2.66700000
20.61848259 3.62817430 -1.09717095 35 24 7862 20.96400000 3179171740 3179171740 -3.00000000
41.38211823 9.38659668 5.21015835 25 25 7862 42.75200000 3179171740 3179171740 7.00000000
41.11079025 7.22674894 3.40754414 27 26 7863 41.88000000 3179171742 3179171742 4.66700000
20.65150261 5.75434875 -0.87341541 25 27 7863 21.45600000 3179171742 3179171742 -2.33300000
20.73232079 2.60439777 -0.72967869 6 28 7864 20.90800000 3179171745 3179171745 -2.00000000
102.04572296 17.90160751 18.88969421 28 30 7865 105.31200000 3179171747 3179171747 10.33300000
38.87052536 8.79550171 -0.92736185 30 31 7865 39.86400000 3179171747 3179171747 -1.33300000
5.77863264 1.00645435 -2.73518538 7 0 7872 6.47200000 3179171768 3179171768 -25.00000000
39.99615097 11.07688046 -0.72441447 26 1 7872 41.50800000 3179171768 3179171768 -1.00000000
38.91465759 6.77070045 -1.14954150 16 2 7873 39.51600000 3179171770 3179171770 -1.66700000
8.66998577 1.94909608 -2.48764133 2 3 7873 9.22800000 3179171770 3179171770 -15.63900000
11.43858147 1.98812413 -2.32202864 2 4 7874 11.84000000 3179171772 3179171772 -11.31000000
40.43250275 9.08220196 0.00000000 20 5 7874 41.44000000 3179171772 3179171772 0.00000000
40.03539658 4.95829153 -0.46964785 19 6 7874 40.34400000 3179171775 3179171775 -0.66700000
13.43170261 3.01711321 -2.14173079 2 7 7874 13.93200000 3179171775 3179171775 -8.84300000
15.75525475 2.73556638 -2.03544378 2 8 7875 16.12000000 3179171777 3179171777 -7.25400000
40.42374420 11.17251587 0.24375166 26 9 7875 41.94000000 3179171777 3179171777 0.33300000
39.78134918 6.90003681 -0.23466183 22 10 7876 40.37600000 3179171779 3179171779 -0.33300000
16.94273758 3.79957175 -1.87034285 4 11 7876 17.46400000 3179171779 3179171779 -6.14800000
19.34473038 2.38551641 -1.81947303 6 12 7877 19.57600000 3179171781 3179171781 -5.33300000
39.91512680 8.94403458 0.95183462 25 13 7877 40.91600000 3179171781 3179171781 1.33300000
39.95945358 4.92056370 0.46871656 17 14 7878 40.26400000 3179171784 3179171784 0.66700000
20.58291054 4.60837030 -1.47493088 26 15 7878 21.14400000 3179171784 3179171784 -4.00000000
20.33755684 3.51656151 -1.68489552 5 16 7879 20.70800000 3179171786 3179171786 -4.66700000
40.35728836 11.12382698 1.21831155 24 17 7879 41.88000000 3179171786 3179171786 1.66700000
39.70863342 6.86600924 0.70340180 25 18 7879 40.30400000 3179171788 3179171788 1.00000000
20.55762482 5.66637373 -1.36664474 26 19 7879 21.36800000 3179171788 3179171788 -3.66700000
20.57040405 2.52572799 -1.20696604 21 20 7880 20.76000000 3179171791 3179171791 -3.33300000
40.00725937 8.94268227 2.38742065 18 21 7880 41.06400000 3179171791 3179171791 3.33300000
39.72354126 6.85430717 1.64229453 25 22 7881 40.34400000 3179171793 3179171793 2.33300000
20.64053345 4.60992384 -0.98515695 22 23 7881 21.17200000 3179171793 3179171793 -2.66700000
20.61527634 3.55346632 -1.09633362 35 24 7882 20.94800000 3179171795 3179171795 -3.00000000
42.29035187 9.43751526 5.32032824 25 25 7882 43.65600000 3179171795 3179171795 7.00000000
41.16326904 7.08793688 3.40982223 27 26 7883 41.90800000 3179171798 3179171798 4.66700000
20.65604782 5.67798901 -0.87276411 23 27 7883 21.44000000 3179171798 3179171798 -2.33300000
20.74128532 2.53201246 -0.72967869 6 28 7884 20.90800000 3179171800 3179171800 -2.00000000
105.81981659 18.20218468 19.57703590 28 30 7884 109.14400000 3179171802 3179171802 10.33300000
38.95412064 8.67872810 -0.92866457 20 31 7884 39.92000000 3179171802 3179171802 -1.33300000
5.78568411 0.98688662 -2.73687577 7 0 7892 6.47600000 3179171823 3179171823 -25.00000000
40.05386353 10.94247055 -0.72476351 17 1 7892 41.52800000 3179171823 3179171823 -1.00000000
38.93805313 6.63482141 -1.14954150 16 2 7893 39.51600000 3179171825 3179171825 -1.66700000
8.67673588 1.91882026 -2.48764133 2 3 7893 9.22800000 3179171825 3179171825 -15.63900000
11.45318508 1.94950032 -2.32359767 2 4 7894 11.84800000 3179171828 3179171828 -11.31000000
40.42490005 8.93238068 0.00000000 20 5 7894 41.40000000 3179171828 3179171828 0.00000000
40.08904266 4.81581450 -0.47006693 19 6 7895 40.38000000 3179171830 3179171830 -0.66700000
13.45038986 2.96956754 -2.14296055 2 7 7895 13.94000000 3179171830 3179171830 -8.84300000
15.77253151 2.68188405 -2.03645396 2 8 7895 16.12800000 3179171832 3179171832 -7.25400000
40.41233063 11.01766586 0.24344943 26 9 7895 41.88800000 3179171832 3179171832 0.33300000
39.72632599 6.74773598 -0.23419687 15 10 7896 40.29600000 3179171834 3179171834 -0.33300000
16.96366501 3.74212098 -1.87119961 2 11 7896 17.47200000 3179171834 3179171834 -6.14800000
19.36480331 2.31939721 -1.82058847 6 12 7897 19.58800000 3179171837 3179171837 -5.33300000
40.05935287 8.82961178 0.95453316 25 13 7897 41.03200000 3179171837 3179171837 1.33300000
39.92078781 4.77439928 0.46806467 17 14 7898 40.20800000 3179171839 3179171839 0.66700000
20.58328438 4.53306150 -1.47381473 26 15 7898 21.12800000 3179171839 3179171839 -4.00000000
20.35363770 3.44621420 -1.68522096 5 16 7899 20.71200000 3179171841 3179171841 -4.66700000
40.25311661 10.94407368 1.21400619 24 17 7899 41.73200000 3179171841 3179171841 1.66700000
39.84788895 6.73976612 0.70542628 17 18 7900 40.42000000 3179171844 3179171844 1.00000000
20.56284523 5.58680153 -1.36562133 26 19 7900 21.35200000 3179171844 3179171844 -3.66700000
20.57116508 2.45296288 -1.20650101 18 20 7900 20.75200000 3179171846 3179171846 -3.33300000
40.13963318 8.82527065 2.39346719 18 21 7900 41.16800000 3179171846 3179171846 3.33300000
39.78663254 6.72226286 1.64392281 25 22 7901 40.38400000 3179171848 3179171848 2.33300000
20.63308525 4.53270292 -0.98404020 20 23 7901 21.14800000 3179171848 3179171848 -2.66700000
20.61573792 3.47948956 -1.09570563 35 24 7902 20.93600000 3179171851 3179171851 -3.00000000
40.89986038 8.97745132 5.14142370 24 25 7902 42.18800000 3179171851 3179171851 7.00000000
41.36859894 6.97469616 3.42479348 27 26 7903 42.09200000 3179171853 3179171853 4.66700000
20.65259743 5.59957647 -0.87178713 25 27 7903 21.41600000 3179171853 3179171853 -2.33300000
20.78572655 2.46383142 -0.73093504 6 28 7904 20.94400000 3179171855 3179171855 -2.00000000
104.50513458 17.60068321 19.32233047 28 30 7904 107.72400000 3179171858 3179171858 10.33300000
39.03105545 8.55297184 -0.92978120 20 31 7904 39.96800000 3179171858 3179171858 -1.33300000
5.78534937 0.96709746 -2.73518538 7 0 7911 6.47200000 3179171878 3179171878 -25.00000000
39.37941360 10.61800861 -0.71191859 25 1 7911 40.79200000 3179171878 3179171878 -1.00000000
38.95589828 6.50500345 -1.14942515 16 2 7912 39.51200000 3179171881 3179171881 -1.66700000
8.67928791 1.88921738 -2.48656321 2 3 7912 9.22400000 3179171881 3179171881 -15.63900000
11.45958710 1.91150939 -2.32359767 4 4 7913 11.84800000 3179171883 3179171883 -11.31000000
40.31749725 8.76852512 0.00000000 20 5 7913 41.26000000 3179171883 3179171883 0.00000000
40.09684753 4.68192005 -0.46997380 29 6 7914 40.37200000 3179171885 3179171885 -0.66700000
13.46016312 2.92494798 -2.14296055 2 7 7914 13.94000000 3179171885 3179171885 -8.84300000
15.78916550 2.63086987 -2.03746414 2 8 7914 16.13600000 3179171887 3179171887 -7.25400000
40.35594177 10.85864925 0.24289149 26 9 7914 41.79200000 3179171887 3179171887 0.33300000
39.69718933 6.60742378 -0.23389466 15 10 7915 40.24400000 3179171890 3179171890 -0.33300000
16.97598076 3.68584681 -1.87119961 2 11 7915 17.47200000 3179171890 3179171890 -6.14800000
19.36447525 2.25424743 -1.81984484 6 12 7916 19.58000000 3179171892 3179171892 -5.33300000
39.87738037 8.65093994 0.94950831 25 13 7916 40.81600000 3179171892 3179171892 1.33300000
39.90461731 4.63829660 0.46769217 17 14 7917 40.17600000 3179171894 3179171894 0.66700000
20.57870483 4.46055365 -1.47241962 26 15 7917 21.10800000 3179171894 3179171894 -4.00000000
20.31775856 3.37087011 -1.68131542 7 16 7918 20.66400000 3179171897 3179171897 -4.66700000
40.09223938 10.75768375 1.20807171 24 17 7918 41.52800000 3179171897 3179171897 1.66700000
39.89648438 6.61912918 0.70591491 17 18 7918 40.44800000 3179171899 3179171899 1.00000000
20.55330849 5.51493263 -1.36383057 26 19 7918 21.32400000 3179171899 3179171899 -3.66700000
20.57125282 2.38381362 -1.20603585 21 20 7919 20.74400000 3179171901 3179171901 -3.33300000
40.10623169 8.67860126 2.38974643 30 21 7919 41.10400000 3179171901 3179171901 3.33300000
39.72195816 6.57592773 1.64034057 25 22 7920 40.29600000 3179171904 3179171904 2.33300000
20.62847519 4.46003437 -0.98310959 23 23 7920 21.12800000 3179171904 3179171904 -2.66700000
20.61140060 3.40849924 -1.09486818 38 24 7921 20.92000000 3179171906 3179171906 -3.00000000
40.87895584 8.83087540 5.13508654 24 25 7921 42.13600000 3179171906 3179171906 7.00000000
41.55670166 6.86476469 3.43846273 27 26 7922 42.26000000 3179171908 3179171908 4.66700000
20.65174866 5.52589369 -0.87097299 25 27 7922 21.39600000 3179171908 3179171908 -2.33300000
20.82952309 2.39900637 -0.73219144 6 28 7923 20.98000000 3179171911 3179171911 -2.00000000
104.37268066 17.22264290 19.28717422 28 30 7923 107.52800000 3179171913 3179171913 10.33300000
39.06311035 8.42433643 -0.92987424 15 31 7923 39.97200000 3179171913 3179171913 -1.33300000
5.78885508 0.94588661 -2.73518538 7 0 7932 6.47200000 3179171934 3179171934 -25.00000000
39.32916641 10.44998264 -0.71031296 25 1 7932 40.70000000 3179171934 3179171934 -1.00000000
38.95974731 6.35895872 -1.14884341 16 2 7933 39.49200000 3179171936 3179171936 -1.66700000
8.68238735 1.85658801 -2.48548484 2 3 7933 9.22000000 3179171936 3179171936 -15.63900000
11.46651554 1.86949515 -2.32359767 4 4 7934 11.84800000 3179171939 3179171939 -11.31000000
40.16942596 8.58225060 0.00000000 20 5 7934 41.07600000 3179171939 3179171939 0.00000000
40.12487030 4.54327726 -0.47011352 29 6 7934 40.38400000 3179171941 3179171941 -0.66700000
13.47029114 2.87794542 -2.14296055 2 7 7934 13.94000000 3179171941 3179171941 -8.84300000
15.80261898 2.57361984 -2.03796911 2 8 7935 16.14000000 3179171943 3179171943 -7.25400000
40.31814194 10.69016171 0.24242654 25 9 7935 41.71200000 3179171943 3179171943 0.33300000
39.86326981 6.48500395 -0.23473157 15 10 7936 40.38800000 3179171946 3179171946 -0.33300000
16.99715614 3.62526107 -1.87205637 2 11 7936 17.48000000 3179171946 3179171946 -6.14800000
19.38448143 2.18459582 -1.82096016 6 12 7937 19.59200000 3179171948 3179171948 -5.33300000
39.97139740 8.51805973 0.95099717 19 13 7937 40.88000000 3179171948 3179171948 1.33300000
39.77031326 4.47501278 0.46592271 25 14 7938 40.02400000 3179171950 3179171950 0.66700000
20.57930374 4.38177490 -1.47130358 26 15 7938 21.09200000 3179171950 3179171950 -4.00000000
20.32210541 3.29510307 -1.68066454 13 16 7939 20.65600000 3179171952 3179171952 -4.66700000
40.12366867 10.60862255 1.20783901 16 17 7939 41.52000000 3179171952 3179171952 1.66700000
39.86520767 6.46389532 0.70493758 25 18 7939 40.39200000 3179171955 3179171955 1.00000000
20.56566429 5.43752289 -1.36331892 28 19 7939 21.31600000 3179171955 3179171955 -3.66700000
20.56794739 2.30706477 -1.20533824 21 20 7940 20.73200000 3179171957 3179171957 -3.33300000
40.04402924 8.51162052 2.38416505 23 21 7940 41.00800000 3179171957 3179171957 3.33300000
39.61954117 6.40986967 1.63513005 25 22 7941 40.16800000 3179171959 3179171959 2.33300000
20.62514114 4.38024664 -0.98217899 23 23 7941 21.10800000 3179171959 3179171959 -2.66700000
20.60798073 3.33038259 -1.09403086 38 24 7942 20.90400000 3179171962 3179171962 -3.00000000
40.75181580 8.64719963 5.11509991 24 25 7942 41.97200000 3179171962 3179171962 7.00000000
41.30607986 6.66793156 3.41568065 18 26 7943 41.98000000 3179171964 3179171964 4.66700000
20.65254021 5.44506979 -0.87015885 23 27 7943 21.37600000 3179171964 3179171964 -2.33300000
20.85804176 2.32486057 -0.73288941 6 28 7944 21.00000000 3179171966 3179171966 -2.00000000
52.27970886 8.43001366 9.65506744 18 30 7944 53.82800000 3179171969 3179171969 10.33300000
39.07416534 8.27696323 -0.92940897 20 31 7944 39.95200000 3179171969 3179171969 -1.33300000
5.79928112 0.92681819 -2.73856640 7 0 7952 6.48000000 3179171989 3179171989 -25.00000000
39.35766602 10.31060791 -0.71017331 25 1 7952 40.69200000 3179171989 3179171989 -1.00000000
38.95011902 6.21788263 -1.14791250 16 2 7953 39.46000000 3179171992 3179171992 -1.66700000
8.69635391 1.82785416 -2.48764133 2 3 7953 9.22800000 3179171992 3179171992 -15.63900000
11.47297192 1.82945812 -2.32359767 4 4 7954 11.84800000 3179171994 3179171994 -11.31000000
39.81941986 8.36223888 0.00000000 19 5 7954 40.68800000 3179171994 3179171994 0.00000000
40.07289505 4.39577341 -0.46932191 29 6 7954 40.31600000 3179171996 3179171996 -0.66700000
13.48799133 2.83253241 -2.14419055 2 7 7954 13.94800000 3179171996 3179171996 -8.84300000
15.80758762 2.51781869 -2.03746414 2 8 7955 16.13600000 3179171999 3179171999 -7.25400000
40.36682129 10.55239487 0.24249628 25 9 7955 41.72400000 3179171999 3179171999 0.33300000
39.85406113 6.34078741 -0.23454559 22 10 7956 40.35600000 3179172001 3179172001 -0.33300000
17.01749039 3.56753993 -1.87291324 4 11 7956 17.48800000 3179172001 3179172001 -6.14800000
19.39594841 2.11735034 -1.82133198 6 12 7957 19.59600000 3179172003 3179172003 -5.33300000
39.92260742 8.36208534 0.94913614 19 13 7957 40.80000000 3179172003 3179172003 1.33300000
39.92485809 4.35132885 0.46755245 17 14 7958 40.16400000 3179172005 3179172005 0.66700000
20.56713486 4.30419159 -1.46935034 28 15 7958 21.06400000 3179172005 3179172005 -4.00000000
20.32167244 3.22227240 -1.67968822 23 16 7959 20.64400000 3179172008 3179172008 -4.66700000
40.09081268 10.45034599 1.20574450 16 17 7959 41.44800000 3179172008 3179172008 1.66700000
39.67422485 6.29087830 0.70116788 25 18 7959 40.17600000 3179172010 3179172010 1.00000000
20.56134415 5.35966110 -1.36178398 28 19 7959 21.29200000 3179172010 3179172010 -3.66700000
20.56793404 2.23439264 -1.20487309 21 20 7960 20.72400000 3179172012 3179172012 -3.33300000
39.99140930 8.35464096 2.37928128 23 21 7960 40.92400000 3179172012 3179172012 3.33300000
39.64562225 6.27215719 1.63529289 25 22 7961 40.17200000 3179172015 3179172015 2.33300000
20.62465858 4.30495930 -0.98143446 24 23 7961 21.09200000 3179172015 3179172015 -2.66700000
20.59580612 3.25468612 -1.09277475 42 24 7962 20.88000000 3179172017 3179172017 -3.00000000
41.04557037 6.47895050 3.39224768 27 26 7963 41.69200000 3179172019 3179172019 4.66700000
20.65208054 5.36791849 -0.86934471 24 27 7963 21.35600000 3179172019 3179172019 -2.33300000
20.86602974 2.25203824 -0.73288941 6 28 7964 21.00000000 3179172022 3179172022 -2.00000000
52.30881882 8.24747276 9.65506744 18 30 7964 53.82800000 3179172024 3179172024 10.33300000
39.10673523 8.14133358 -0.92950201 25 31 7964 39.95600000 3179172024 3179172024 -1.33300000
5.79531765 0.90545005 -2.73518538 7 0 7972 6.47200000 3179172045 3179172045 -25.00000000
39.34695053 10.16116047 -0.70933563 25 1 7972 40.64400000 3179172045 3179172045 -1.00000000
38.92418289 6.07448530 -1.14651608 16 2 7973 39.41200000 3179172047 3179172047 -1.66700000
8.70268154 1.79748702 -2.48764133 2 3 7973 9.22800000 3179172047 3179172047 -15.63900000
11.48316383 1.79000294 -2.32438207 2 4 7974 11.85200000 3179172049 3179172049 -11.31000000
39.92279816 8.23855209 0.00000000 26 5 7974 40.76400000 3179172049 3179172049 0.00000000
40.04424286 4.25122166 -0.46880969 29 6 7974 40.27200000 3179172052 3179172052 -0.66700000
13.49392605 2.78463459 -2.14357567 2 7 7974 13.94400000 3179172052 3179172052 -8.84300000
15.82020092 2.46323490 -2.03796911 2 8 7975 16.14000000 3179172054 3179172054 -7.25400000
40.27946091 10.37948418 0.24175236 17 9 7975 41.59600000 3179172054 3179172054 0.33300000
39.82061768 6.19302654 -0.23422012 22 10 7976 40.30000000 3179172056 3179172056 -0.33300000
17.04542160 3.51132560 -1.87462676 2 11 7976 17.50400000 3179172056 3179172056 -6.14800000
19.41114235 2.05046964 -1.82207549 6 12 7977 19.60400000 3179172058 3179172058 -5.33300000
39.70087814 8.17108536 0.94318074 18 13 7977 40.54400000 3179172058 3179172058 1.33300000
39.92389297 4.21026087 0.46736622 17 14 7978 40.14800000 3179172061 3179172061 0.66700000
20.56249237 4.22835398 -1.46795523 26 15 7978 21.04400000 3179172061 3179172061 -4.00000000
20.33673477 3.15192747 -1.68001366 31 16 7979 20.64800000 3179172063 3179172063 -4.66700000
39.92954636 10.25959396 1.19981003 23 17 7979 41.24400000 3179172063 3179172063 1.66700000
39.76420593 6.15582418 0.70235467 25 18 7980 40.24400000 3179172065 3179172065 1.00000000
20.56538391 5.28029299 -1.36076057 30 19 7980 21.27600000 3179172065 3179172065 -3.66700000
20.56766701 2.16174889 -1.20440793 21 20 7980 20.71600000 3179172068 3179172068 -3.33300000
40.00859451 8.21258450 2.37858367 29 21 7980 40.91200000 3179172068 3179172068 3.33300000
39.63962936 6.12945461 1.63415313 25 22 7981 40.14400000 3179172070 3179172070 2.33300000
20.63173294 4.23133373 -0.98106223 24 23 7981 21.08400000 3179172070 3179172070 -2.66700000
20.59519958 3.18094420 -1.09214675 38 24 7982 20.86800000 3179172072 3179172072 -3.00000000
40.79174423 8.35850430 5.11266279 16 25 7982 41.95200000 3179172072 3179172072 7.00000000
41.00095367 6.32530212 3.38671494 27 26 7983 41.62400000 3179172075 3179172075 4.66700000
20.65907669 5.29282093 -0.86885619 22 27 7983 21.34400000 3179172075 3179172075 -2.33300000
20.88569069 2.18043375 -0.73330820 4 28 7984 21.01200000 3179172077 3179172077 -2.00000000
52.33728790 8.06483078 9.65506744 18 30 7984 53.82800000 3179172079 3179172079 10.33300000
39.08790207 7.99515963 -0.92838538 25 31 7984 39.90800000 3179172079 3179172079 -1.33300000
5.79844284 0.88521510 -2.73518538 7 0 7992 6.47200000 3179172100 3179172100 -25.00000000
39.27365494 9.99613094 -0.70738095 25 1 7992 40.53200000 3179172100 3179172100 -1.00000000
38.91352844 5.93375587 -1.14558518 16 2 7993 39.38000000 3179172102 3179172102 -1.66700000
8.70512772 1.76633215 -2.48656321 2 3 7993 9.22400000 3179172102 3179172102 -15.63900000
11.54750538 1.75876713 -2.33614922 2 4 7994 11.91200000 3179172104 3179172104 -11.31000000
39.99835587 8.10868168 0.00000000 19 5 7994 40.81200000 3179172104 3179172104 0.00000000
40.07546997 4.10605431 -0.46899596 19 6 7995 40.28800000 3179172107 3179172107 -0.66700000
13.51953602 2.73829651 -2.14603519 2 7 7995 13.96000000 3179172107 3179172107 -8.84300000
15.83654881 2.40919065 -2.03897929 2 8 7995 16.14800000 3179172109 3179172109 -7.25400000
40.31544876 10.23881912 0.24175236 25 9 7995 41.59600000 3179172109 3179172109 0.33300000
39.95667267 6.07141495 -0.23489431 22 10 7996 40.41600000 3179172111 3179172111 -0.33300000
17.04587936 3.44943810 -1.87334156 2 11 7996 17.49200000 3179172111 3179172111 -6.14800000
19.41025734 1.98189056 -1.82133198 6 12 7997 19.59600000 3179172114 3179172114 -5.33300000
39.58805084 8.00392532 0.93983084 18 13 7997 40.40000000 3179172114 3179172114 1.33300000
39.99405289 4.07655287 0.46801811 17 14 7998 40.20400000 3179172116 3179172116 0.66700000
20.56930351 4.15497160 -1.46739721 26 15 7998 21.03600000 3179172116 3179172116 -4.00000000
20.35943985 3.08271050 -1.68098998 15 16 7999 20.66000000 3179172118 3179172118 -4.66700000
40.00387573 10.12996578 1.20097363 24 17 7999 41.28400000 3179172118 3179172118 1.66700000
39.83975983 6.03231001 0.70333201 17 18 7999 40.30000000 3179172121 3179172121 1.00000000
20.56343269 5.20716715 -1.35948145 28 19 7999 21.25600000 3179172121 3179172121 -3.66700000
20.55919647 2.08832693 -1.20347774 21 20 8000 20.70000000 3179172123 3179172123 -3.33300000
40.08399200 8.08234978 2.38137436 47 21 8000 40.96000000 3179172123 3179172123 3.33300000
39.57779312 5.97851276 1.63073361 17 22 8001 40.06000000 3179172125 3179172125 2.33300000
20.62287521 4.15455532 -0.97994548 24 23 8001 21.06000000 3179172125 3179172125 -2.66700000
20.59827805 3.10784245 -1.09172809 38 24 8002 20.86000000 3179172128 3179172128 -3.00000000
40.78174973 8.20823002 5.10778809 16 25 8002 41.91200000 3179172128 3179172128 7.00000000
40.92422485 6.16729116 3.37857842 27 26 8003 41.52400000 3179172130 3179172130 4.66700000
20.65805054 5.21578312 -0.86804205 22 27 8003 21.32400000 3179172130 3179172130 -2.33300000
20.90510750 2.10871935 -0.73372704 4 28 8004 21.02400000 3179172132 3179172132 -2.00000000
107.15344238 16.10979843 19.75640488 28 30 8005 110.14400000 3179172134 3179172134 10.33300000
39.12478256 7.85341549 -0.92857152 25 31 8005 39.91600000 3179172134 3179172134 -1.33300000
5.80149746 0.86496937 -2.73518538 8 0 8012 6.47200000 3179172155 3179172155 -25.00000000
39.23072433 9.83952045 -0.70598477 25 1 8012 40.45200000 3179172155 3179172155 -1.00000000
38.93795776 5.79847527 -1.14570165 16 2 8013 39.38400000 3179172157 3179172157 -1.66700000
8.71124077 1.73593473 -2.48656321 2 3 8013 9.22400000 3179172157 3179172157 -15.63900000
11.53417683 1.71556282 -2.33222675 4 4 8014 11.89200000 3179172160 3179172160 -11.31000000
39.66157913 7.89637518 0.00000000 19 5 8014 40.44000000 3179172160 3179172160 0.00000000
40.08955765 3.96613979 -0.46899596 19 6 8015 40.28800000 3179172162 3179172162 -0.66700000
13.52513599 2.69031692 -2.14542031 2 7 8015 13.95600000 3179172162 3179172162 -8.84300000
15.85271168 2.35506225 -2.03998947 2 8 8015 16.15600000 3179172164 3179172164 -7.25400000
40.35482407 10.09900093 0.24177560 25 9 8015 41.60000000 3179172164 3179172164 0.33300000
39.84705734 5.91252947 -0.23412713 22 10 8016 40.28400000 3179172167 3179172167 -0.33300000
17.06561852 3.39146638 -1.87419832 2 11 8016 17.50000000 3179172167 3179172167 -6.14800000
19.54388809 1.92662704 -1.83322883 6 12 8017 19.72400000 3179172169 3179172169 -5.33300000
39.72949982 7.88827276 0.94252938 18 13 8017 40.51600000 3179172169 3179172169 1.33300000
39.95629120 3.93183064 0.46741277 17 14 8018 40.15200000 3179172171 3179172171 0.66700000
20.57193947 4.08081675 -1.46656013 26 15 8018 21.02400000 3179172171 3179172171 -4.00000000
20.30697441 3.00229454 -1.67578268 49 16 8019 20.59600000 3179172174 3179172174 -4.66700000
40.13209915 10.01349545 1.20376635 24 17 8019 41.38000000 3179172174 3179172174 1.66700000
39.78144836 5.88150787 0.70193577 25 18 8019 40.22000000 3179172176 3179172176 1.00000000
20.56599045 5.13149023 -1.35845816 30 19 8019 21.24000000 3179172176 3179172176 -3.66700000
20.56636047 2.01654935 -1.20347774 21 20 8020 20.70000000 3179172178 3179172178 -3.33300000
40.13937759 7.94781113 2.38300228 23 21 8020 40.98800000 3179172178 3179172178 3.33300000
39.59446716 5.83974123 1.63057077 25 22 8021 40.05600000 3179172181 3179172181 2.33300000
20.62157249 4.07944107 -0.97920096 23 23 8021 21.04400000 3179172181 3179172181 -2.66700000
20.59714508 3.03417563 -1.09109998 35 24 8022 20.84800000 3179172183 3179172183 -3.00000000
42.30577469 8.36142349 5.29497910 25 25 8022 43.44800000 3179172183 3179172183 7.00000000
41.18610382 6.05980158 3.39843130 27 26 8023 41.76800000 3179172185 3179172185 4.66700000
20.66061783 5.13978195 -0.86739075 22 27 8023 21.30800000 3179172185 3179172185 -2.33300000
20.92825699 2.03728342 -0.73428541 2 28 8024 21.04000000 3179172187 3179172187 -2.00000000
105.13503265 15.44999981 19.37470627 28 30 8024 108.01600000 3179172190 3179172190 10.33300000
39.13099289 7.71975994 -0.92810625 41 31 8024 39.89600000 3179172190 3179172190 -1.33300000
5.80089378 0.84419101 -2.73349500 8 0 8032 6.46800000 3179172210 3179172210 -25.00000000
39.27647781 9.70539761 -0.70619416 25 1 8032 40.46400000 3179172210 3179172210 -1.00000000
38.95796204 5.66252089 -1.14570165 16 2 8033 39.38400000 3179172213 3179172213 -1.66700000
8.72480774 1.70699549 -2.48871970 2 3 8033 9.23200000 3179172213 3179172213 -15.63900000
11.51680470 1.67190957 -2.32751989 2 4 8034 11.86800000 3179172215 3179172215 -11.31000000
39.75956345 7.77169418 0.00000000 46 5 8034 40.51200000 3179172215 3179172215 0.00000000
40.10647202 3.83355665 -0.46904251 19 6 8034 40.29200000 3179172217 3179172217 -0.66700000
13.54174137 2.64696741 -2.14665008 2 7 8034 13.96400000 3179172217 3179172217 -8.84300000
15.86476231 2.30028105 -2.04049444 2 8 8035 16.16000000 3179172220 3179172220 -7.25400000
40.42478180 9.96669197 0.24198484 25 9 8035 41.63600000 3179172220 3179172220 0.33300000
39.86745071 5.77340126 -0.23412713 15 10 8036 40.28400000 3179172222 3179172222 -0.33300000
17.08125687 3.33263707 -1.87462676 2 11 8036 17.50400000 3179172222 3179172222 -6.14800000
19.43154907 1.84708798 -1.82207549 6 12 8037 19.60400000 3179172224 3179172224 -5.33300000
39.83529282 7.76484442 0.94439042 18 13 8037 40.59600000 3179172224 3179172224 1.33300000
39.96977234 3.79233336 0.46741277 17 14 8038 40.15200000 3179172227 3179172227 0.66700000
20.57039261 4.00593138 -1.46544397 26 15 8038 21.00800000 3179172227 3179172227 -4.00000000
20.36862755 2.93879294 -1.68001366 21 16 8039 20.64800000 3179172229 3179172229 -4.66700000
40.06197357 9.84757900 1.20062447 24 17 8039 41.27200000 3179172229 3179172229 1.66700000
39.78194427 5.73975325 0.70158672 25 18 8039 40.20000000 3179172231 3179172231 1.00000000
20.56827354 5.05585909 -1.35743487 26 19 8039 21.22400000 3179172231 3179172231 -3.66700000
20.56929779 1.94437122 -1.20324516 21 20 8040 20.69600000 3179172234 3179172234 -3.33300000
40.17863846 7.80993605 2.38369989 29 21 8040 41.00000000 3179172234 3179172234 3.33300000
39.60274124 5.69978714 1.63008237 25 22 8041 40.04400000 3179172236 3179172236 2.33300000
20.62784195 4.00591040 -0.97882873 24 23 8041 21.03600000 3179172236 3179172236 -2.66700000
20.59179497 2.95998621 -1.09026265 38 24 8042 20.83200000 3179172238 3179172238 -3.00000000
41.00565338 7.95583820 5.12874937 24 25 8042 42.08400000 3179172238 3179172238 7.00000000
40.19676208 5.77095938 3.31511402 17 26 8043 40.74400000 3179172240 3179172240 4.66700000
20.65902519 5.06287479 -0.86657661 22 27 8043 21.28800000 3179172240 3179172240 -2.33300000
34.19688034 3.20847106 -1.19942594 5 28 8044 34.36800000 3179172243 3179172243 -2.00000000
114.85150146 16.44805908 21.15404701 28 30 8045 117.93600000 3179172245 3179172245 10.33300000
39.16687775 7.57780504 -0.92829233 30 31 8045 39.90400000 3179172245 3179172245 -1.33300000
5.81457329 0.82546562 -2.73856640 5 0 8052 6.48000000 3179172266 3179172266 -25.00000000
39.25960159 9.55594158 -0.70528662 25 1 8052 40.41200000 3179172266 3179172266 -1.00000000
38.98144913 5.52705908 -1.14581800 16 2 8053 39.38800000 3179172268 3179172268 -1.66700000
8.73071289 1.67652988 -2.48871970 2 3 8053 9.23200000 3179172268 3179172268 -15.63900000
11.52645397 1.63224816 -2.32830453 2 4 8054 11.87200000 3179172270 3179172270 -11.31000000
39.83359146 7.64190388 0.00000000 26 5 8054 40.56000000 3179172270 3179172270 0.00000000
40.13155746 3.69463563 -0.46918222 19 6 8054 40.30400000 3179172273 3179172273 -0.66700000
13.55089855 2.59968185 -2.14665008 2 7 8054 13.96400000 3179172273 3179172273 -8.84300000
15.87662411 2.24544430 -2.04099965 2 8 8055 16.16400000 3179172275 3179172275 -7.25400000
40.31939697 9.79154110 0.24114792 25 9 8055 41.49200000 3179172275 3179172275 0.33300000
39.93885040 5.64147520 -0.23442934 15 10 8056 40.33600000 3179172277 3179172277 -0.33300000
17.10450363 3.27523589 -1.87591195 4 11 8056 17.51600000 3179172277 3179172277 -6.14800000
19.45771027 1.78106320 -1.82393444 6 12 8057 19.62400000 3179172280 3179172280 -5.33300000
39.77967453 7.60996723 0.94243634 50 13 8057 40.51200000 3179172280 3179172280 1.33300000
39.95886993 3.65060616 0.46713337 25 14 8058 40.12800000 3179172282 3179172282 0.66700000
20.57249260 3.93185592 -1.46460688 26 15 8058 20.99600000 3179172282 3179172282 -4.00000000
20.48929977 2.88323021 -1.68912649 7 16 8059 20.76000000 3179172284 3179172284 -4.66700000
40.16993713 9.72555256 1.20283544 24 17 8059 41.34800000 3179172284 3179172284 1.66700000
39.73836899 5.59193659 0.70046979 25 18 8059 40.13600000 3179172287 3179172287 1.00000000
20.55475807 4.97651672 -1.35538816 23 19 8059 21.19200000 3179172287 3179172287 -3.66700000
20.56800652 1.87183523 -1.20278001 21 20 8060 20.68800000 3179172289 3179172289 -3.33300000
39.80948257 7.59406471 2.36021161 23 21 8060 40.59600000 3179172289 3179172289 3.33300000
39.59864807 5.55817986 1.62910533 25 22 8061 40.02000000 3179172291 3179172291 2.33300000
20.62207413 3.93014097 -0.97789812 23 23 8061 21.01600000 3179172291 3179172291 -2.66700000
20.59408951 2.88698030 -1.08984399 35 24 8062 20.82400000 3179172293 3179172293 -3.00000000
40.97857285 7.80225706 5.12192488 16 25 8062 42.02800000 3179172293 3179172293 7.00000000
41.36954498 5.79202271 3.41014791 18 26 8063 41.91200000 3179172296 3179172296 4.66700000
20.65326118 4.98510408 -0.86559963 24 27 8063 21.26400000 3179172296 3179172296 -2.33300000
34.25166321 3.09303713 -1.20096147 5 28 8064 34.41200000 3179172298 3179172298 -2.00000000
106.96550751 14.93784428 19.69183159 28 30 8065 109.78400000 3179172300 3179172300 10.33300000
39.22845078 7.44775391 -0.92912984 15 31 8065 39.94000000 3179172300 3179172300 -1.33300000
5.80636549 0.80569977 -2.73349500 8 0 8070 6.46800000 3179172321 3179172321 -25.00000000
39.26609421 9.42695522 -0.70486778 25 1 8070 40.38800000 3179172321 3179172321 -1.00000000
38.97881699 5.40182400 -1.14523613 16 2 8071 39.36800000 3179172323 3179172323 -1.66700000
8.73593712 1.64909327 -2.48871970 2 3 8071 9.23200000 3179172323 3179172323 -15.63900000
11.53541088 1.59656656 -2.32908893 2 4 8072 11.87600000 3179172326 3179172326 -11.31000000
39.94387817 7.53303385 0.00000000 13 5 8072 40.64800000 3179172326 3179172326 0.00000000
40.05930328 3.56110334 -0.46820438 19 6 8072 40.22000000 3179172328 3179172328 -0.66700000
13.56676674 2.55856276 -2.14787984 2 7 8072 13.97200000 3179172328 3179172328 -8.84300000
15.88360023 2.19555545 -2.04099965 2 8 8073 16.16400000 3179172330 3179172330 -7.25400000
40.41219711 9.67973328 0.24151988 25 9 8073 41.55600000 3179172330 3179172330 0.33300000
39.94448853 5.51433516 -0.23435961 22 10 8074 40.32400000 3179172333 3179172333 -0.33300000
17.11861610 3.22222018 -1.87634027 4 11 8074 17.52000000 3179172333 3179172333 -6.14800000
19.47907829 1.72132862 -1.82542145 6 12 8075 19.64000000 3179172335 3179172335 -5.33300000
39.89377594 7.50195599 0.94457656 18 13 8075 40.60400000 3179172335 3179172335 1.33300000
39.95818710 3.52399969 0.46699369 17 14 8076 40.11600000 3179172337 3179172337 0.66700000
20.57297897 3.86499596 -1.46376979 26 15 8076 20.98400000 3179172337 3179172337 -4.00000000
20.50615692 2.81993318 -1.68977737 13 16 8077 20.76800000 3179172340 3179172340 -4.66700000
40.17306900 9.59280682 1.20202088 24 17 8077 41.32000000 3179172340 3179172340 1.66700000
39.39122772 5.41694069 0.69404727 16 18 8077 39.76800000 3179172342 3179172342 1.00000000
20.55475998 4.90820932 -1.35436487 14 19 8077 21.17600000 3179172342 3179172342 -3.66700000
20.56583023 1.80651093 -1.20231497 21 20 8078 20.68000000 3179172344 3179172344 -3.33300000
39.97835922 7.49619150 2.36881638 17 21 8078 40.74400000 3179172344 3179172344 3.33300000
39.60007858 5.43157721 1.62845409 25 22 8079 40.00400000 3179172346 3179172346 2.33300000
20.63824654 3.86607122 -0.97808421 24 23 8079 21.02000000 3179172346 3179172346 -2.66700000
20.59514427 2.82118368 -1.08942521 35 24 8080 20.81600000 3179172349 3179172349 -3.00000000
42.05263901 7.86993694 5.25305605 25 25 8080 43.10400000 3179172349 3179172349 7.00000000
40.45534897 5.53450012 3.33333969 70 26 8081 40.96800000 3179172351 3179172351 4.66700000
20.64937973 4.91556787 -0.86478549 24 27 8081 21.24400000 3179172351 3179172351 -2.33300000
34.40060043 2.99756289 -1.20584738 5 28 8082 34.55200000 3179172353 3179172353 -2.00000000
106.16582489 14.48628139 19.53613853 28 30 8083 108.91600000 3179172356 3179172356 10.33300000
39.19662094 7.31420803 -0.92782706 15 31 8083 39.88400000 3179172356 3179172356 -1.33300000
5.81632757 0.78639829 -2.73687577 6 0 8090 6.47600000 3179172376 3179172376 -25.00000000
39.30654526 9.29167366 -0.70500743 25 1 8090 40.39600000 3179172376 3179172376 -1.00000000
39.02120972 5.26893950 -1.14593434 16 2 8091 39.39200000 3179172379 3179172379 -1.66700000
8.73785210 1.61788785 -2.48764133 2 3 8091 9.22800000 3179172379 3179172379 -15.63900000
11.54480076 1.55681491 -2.32987332 4 4 8092 11.88000000 3179172381 3179172381 -11.31000000
39.93846130 7.38773727 0.00000000 19 5 8092 40.61600000 3179172381 3179172381 0.00000000
40.03163528 3.41784596 -0.46773872 19 6 8092 40.18000000 3179172383 3179172383 -0.66700000
13.57561493 2.51119018 -2.14787984 2 7 8092 13.97200000 3179172383 3179172383 -8.84300000
15.89116764 2.14009809 -2.04099965 2 8 8093 16.16400000 3179172386 3179172386 -7.25400000
40.40291214 9.52851009 0.24126416 25 9 8093 41.51200000 3179172386 3179172386 0.33300000
39.94763565 5.37273645 -0.23426662 22 10 8094 40.30800000 3179172388 3179172388 -0.33300000
17.13367081 3.16316748 -1.87676871 2 11 8094 17.52400000 3179172388 3179172388 -6.14800000
19.48893547 1.65366018 -1.82579327 6 12 8095 19.64400000 3179172390 3179172390 -5.33300000
39.97477341 7.37280941 0.94587928 25 13 8095 40.66000000 3179172390 3179172390 1.33300000
39.92640686 3.38078594 0.46648148 25 14 8096 40.07200000 3179172392 3179172392 0.66700000
20.57064819 3.79026699 -1.46265376 26 15 8096 20.96800000 3179172392 3179172392 -4.00000000
20.50797272 2.74727750 -1.68912649 10 16 8097 20.76000000 3179172395 3179172395 -4.66700000
40.01948547 9.40859509 1.19643545 23 17 8097 41.12800000 3179172395 3179172395 1.66700000
39.90539551 5.34578419 0.70277351 17 18 8097 40.26800000 3179172397 3179172397 1.00000000
20.56011009 4.83368921 -1.35359740 33 19 8097 21.16400000 3179172397 3179172397 -3.66700000
20.57201004 1.73471177 -1.20231497 21 20 8098 20.68000000 3179172399 3179172399 -3.33300000
40.05926895 7.36670685 2.37207198 23 21 8098 40.80000000 3179172399 3179172399 3.33300000
39.62672043 5.29437256 1.62877965 25 22 8099 40.01200000 3179172402 3179172402 2.33300000
20.62410736 3.78895307 -0.97678137 24 23 8099 20.99200000 3179172402 3179172402 -2.66700000
20.60090637 2.74874783 -1.08921587 31 24 8100 20.81200000 3179172404 3179172404 -3.00000000
42.16966629 7.73958206 5.26426792 25 25 8100 43.19600000 3179172404 3179172404 7.00000000
40.47837067 5.39377737 3.33366513 26 26 8101 40.97200000 3179172406 3179172406 4.66700000
20.65473938 4.84072208 -0.86429697 24 27 8101 21.23200000 3179172406 3179172406 -2.33300000
34.43077087 2.87912965 -1.20654535 11 28 8102 34.57200000 3179172409 3179172409 -2.00000000
105.20152283 13.98082066 19.34959602 28 30 8103 107.87600000 3179172411 3179172411 10.33300000
