# .PCD v0.7 - Point Cloud Data file format
VERSION 0.7
FIELDS x y z intensity laser_id azimuth distance_m adjustedtime timestamp vertical_angle
SIZE 4 4 4 1 1 2 8 8 4 8
TYPE F F F U U U F U U F
COUNT 1 1 1 1 1 1 1 1 1 1
WIDTH 518
HEIGHT 1
VIEWPOINT 0 0 0 1 0 0 0
POINTS 518
DATA ascii
38.70618820 -7.48867321 -1.37671530 22 28 9675 39.44800000 3184376702 3184376702 -2.00000000
102.30057526 -14.65062141 18.84234047 28 30 9675 105.04800000 3184376705 3184376705 10.33300000
40.14941788 -3.75989008 -0.93834203 21 31 9675 40.33600000 3184376705 3184376705 -1.33300000
5.88400126 -0.85209107 -2.77237582 8 0 9684 6.56000000 3184376725 3184376725 -25.00000000
40.24310684 -1.85558259 -0.70319235 25 1 9684 40.29200000 3184376725 3184376725 -1.00000000
39.67613983 -5.75276661 -1.16676319 25 2 9685 40.10800000 3184376728 3184376728 -1.66700000
9.03409290 -0.86192799 -2.54047823 4 3 9685 9.42400000 3184376728 3184376728 -15.63900000
11.88556004 -1.72544229 -2.40204453 3 4 9686 12.24800000 3184376730 3184376730 -11.31000000
40.17687988 -3.84028673 0.00000000 19 5 9686 40.36000000 3184376730 3184376730 0.00000000
39.83930206 -7.78728104 -0.47258142 19 6 9686 40.59600000 3184376732 3184376732 -0.66700000
14.16033840 -1.35350883 -2.21306038 3 7 9686 14.39600000 3184376732 3184376732 -8.84300000
16.52757454 -2.40227509 -2.12585187 2 8 9687 16.83600000 3184376735 3184376735 -7.25400000
40.19963074 -1.87467182 0.23389466 25 9 9687 40.24400000 3184376735 3184376735 0.33300000
39.69320679 -5.77646303 -0.23312747 22 10 9688 40.11200000 3184376737 3184376737 -0.33300000
18.01658058 -1.72845221 -1.94959462 7 11 9688 18.20400000 3184376737 3184376737 -6.14800000
20.36231422 -3.99123669 -1.93695438 9 12 9689 20.84000000 3184376739 3184376739 -5.33300000
40.13214874 -3.85721707 0.93815589 12 13 9689 40.32800000 3184376739 3184376739 1.33300000
39.55126572 -7.75964975 0.46922877 17 14 9690 40.30800000 3184376742 3184376742 0.66700000
20.45918465 -1.96999538 -1.43726242 28 15 9690 20.60400000 3184376742 3184376742 -4.00000000
20.44236374 -2.98586226 -1.68652284 31 16 9691 20.72800000 3184376744 3184376744 -4.66700000
40.04618835 -1.89553535 1.16676319 22 17 9691 40.10800000 3184376744 3184376744 1.66700000
39.63335419 -5.78894615 0.69914341 25 18 9691 40.06000000 3184376746 3184376746 1.00000000
20.47103500 -0.96897036 -1.31343198 27 19 9691 20.53600000 3184376746 3184376746 -3.66700000
20.47684097 -4.02481985 -1.21533811 19 20 9692 20.90400000 3184376749 3184376749 -3.33300000
40.42286301 -3.90652061 2.36509538 17 21 9692 40.68000000 3184376749 3184376749 3.33300000
39.42260742 -5.77221870 1.62324357 25 22 9693 39.87600000 3184376751 3184376751 2.33300000
20.52964020 -1.98762906 -0.96077466 21 23 9693 20.64800000 3184376751 3184376751 -2.66700000
20.51230812 -3.00704861 -1.08649445 35 24 9694 20.76000000 3184376753 3184376753 -3.00000000
87.11785889 -8.44988346 10.74692631 28 25 9694 88.18400000 3184376753 3184376753 7.00000000
85.84362793 -12.59974861 7.08294010 28 26 9695 87.05200000 3184376755 3184376755 4.66700000
20.57518959 -0.98829722 -0.83922130 13 27 9695 20.61600000 3184376755 3184376755 -2.33300000
38.72946930 -7.64054680 -1.37853014 15 28 9696 39.50000000 3184376758 3184376758 -2.00000000
95.13066864 -13.99678230 17.53151321 28 30 9697 97.74000000 3184376760 3184376760 10.33300000
40.14662552 -3.91518903 -0.93862116 15 31 9697 40.34800000 3184376760 3184376760 -1.33300000
5.87755728 -0.87106699 -2.77068543 7 0 9703 6.55600000 3184376781 3184376781 -25.00000000
40.22474670 -1.98843098 -0.70298290 17 1 9703 40.28000000 3184376781 3184376781 -1.00000000
39.66079712 -5.88489246 -1.16687953 25 2 9704 40.11200000 3184376783 3184376783 -1.66700000
9.03501797 -0.89225996 -2.54155660 3 3 9704 9.42800000 3184376783 3184376783 -15.63900000
11.89141178 -1.76657581 -2.40439796 3 4 9705 12.26000000 3184376785 3184376785 -11.31000000
40.17984772 -3.97507215 0.00000000 19 5 9705 40.37600000 3184376785 3184376785 0.00000000
39.75049591 -7.90686512 -0.47183639 29 6 9705 40.53200000 3184376788 3184376788 -0.66700000
14.17150593 -1.40201521 -2.21551991 4 7 9705 14.41200000 3184376788 3184376788 -8.84300000
16.52736664 -2.45823669 -2.12686205 2 8 9706 16.84400000 3184376790 3184376790 -7.25400000
40.19718933 -2.00816774 0.23391791 25 9 9706 40.24800000 3184376790 3184376790 0.33300000
39.77669525 -5.92337656 -0.23373193 22 10 9707 40.21600000 3184376792 3184376792 -0.33300000
18.01470566 -1.78858078 -1.95002306 10 11 9707 18.20800000 3184376792 3184376792 -6.14800000
20.35677910 -4.06029654 -1.93769789 6 12 9708 20.84800000 3184376795 3184376795 -5.33300000
40.14699173 -3.99304938 0.93880731 12 13 9708 40.35600000 3184376795 3184376795 1.33300000
39.62729645 -7.91112280 0.47043946 17 14 9709 40.41200000 3184376797 3184376797 0.66700000
20.45650864 -2.03822517 -1.43754137 28 15 9709 20.60800000 3184376797 3184376797 -4.00000000
20.44417953 -3.05540299 -1.68749917 31 16 9710 20.74000000 3184376799 3184376799 -4.66700000
39.98777008 -2.02569318 1.16525042 22 17 9710 40.05600000 3184376799 3184376799 1.66700000
39.45967865 -5.89728832 0.69642085 25 18 9710 39.90400000 3184376802 3184376802 1.00000000
20.46771049 -1.03684938 -1.31343198 27 19 9710 20.53600000 3184376802 3184376802 -3.66700000
20.47512817 -4.09505081 -1.21603572 19 20 9711 20.91600000 3184376804 3184376804 -3.33300000
39.43882370 -5.90824652 1.62470901 25 22 9712 39.91200000 3184376806 3184376806 2.33300000
20.52691269 -2.05609512 -0.96096075 21 23 9712 20.65200000 3184376806 3184376806 -2.66700000
20.50222397 -3.07505345 -1.08649445 35 24 9713 20.76000000 3184376808 3184376808 -3.00000000
85.88845062 -8.61822891 10.59873295 28 25 9713 86.96800000 3184376808 3184376808 7.00000000
85.83686066 -12.88967514 7.08586931 28 26 9714 87.08800000 3184376811 3184376811 4.66700000
20.59574699 -1.05775154 -0.84019828 11 27 9714 20.64000000 3184376811 3184376811 -2.33300000
38.70391846 -7.76893616 -1.37853014 22 28 9715 39.50000000 3184376813 3184376813 -2.00000000
97.23950195 -14.63666153 17.92899323 28 30 9716 99.95600000 3184376815 3184376815 10.33300000
40.15729141 -4.05070686 -0.93917948 15 31 9716 40.37200000 3184376815 3184376815 -1.33300000
5.87448120 -0.89157820 -2.77068543 7 0 9723 6.55600000 3184376836 3184376836 -25.00000000
40.23353577 -2.12967491 -0.70326215 17 1 9723 40.29600000 3184376836 3184376836 -1.00000000
39.68349838 -6.02990580 -1.16815948 17 2 9724 40.15600000 3184376838 3184376838 -1.66700000
9.02418423 -0.92300874 -2.53939986 3 3 9724 9.42000000 3184376838 3184376838 -15.63900000
11.88905048 -1.80866373 -2.40518236 3 4 9725 12.26400000 3184376841 3184376841 -11.31000000
40.15378952 -4.11407852 0.00000000 13 5 9725 40.36400000 3184376841 3184376841 0.00000000
39.82849503 -8.06700993 -0.47309363 19 6 9725 40.64000000 3184376843 3184376843 -0.66700000
14.17832088 -1.45268297 -2.21736479 4 7 9725 14.42400000 3184376843 3184376843 -8.84300000
16.52653122 -2.51710796 -2.12787199 2 8 9726 16.85200000 3184376845 3184376845 -7.25400000
40.19792175 -2.14889693 0.23396440 25 9 9726 40.25600000 3184376845 3184376845 0.33300000
39.66483307 -6.04831886 -0.23319723 15 10 9727 40.12400000 3184376848 3184376848 -0.33300000
18.01231003 -1.85185969 -1.95045149 13 11 9727 18.21200000 3184376848 3184376848 -6.14800000
20.36980247 -4.13687897 -1.94030035 11 12 9728 20.87600000 3184376850 3184376850 -5.33300000
40.08109665 -4.12783861 0.93759757 12 13 9728 40.30400000 3184376850 3184376850 1.33300000
39.42697906 -8.01434326 0.46839061 25 14 9729 40.23600000 3184376852 3184376852 0.66700000
20.46117783 -2.11084771 -1.43837845 28 15 9729 20.62000000 3184376852 3184376852 -4.00000000
20.44127083 -3.12795401 -1.68815005 31 16 9730 20.74800000 3184376855 3184376855 -4.66700000
40.14414978 -2.17412925 1.17002130 15 17 9730 40.22000000 3184376855 3184376855 1.66700000
39.30443954 -6.01442432 0.69404727 16 18 9730 39.76800000 3184376857 3184376857 1.00000000
20.45998001 -1.10807288 -1.31317616 24 19 9730 20.53200000 3184376857 3184376857 -3.66700000
20.46853447 -4.16809082 -1.21650088 19 20 9731 20.92400000 3184376859 3184376859 -3.33300000
40.11729431 -4.15279579 2.34881639 17 21 9731 40.40000000 3184376859 3184376859 3.33300000
39.40610504 -6.04405975 1.62422049 25 22 9732 39.90000000 3184376861 3184376861 2.33300000
20.52755928 -2.12855911 -0.96133304 20 23 9732 20.66000000 3184376861 3184376861 -2.66700000
20.50715828 -3.14902592 -1.08733177 35 24 9733 20.77600000 3184376864 3184376864 -3.00000000
86.15401459 -8.94874573 10.63529396 28 25 9733 87.26800000 3184376864 3184376864 7.00000000
85.92531586 -13.20981979 7.09693480 28 26 9734 87.22400000 3184376866 3184376866 4.66700000
20.60390282 -1.13029444 -0.84068674 11 27 9734 20.65200000 3184376866 3184376866 -2.33300000
38.72356415 -7.91359568 -1.38020527 15 28 9735 39.54800000 3184376868 3184376868 -2.00000000
92.23294830 -14.21248817 17.01493073 28 30 9736 94.86000000 3184376871 3184376871 10.33300000
40.14688492 -4.19127226 -0.93927252 36 31 9736 40.37600000 3184376871 3184376871 -1.33300000
5.87133312 -0.91207856 -2.77068543 6 0 9743 6.55600000 3184376891 3184376891 -25.00000000
40.24182892 -2.27100468 -0.70354140 17 1 9743 40.31200000 3184376891 3184376891 -1.00000000
39.66615677 -6.16900444 -1.16827583 25 2 9744 40.16000000 3184376894 3184376894 -1.66700000
9.02090740 -0.95450342 -2.53939986 2 3 9744 9.42000000 3184376894 3184376894 -15.63900000
11.94079971 -1.85920489 -2.41694951 3 4 9745 12.32400000 3184376896 3184376896 -11.31000000
40.07554245 -4.24747133 0.00000000 19 5 9745 40.30000000 3184376896 3184376896 0.00000000
39.80009460 -8.20598793 -0.47309363 19 6 9745 40.64000000 3184376898 3184376898 -0.66700000
14.18102455 -1.50299883 -2.21859455 4 7 9745 14.43200000 3184376898 3184376898 -8.84300000
16.53724670 -2.57783675 -2.13039756 2 8 9746 16.87200000 3184376901 3184376901 -7.25400000
40.19417191 -2.28942823 0.23398764 25 9 9746 40.26000000 3184376901 3184376901 0.33300000
39.78970337 -6.20955849 -0.23405738 22 10 9747 40.27200000 3184376903 3184376903 -0.33300000
18.01364517 -1.91556418 -1.95130825 12 11 9747 18.22000000 3184376903 3184376903 -6.14800000
20.36303902 -4.20956993 -1.94104397 11 12 9748 20.88400000 3184376905 3184376905 -5.33300000
39.72447205 -4.23129702 0.92959505 18 13 9748 39.96000000 3184376905 3184376905 1.33300000
39.55934906 -8.18514729 0.47029975 17 14 9749 40.40000000 3184376907 3184376907 0.66700000
20.45765305 -2.18268108 -1.43865752 28 15 9749 20.62400000 3184376907 3184376907 -4.00000000
20.43810463 -3.20052195 -1.68880105 34 16 9750 20.75600000 3184376910 3184376910 -4.66700000
39.61739731 -2.28432465 1.15489423 29 17 9750 39.70000000 3184376910 3184376910 1.66700000
39.54398727 -6.19242287 0.69865471 17 18 9750 40.03200000 3184376912 3184376912 1.00000000
20.46794319 -1.18017411 -1.31394374 24 19 9750 20.54400000 3184376912 3184376912 -3.66700000
20.46559143 -4.24194527 -1.21719849 19 20 9751 20.93600000 3184376914 3184376914 -3.33300000
40.09461212 -4.29195595 2.34835124 17 21 9751 40.39200000 3184376914 3184376914 3.33300000
39.38871765 -6.18219566 1.62438333 25 22 9752 39.90400000 3184376917 3184376917 2.33300000
20.52000427 -2.20020080 -0.96133304 21 23 9752 20.66000000 3184376917 3184376917 -2.66700000
20.49998665 -3.22121024 -1.08754122 35 24 9753 20.78000000 3184376919 3184376919 -3.00000000
86.00777435 -9.23713017 10.62115669 28 25 9753 87.15200000 3184376919 3184376919 7.00000000
86.17012024 -13.55552101 7.12101889 28 26 9754 87.52000000 3184376921 3184376921 4.66700000
20.61978149 -1.20337284 -0.84150088 9 27 9754 20.67200000 3184376921 3184376921 -2.33300000
38.74266815 -8.05848694 -1.38188052 15 28 9755 39.59600000 3184376924 3184376924 -2.00000000
92.31494141 -14.55519199 17.03932381 28 30 9756 94.99600000 3184376926 3184376926 10.33300000
40.08032608 -4.32580709 -0.93806285 31 31 9756 40.32400000 3184376926 3184376926 -1.33300000
5.87527418 -0.93370575 -2.77406621 7 0 9763 6.56400000 3184376947 3184376947 -25.00000000
40.16978073 -2.40763259 -0.70242447 25 1 9763 40.24800000 3184376947 3184376947 -1.00000000
39.69571686 -6.31559467 -1.16978860 17 2 9764 40.21200000 3184376949 3184376949 -1.66700000
9.01752090 -0.98598641 -2.53939986 2 3 9764 9.42000000 3184376949 3184376949 -15.63900000
11.93036366 -1.90025771 -2.41616511 4 4 9765 12.32000000 3184376951 3184376951 -11.31000000
40.11613846 -4.39343166 0.00000000 19 5 9765 40.35600000 3184376951 3184376951 0.00000000
39.75163651 -8.34076023 -0.47286081 29 6 9765 40.62000000 3184376954 3184376954 -0.66700000
14.17962074 -1.55292106 -2.21920943 4 7 9765 14.43600000 3184376954 3184376954 -8.84300000
16.54382133 -2.63804626 -2.13241768 2 8 9766 16.88800000 3184376956 3184376956 -7.25400000
40.19392014 -2.43020105 0.23403414 25 9 9766 40.26800000 3184376956 3184376956 0.33300000
39.78358459 -6.35093498 -0.23415038 15 10 9767 40.28800000 3184376958 3184376958 -0.33300000
18.02661514 -1.98060358 -1.95345020 18 11 9767 18.24000000 3184376958 3184376958 -6.14800000
20.37550163 -4.28636408 -1.94364631 9 12 9768 20.91200000 3184376960 3184376960 -5.33300000
39.97180176 -4.39880610 0.93573654 18 13 9768 40.22400000 3184376960 3184376960 1.33300000
39.56967545 -8.33142567 0.47076541 26 14 9769 40.44000000 3184376963 3184376963 0.66700000
20.45387459 -2.25451541 -1.43893659 28 15 9769 20.62800000 3184376963 3184376963 -4.00000000
20.43861771 -3.27373624 -1.68977737 36 16 9770 20.76800000 3184376965 3184376965 -4.66700000
39.94840240 -2.44334912 1.16478503 22 17 9770 40.04000000 3184376965 3184376965 1.66700000
39.49448395 -6.32599163 0.69816607 17 18 9770 40.00400000 3184376967 3184376967 1.00000000
20.46768188 -1.25185716 -1.31419957 27 19 9770 20.54800000 3184376967 3184376967 -3.66700000
20.46238136 -4.31583023 -1.21789622 19 20 9771 20.94800000 3184376970 3184376970 -3.33300000
40.23020935 -4.44856405 2.35718846 17 21 9771 40.54400000 3184376970 3184376970 3.33300000
39.11434174 -6.27910709 1.61396229 24 22 9772 39.64800000 3184376972 3184376972 2.33300000
20.52014160 -2.27269506 -0.96170527 20 23 9772 20.66800000 3184376972 3184376972 -2.66700000
20.49256134 -3.29338264 -1.08775055 35 24 9773 20.78400000 3184376974 3184376974 -3.00000000
89.40801239 -9.91812325 11.04526234 28 25 9773 90.63200000 3184376974 3184376974 7.00000000
86.01993561 -13.83976269 7.11255693 28 26 9774 87.41600000 3184376977 3184376977 4.66700000
20.63141060 -1.27632904 -0.84215224 9 27 9774 20.68800000 3184376977 3184376977 -2.33300000
38.79643250 -8.21105671 -1.38481200 15 28 9775 39.68000000 3184376979 3184376979 -2.00000000
93.91342926 -15.12656307 17.34353447 28 30 9775 96.69200000 3184376981 3184376981 10.33300000
40.11742783 -4.46444416 -0.93927252 21 31 9775 40.37600000 3184376981 3184376981 -1.33300000
5.86840057 -0.95362711 -2.77237582 9 0 9783 6.56000000 3184377002 3184377002 -25.00000000
40.08929062 -2.54327869 -0.70116788 25 1 9783 40.17600000 3184377002 3184377002 -1.00000000
39.75235748 -6.46696043 -1.17211580 17 2 9784 40.29200000 3184377004 3184377004 -1.66700000
9.02167892 -1.01832151 -2.54155660 2 3 9784 9.42800000 3184377004 3184377004 -15.63900000
11.89268684 -1.93684709 -2.40988922 3 4 9785 12.28800000 3184377007 3184377007 -11.31000000
40.01311493 -4.52355051 0.00000000 26 5 9785 40.26800000 3184377007 3184377007 0.00000000
39.76382446 -8.49559307 -0.47337300 19 6 9786 40.66400000 3184377009 3184377009 -0.66700000
14.18168831 -1.60577083 -2.22043920 4 7 9786 14.44400000 3184377009 3184377009 -8.84300000
16.53842926 -2.69641733 -2.13292289 2 8 9786 16.89200000 3184377011 3184377011 -7.25400000
40.13329697 -2.56716967 0.23373193 16 9 9786 40.21600000 3184377011 3184377011 0.33300000
39.73748779 -6.48590088 -0.23401089 15 10 9787 40.26400000 3184377013 3184377013 -0.33300000
18.03539848 -2.04530883 -1.95516372 21 11 9787 18.25600000 3184377013 3184377013 -6.14800000
20.37209892 -4.35996199 -1.94476163 11 12 9788 20.92400000 3184377016 3184377016 -5.33300000
39.59065628 -4.49678659 0.92717570 18 13 9788 39.85600000 3184377016 3184377016 1.33300000
39.48950958 -8.45860863 0.47016007 17 14 9789 40.38800000 3184377018 3184377018 0.66700000
20.45380974 -2.32680106 -1.43949461 26 15 9789 20.63600000 3184377018 3184377018 -4.00000000
20.43100166 -3.34570479 -1.69010282 34 16 9790 20.77200000 3184377020 3184377020 -4.66700000
39.96755981 -2.58458614 1.16559947 15 17 9790 40.06800000 3184377020 3184377020 1.66700000
39.51445007 -6.47782087 0.69893396 25 18 9791 40.04800000 3184377023 3184377023 1.00000000
20.46693993 -1.32712483 -1.31445539 29 19 9791 20.55200000 3184377023 3184377023 -3.66700000
20.47061729 -4.39225721 -1.21929157 19 20 9791 20.97200000 3184377025 3184377025 -3.33300000
40.06367493 -4.57176208 2.34835124 17 21 9791 40.39200000 3184377025 3184377025 3.33300000
39.11190796 -6.41883993 1.61477637 24 22 9792 39.66800000 3184377027 3184377027 2.33300000
20.52002335 -2.34521747 -0.96207750 21 23 9792 20.67600000 3184377027 3184377027 -2.66700000
20.50459099 -3.36878061 -1.08900654 31 24 9793 20.80800000 3184377030 3184377030 -3.00000000
87.19157410 -9.98047447 10.77568722 28 25 9793 88.42000000 3184377030 3184377030 7.00000000
86.02617645 -14.14900208 7.11711311 28 26 9794 87.47200000 3184377032 3184377032 4.66700000
20.63480568 -1.34885979 -0.84247786 7 27 9794 20.69600000 3184377032 3184377032 -2.33300000
38.79098129 -8.35148048 -1.38564956 22 28 9795 39.70400000 3184377034 3184377034 -2.00000000
94.08914185 -15.49201012 17.38586426 28 30 9795 96.92800000 3184377037 3184377037 10.33300000
40.08570480 -4.60262823 -0.93890035 15 31 9795 40.36000000 3184377037 3184377037 -1.33300000
5.86861229 -0.97469980 -2.77406621 7 0 9803 6.56400000 3184377057 3184377057 -25.00000000
40.10012054 -2.68453670 -0.70151693 25 1 9803 40.19600000 3184377057 3184377057 -1.00000000
39.72954178 -6.60568285 -1.17211580 25 2 9804 40.29200000 3184377060 3184377060 -1.66700000
9.03719997 -1.05203390 -2.54694796 5 3 9804 9.44800000 3184377060 3184377060 -15.63900000
11.88198471 -1.97770452 -2.40910482 3 4 9805 12.28400000 3184377062 3184377062 -11.31000000
39.95337677 -4.65809965 0.00000000 19 5 9805 40.22400000 3184377062 3184377062 0.00000000
39.80037308 -8.64878178 -0.47416461 19 6 9806 40.73200000 3184377064 3184377064 -0.66700000
14.17992210 -1.65572286 -2.22105432 4 7 9806 14.44800000 3184377064 3184377064 -8.84300000
16.54065895 -2.75608730 -2.13443804 2 8 9806 16.90400000 3184377066 3184377066 -7.25400000
40.18395615 -2.71128464 0.23408064 16 9 9806 40.27600000 3184377066 3184377066 0.33300000
39.73433304 -6.62786150 -0.23412713 15 10 9807 40.28400000 3184377069 3184377069 -0.33300000
18.02814865 -2.10825157 -1.95516372 25 11 9807 18.25600000 3184377069 3184377069 -6.14800000
20.37232208 -4.43443584 -1.94624877 11 12 9808 20.94000000 3184377071 3184377071 -5.33300000
39.58266068 -4.63588715 0.92736185 18 13 9808 39.86400000 3184377071 3184377071 1.33300000
39.34640884 -8.57171154 0.46880969 25 14 9809 40.27200000 3184377073 3184377073 0.66700000
20.45348930 -2.39911389 -1.44005263 24 15 9809 20.64400000 3184377073 3184377073 -4.00000000
20.42706108 -3.41831779 -1.69075370 34 16 9810 20.78000000 3184377076 3184377076 -4.66700000
40.05802155 -2.73088193 1.16850853 22 17 9810 40.16800000 3184377076 3184377076 1.66700000
39.55191803 -6.61872101 0.69998109 25 18 9810 40.10800000 3184377078 3184377078 1.00000000
20.45844460 -1.39471686 -1.31419957 27 19 9810 20.54800000 3184377078 3184377078 -3.66700000
20.46686554 -4.46624041 -1.21998918 16 20 9811 20.98400000 3184377080 3184377080 -3.33300000
40.43612671 -4.75730801 2.37114191 11 21 9811 40.78400000 3184377080 3184377080 3.33300000
39.32970047 -6.59564877 1.62470901 25 22 9812 39.91200000 3184377083 3184377083 2.33300000
20.51568031 -2.41729903 -0.96226364 21 23 9812 20.68000000 3184377083 3184377083 -2.66700000
20.50058556 -3.44165707 -1.08942521 35 24 9813 20.81600000 3184377085 3184377085 -3.00000000
87.14043427 -10.28290749 10.77373791 28 25 9813 88.40400000 3184377085 3184377085 7.00000000
86.56207275 -14.54765415 7.16560650 28 26 9814 88.06800000 3184377087 3184377087 4.66700000
20.64990807 -1.42225361 -0.84329200 9 27 9814 20.71600000 3184377087 3184377087 -2.33300000
38.84750748 -8.50564575 -1.38872075 22 28 9815 39.79200000 3184377090 3184377090 -2.00000000
96.77806854 -16.28192711 17.89311981 28 30 9815 99.75600000 3184377092 3184377092 10.33300000
40.02174377 -4.73688507 -0.93778372 21 31 9815 40.31200000 3184377092 3184377092 -1.33300000
5.86177397 -0.99354964 -2.77237582 6 0 9822 6.56000000 3184377113 3184377113 -25.00000000
40.11892319 -2.81946135 -0.70200562 17 1 9822 40.22400000 3184377113 3184377113 -1.00000000
39.67982101 -6.73271227 -1.17130125 25 2 9823 40.26400000 3184377115 3184377115 -1.66700000
9.02218819 -1.08062220 -2.54371309 2 3 9823 9.43600000 3184377115 3184377115 -15.63900000
11.89856243 -2.02103662 -2.41381168 3 4 9824 12.30800000 3184377118 3184377118 -11.31000000
39.87019348 -4.78246546 0.00000000 19 5 9824 40.15600000 3184377118 3184377118 0.00000000
39.74956894 -8.76860619 -0.47388521 29 6 9824 40.70800000 3184377120 3184377120 -0.66700000
14.19034863 -1.70214498 -2.22351384 4 7 9824 14.46400000 3184377120 3184377120 -8.84300000
16.54316330 -2.81291842 -2.13595319 2 8 9825 16.91600000 3184377122 3184377122 -7.25400000
40.19070435 -2.84565449 0.23417363 25 9 9825 40.29200000 3184377122 3184377122 0.33300000
39.64510345 -6.74817848 -0.23373193 15 10 9826 40.21600000 3184377125 3184377125 -0.33300000
18.03685188 -2.16992354 -1.95687723 28 11 9826 18.27200000 3184377125 3184377125 -6.14800000
20.36528206 -4.50368834 -1.94699240 13 12 9827 20.94800000 3184377127 3184377127 -5.33300000
39.54721832 -4.76473045 0.92689657 18 13 9827 39.84400000 3184377127 3184377127 1.33300000
39.53255463 -8.74968052 0.47137073 17 14 9828 40.49200000 3184377129 3184377129 0.66700000
20.45730591 -2.46836090 -1.44088972 26 15 9828 20.65600000 3184377129 3184377129 -4.00000000
20.43133354 -3.48872185 -1.69205558 34 16 9829 20.79600000 3184377131 3184377131 -4.66700000
40.03279114 -2.86256337 1.16804314 22 17 9829 40.15200000 3184377131 3184377131 1.66700000
39.64013672 -6.76869249 0.70193577 25 18 9829 40.22000000 3184377134 3184377134 1.00000000
20.46963310 -1.46369064 -1.31522286 27 19 9829 20.56400000 3184377134 3184377134 -3.66700000
20.46363831 -4.53667927 -1.22068691 19 20 9830 20.99600000 3184377136 3184377136 -3.33300000
40.11091232 -4.85395384 2.35300255 17 21 9830 40.47200000 3184377136 3184377136 3.33300000
39.32337189 -6.72873116 1.62536025 25 22 9831 39.92800000 3184377138 3184377138 2.33300000
20.51151657 -2.48579884 -0.96244979 20 23 9831 20.68400000 3184377138 3184377138 -2.66700000
20.50087166 -3.51164389 -1.09005332 35 24 9832 20.82800000 3184377141 3184377141 -3.00000000
87.17285919 -10.57995129 10.78202438 28 25 9832 88.47200000 3184377141 3184377141 7.00000000
86.78448486 -14.88111591 7.18806314 28 26 9833 88.34400000 3184377143 3184377143 4.66700000
20.64507866 -1.49072325 -0.84329200 9 27 9833 20.71600000 3184377143 3184377143 -2.33300000
38.92444611 -8.65785599 -1.39248991 15 28 9834 39.90000000 3184377145 3184377145 -2.00000000
99.82238770 -17.13468742 18.46638298 28 30 9834 102.95200000 3184377148 3184377148 10.33300000
39.93436050 -4.86087894 -0.93610877 15 31 9834 40.24000000 3184377148 3184377148 -1.33300000
5.86541414 -1.01524162 -2.77575684 6 0 9842 6.56800000 3184377168 3184377168 -25.00000000
40.14074707 -2.96183968 -0.70256406 25 1 9842 40.25600000 3184377168 3184377168 -1.00000000
39.67971802 -6.87527514 -1.17199945 25 2 9843 40.28800000 3184377171 3184377171 -1.66700000
9.02600670 -1.11305189 -2.54586983 3 3 9843 9.44400000 3184377171 3184377171 -15.63900000
11.87984180 -2.06054711 -2.41145825 4 4 9844 12.29600000 3184377173 3184377173 -11.31000000
39.80164719 -4.91523600 0.00000000 19 5 9844 40.10400000 3184377173 3184377173 0.00000000
39.80458069 -8.92655945 -0.47490963 30 6 9844 40.79600000 3184377175 3184377175 -0.66700000
14.18824291 -1.75215268 -2.22412872 5 7 9844 14.46800000 3184377175 3184377175 -8.84300000
16.54106331 -2.87200522 -2.13696337 2 8 9845 16.92400000 3184377178 3184377178 -7.25400000
40.16856003 -2.98503947 0.23410389 16 9 9845 40.28000000 3184377178 3184377178 0.33300000
39.75135422 -6.90912819 -0.23449910 22 10 9846 40.34800000 3184377180 3184377180 -0.33300000
18.04495621 -2.23482585 -1.95859087 27 11 9846 18.28800000 3184377180 3184377180 -6.14800000
20.36886597 -4.57911682 -1.94885123 13 12 9847 20.96800000 3184377182 3184377182 -5.33300000
39.35573196 -4.88109064 0.92280227 30 13 9847 39.66800000 3184377182 3184377182 1.33300000
39.54469681 -8.89727879 0.47188294 17 14 9848 40.53600000 3184377184 3184377184 0.66700000
20.45648575 -2.54073882 -1.44144773 29 15 9848 20.66400000 3184377184 3184377184 -4.00000000
20.43081284 -3.56207347 -1.69303191 34 16 9849 20.80800000 3184377187 3184377187 -4.66700000
40.02654266 -3.00258565 1.16815948 22 17 9849 40.15600000 3184377187 3184377187 1.66700000
39.24197388 -6.84176302 0.69530386 25 18 9849 39.84000000 3184377189 3184377189 1.00000000
20.46439934 -1.53513408 -1.31522286 27 19 9849 20.56400000 3184377189 3184377189 -3.66700000
20.46715546 -4.61247253 -1.22184968 19 20 9850 21.01600000 3184377191 3184377191 -3.33300000
39.76482773 -4.95297098 2.33370042 28 21 9850 40.14000000 3184377191 3184377191 3.33300000
39.22090530 -6.85219765 1.62210369 25 22 9851 39.84800000 3184377194 3184377194 2.33300000
20.50667953 -2.55787683 -0.96263587 20 23 9851 20.68800000 3184377194 3184377194 -2.66700000
20.49242401 -3.58387184 -1.09026265 35 24 9852 20.83200000 3184377196 3184377196 -3.00000000
87.58056641 -10.93978310 10.83710957 28 25 9852 88.92400000 3184377196 3184377196 7.00000000
87.21503448 -15.26852036 7.22809410 28 26 9853 88.83600000 3184377198 3184377198 4.66700000
20.64772034 -1.56338251 -0.84361768 9 27 9853 20.72400000 3184377198 3184377198 -2.33300000
38.98756790 -8.81483269 -1.39584029 22 28 9854 39.99600000 3184377201 3184377201 -2.00000000
97.84332275 -17.14678955 18.11123276 28 30 9854 100.97200000 3184377203 3184377203 10.33300000
39.88143921 -4.99577284 -0.93527126 15 31 9854 40.20400000 3184377203 3184377203 -1.33300000
5.86183453 -1.03570950 -2.77575684 7 0 9862 6.56800000 3184377224 3184377224 -25.00000000
40.21389771 -3.10841179 -0.70403010 17 1 9862 40.34000000 3184377224 3184377224 -1.00000000
39.69091034 -7.02000856 -1.17304671 25 2 9863 40.32400000 3184377226 3184377226 -1.66700000
9.02588749 -1.14503646 -2.54694796 2 3 9863 9.44800000 3184377226 3184377226 -15.63900000
11.88802528 -2.10473824 -2.41459608 4 4 9864 12.31200000 3184377228 3184377228 -11.31000000
39.83980179 -5.06119728 0.00000000 19 5 9864 40.16000000 3184377228 3184377228 0.00000000
39.77317810 -9.06544876 -0.47490963 30 6 9864 40.79600000 3184377231 3184377231 -0.66700000
14.19380283 -1.80316246 -2.22597337 4 7 9864 14.48000000 3184377231 3184377231 -8.84300000
16.55047226 -2.93318915 -2.13948870 2 8 9865 16.94400000 3184377233 3184377233 -7.25400000
40.17783356 -3.12678766 0.23422012 25 9 9865 40.30000000 3184377233 3184377233 0.33300000
39.73487091 -7.04924154 -0.23454559 15 10 9866 40.35600000 3184377235 3184377235 -0.33300000
18.04887962 -2.29930878 -1.95987594 28 11 9866 18.30000000 3184377235 3184377235 -6.14800000
20.36828804 -4.65373802 -1.95033836 13 12 9867 20.98400000 3184377237 3184377237 -5.33300000
39.46935654 -5.03513765 0.92587298 18 13 9867 39.80000000 3184377237 3184377237 1.33300000
39.52119827 -9.03704453 0.47197607 17 14 9868 40.54400000 3184377240 3184377240 0.66700000
20.45145035 -2.61263537 -1.44172680 28 15 9868 20.66800000 3184377240 3184377240 -4.00000000
20.42218018 -3.63406706 -1.69335747 34 16 9869 20.81200000 3184377242 3184377242 -4.66700000
39.96001434 -3.13790393 1.16653037 22 17 9869 40.10000000 3184377242 3184377242 1.66700000
39.03944778 -6.95398521 0.69216245 82 18 9870 39.66000000 3184377244 3184377244 1.00000000
20.47455406 -1.61138237 -1.31624615 27 19 9870 20.58000000 3184377244 3184377244 -3.66700000
20.47428513 -4.68923712 -1.22324502 19 20 9870 21.04000000 3184377247 3184377247 -3.33300000
39.25576401 -6.99958563 1.62454617 25 22 9871 39.90800000 3184377249 3184377249 2.33300000
20.50951576 -2.63096809 -0.96319425 20 23 9871 20.70000000 3184377249 3184377249 -2.66700000
20.48765373 -3.65678573 -1.09068131 35 24 9872 20.84000000 3184377251 3184377251 -3.00000000
87.60485077 -11.25352383 10.84490871 28 25 9872 88.98800000 3184377251 3184377251 7.00000000
87.14157867 -15.56935883 7.22646713 28 26 9873 88.81600000 3184377254 3184377254 4.66700000
20.66205788 -1.63702524 -0.84443182 7 27 9873 20.74400000 3184377254 3184377254 -2.33300000
39.05785751 -8.97414589 -1.39946985 15 28 9874 40.10000000 3184377256 3184377256 -2.00000000
93.02601624 -16.63747025 17.23017311 28 30 9874 96.06000000 3184377258 3184377258 10.33300000
39.81616211 -5.12882376 -0.93415463 31 31 9874 40.15600000 3184377258 3184377258 -1.33300000
5.86156654 -1.05783105 -2.77744722 8 0 9883 6.57200000 3184377279 3184377279 -25.00000000
40.21818161 -3.25707340 -0.70430928 25 1 9883 40.35600000 3184377279 3184377279 -1.00000000
39.66884995 -7.16614676 -1.17316306 25 2 9884 40.32800000 3184377281 3184377281 -1.66700000
9.02163029 -1.17811036 -2.54694796 2 3 9884 9.44800000 3184377281 3184377281 -15.63900000
11.89181042 -2.15038967 -2.41694951 3 4 9885 12.32400000 3184377283 3184377283 -11.31000000
39.65440369 -5.18540049 0.00000000 19 5 9885 39.99200000 3184377283 3184377283 0.00000000
39.61729050 -9.19008160 -0.47346613 29 6 9886 40.67200000 3184377286 3184377286 -0.66700000
14.18677521 -1.85764933 -2.22597337 3 7 9886 14.48000000 3184377286 3184377286 -8.84300000
16.54741859 -2.99524355 -2.14049888 2 8 9886 16.95200000 3184377288 3184377288 -7.25400000
40.17806244 -3.27500057 0.23428987 25 9 9886 40.31200000 3184377288 3184377288 0.33300000
39.74812698 -7.20196104 -0.23477806 22 10 9887 40.39600000 3184377290 3184377290 -0.33300000
18.04821777 -2.36647987 -1.96073282 25 11 9887 18.30800000 3184377290 3184377290 -6.14800000
20.36273193 -4.73106384 -1.95145369 11 12 9888 20.99600000 3184377293 3184377293 -5.33300000
39.51010895 -5.18757486 0.92726874 18 13 9888 39.86000000 3184377293 3184377293 1.33300000
39.46443558 -9.17640114 0.47169670 26 14 9889 40.52000000 3184377295 3184377295 0.66700000
20.45360565 -2.68913651 -1.44256389 28 15 9889 20.68000000 3184377295 3184377295 -4.00000000
20.42049026 -3.71103215 -1.69433379 31 16 9890 20.82400000 3184377297 3184377297 -4.66700000
39.90839767 -3.28106737 1.16536677 22 17 9890 40.06000000 3184377297 3184377297 1.66700000
39.50286865 -7.17888832 0.70081884 17 18 9890 40.15600000 3184377300 3184377300 1.00000000
20.46880341 -1.68284202 -1.31624615 27 19 9890 20.58000000 3184377300 3184377300 -3.66700000
20.46862793 -4.76696491 -1.22394264 22 20 9891 21.05200000 3184377302 3184377302 -3.33300000
86.37702942 -11.38708973 5.07390881 37 21 9891 87.27200000 3184377302 3184377302 3.33300000
39.24950790 -7.14699841 1.62536025 25 22 9892 39.92800000 3184377304 3184377304 2.33300000
20.51161957 -2.70769024 -0.96375263 18 23 9892 20.71200000 3184377304 3184377304 -2.66700000
20.48590279 -3.73400116 -1.09130931 28 24 9893 20.85200000 3184377307 3184377307 -3.00000000
87.44493866 -11.55892754 10.83028507 28 25 9893 88.86800000 3184377307 3184377307 7.00000000
86.56230927 -15.79347229 7.18318129 28 26 9894 88.28400000 3184377309 3184377309 4.66700000
20.66786766 -1.71373534 -0.84492034 7 27 9894 20.75600000 3184377309 3184377309 -2.33300000
39.12591553 -9.14088535 -1.40309942 15 28 9895 40.20400000 3184377311 3184377311 -2.00000000
95.20661163 -17.40498543 17.64630890 28 30 9896 98.38000000 3184377313 3184377313 10.33300000
39.76842880 -5.27798605 -0.93350327 26 31 9896 40.12800000 3184377313 3184377313 -1.33300000
5.86140394 -1.07894158 -2.77913761 7 0 9903 6.57600000 3184377334 3184377334 -25.00000000
40.20258331 -3.39710450 -0.70423949 25 1 9903 40.35200000 3184377334 3184377334 -1.00000000
39.65145874 -7.30602217 -1.17339575 25 2 9904 40.33600000 3184377336 3184377336 -1.66700000
9.02891636 -1.21113086 -2.55018282 3 3 9904 9.46000000 3184377336 3184377336 -15.63900000
11.88423157 -2.19188666 -2.41694951 3 4 9905 12.32400000 3184377339 3184377339 -11.31000000
39.72724152 -5.33603573 0.00000000 19 5 9905 40.08400000 3184377339 3184377339 0.00000000
39.69397736 -9.35400295 -0.47476995 20 6 9906 40.78400000 3184377341 3184377341 -0.66700000
14.18803883 -1.90821278 -2.22720337 3 7 9906 14.48800000 3184377341 3184377341 -8.84300000
16.53686333 -3.05298638 -2.14049888 2 8 9906 16.95200000 3184377343 3184377343 -7.25400000
40.16638565 -3.41522837 0.23428987 16 9 9906 40.31200000 3184377343 3184377343 0.33300000
39.76207733 -7.34793282 -0.23501053 22 10 9907 40.43600000 3184377346 3184377346 -0.33300000
18.04378891 -2.42999625 -1.96116114 22 11 9907 18.31200000 3184377346 3184377346 -6.14800000
20.36159897 -4.80577374 -1.95294082 15 12 9908 21.01200000 3184377348 3184377348 -5.33300000
39.48780060 -5.32492495 0.92717570 18 13 9908 39.85600000 3184377348 3184377348 1.33300000
39.31149292 -9.28559875 0.47025320 26 14 9909 40.39600000 3184377350 3184377350 0.66700000
20.45200157 -2.76158452 -1.44312191 24 15 9909 20.68800000 3184377350 3184377350 -4.00000000
20.42701340 -3.78592300 -1.69596112 21 16 9910 20.84400000 3184377353 3184377353 -4.66700000
39.99230957 -3.42855024 1.16815948 22 17 9910 40.15600000 3184377353 3184377353 1.66700000
39.38712311 -7.29997206 0.69921321 25 18 9910 40.06400000 3184377355 3184377355 1.00000000
20.45882797 -1.75394022 -1.31599033 27 19 9910 20.57600000 3184377355 3184377355 -3.66700000
20.46740723 -4.84206200 -1.22487295 22 20 9911 21.06800000 3184377357 3184377357 -3.33300000
86.55044556 -11.71746159 5.08646679 37 21 9911 87.48800000 3184377357 3184377357 3.33300000
39.42079544 -7.32044649 1.63350177 25 22 9912 40.12800000 3184377360 3184377360 2.33300000
20.50996208 -2.78034616 -0.96412486 20 23 9912 20.72000000 3184377360 3184377360 -2.66700000
20.48452568 -3.80767751 -1.09193742 28 24 9913 20.86400000 3184377362 3184377362 -3.00000000
85.70059204 -11.63287067 10.61920738 28 25 9913 87.13600000 3184377362 3184377362 7.00000000
88.03524017 -16.37994766 7.31010962 28 26 9914 89.84400000 3184377364 3184377364 4.66700000
20.67768669 -1.78724587 -0.84557164 9 27 9914 20.77200000 3184377364 3184377364 -2.33300000
39.09765625 -9.27832794 -1.40323901 15 28 9915 40.20800000 3184377366 3184377366 -2.00000000
95.47333527 -17.78112793 17.70657730 28 30 9915 98.71600000 3184377369 3184377369 10.33300000
39.79429245 -5.41576576 -0.93452686 31 31 9915 40.17200000 3184377369 3184377369 -1.33300000
5.85423040 -1.09770465 -2.77744722 6 0 9922 6.57200000 3184377389 3184377389 -25.00000000
40.09946442 -3.52235341 -0.70263386 17 1 9922 40.26000000 3184377389 3184377389 -1.00000000
39.61522293 -7.43525839 -1.17304671 25 2 9923 40.32400000 3184377392 3184377392 -1.66700000
9.01340199 -1.23949087 -2.54694796 2 3 9923 9.44800000 3184377392 3184377392 -15.63900000
11.88846207 -2.23345685 -2.41930294 3 4 9924 12.33600000 3184377394 3184377394 -11.31000000
39.60630035 -5.45356035 0.00000000 19 5 9924 39.98000000 3184377394 3184377394 0.00000000
39.71107864 -9.48981476 -0.47532871 20 6 9924 40.83200000 3184377396 3184377396 -0.66700000
14.19371986 -1.95439374 -2.22904801 3 7 9924 14.50000000 3184377396 3184377396 -8.84300000
16.56174469 -3.11440778 -2.14504457 2 8 9925 16.98800000 3184377399 3184377399 -7.25400000
40.07913589 -3.54171634 0.23384815 16 9 9925 40.23600000 3184377399 3184377399 0.33300000
39.72962952 -7.47826862 -0.23496404 15 10 9926 40.42800000 3184377401 3184377401 -0.33300000
18.05138969 -2.49199367 -1.96287465 28 11 9926 18.32800000 3184377401 3184377401 -6.14800000
20.36491585 -4.87790775 -1.95479965 15 12 9927 21.03200000 3184377403 3184377403 -5.33300000
39.42634964 -5.44981861 0.92615211 18 13 9927 39.81200000 3184377403 3184377403 1.33300000
39.36994171 -9.43735313 0.47132418 17 14 9928 40.48800000 3184377406 3184377406 0.66700000
20.45063782 -2.83048463 -1.44367993 26 15 9928 20.69600000 3184377406 3184377406 -4.00000000
20.43001556 -3.85659862 -1.69726288 26 16 9929 20.86000000 3184377408 3184377408 -4.66700000
39.96080780 -3.55937719 1.16757762 22 17 9929 40.13600000 3184377408 3184377408 1.66700000
39.17798996 -7.39567661 0.69593215 25 18 9929 39.87600000 3184377410 3184377410 1.00000000
20.46085167 -1.82248282 -1.31650198 27 19 9929 20.58400000 3184377410 3184377410 -3.66700000
20.46288681 -4.91270447 -1.22557056 19 20 9930 21.08000000 3184377413 3184377413 -3.33300000
39.89352036 -5.53568316 2.34556055 5 21 9930 40.34400000 3184377413 3184377413 3.33300000
39.41201019 -7.45410156 1.63415313 25 22 9931 40.14400000 3184377415 3184377415 2.33300000
20.52041817 -2.85109377 -0.96505553 22 23 9931 20.74000000 3184377415 3184377415 -2.66700000
20.49925995 -3.88078690 -1.09340274 28 24 9932 20.89200000 3184377417 3184377417 -3.00000000
88.29619598 -12.28352547 10.94581699 28 25 9932 89.81600000 3184377417 3184377417 7.00000000
88.01569366 -16.67847252 7.31303883 28 26 9933 89.88000000 3184377419 3184377419 4.66700000
20.69951057 -1.85830724 -0.84671146 9 27 9933 20.80000000 3184377419 3184377419 -2.33300000
39.07056046 -9.40886497 -1.40337861 23 28 9934 40.21200000 3184377422 3184377422 -2.00000000
101.46108246 -19.26298714 18.82942581 28 30 9935 104.97600000 3184377424 3184377424 10.33300000
39.85039520 -5.56514931 -0.93629485 21 31 9935 40.24800000 3184377424 3184377424 -1.33300000
5.86104536 -1.12017477 -2.78251863 7 0 9942 6.58400000 3184377445 3184377445 -25.00000000
40.08293915 -3.66194129 -0.70256406 25 1 9942 40.25600000 3184377445 3184377445 -1.00000000
39.62044525 -7.57950640 -1.17397761 25 2 9943 40.35600000 3184377447 3184377447 -1.66700000
9.01283455 -1.27148402 -2.54802632 3 3 9943 9.45200000 3184377447 3184377447 -15.63900000
11.87674141 -2.27420402 -2.41851854 3 4 9944 12.33200000 3184377449 3184377449 -11.31000000
39.62662888 -5.59737349 0.00000000 19 5 9944 40.02000000 3184377449 3184377449 0.00000000
39.65827560 -9.62365913 -0.47509590 30 6 9944 40.81200000 3184377452 3184377452 -0.66700000
14.19463825 -2.00503278 -2.23027778 4 7 9944 14.50800000 3184377452 3184377452 -8.84300000
16.56246376 -3.17444086 -2.14655972 2 8 9945 17.00000000 3184377454 3184377454 -7.25400000
39.99881744 -3.67537498 0.23345295 25 9 9945 40.16800000 3184377454 3184377454 0.33300000
39.83291626 -7.64177465 -0.23573121 22 10 9946 40.56000000 3184377456 3184377456 -0.33300000
18.05439377 -2.55666256 -1.96415985 28 11 9946 18.34000000 3184377456 3184377456 -6.14800000
20.35163498 -4.94990587 -1.95517147 18 12 9947 21.03600000 3184377459 3184377459 -5.33300000
39.54170227 -5.60649586 0.92931592 18 13 9947 39.94800000 3184377459 3184377459 1.33300000
38.96756363 -9.48485947 0.46690056 25 14 9948 40.10800000 3184377461 3184377461 0.66700000
20.45643425 -2.90409684 -1.44479609 26 15 9948 20.71200000 3184377461 3184377461 -4.00000000
20.43208885 -3.93090200 -1.69856477 36 16 9949 20.87600000 3184377463 3184377463 -4.66700000
39.94017792 -3.69810748 1.16734493 22 17 9949 40.12800000 3184377463 3184377463 1.66700000
39.14015579 -7.53012133 0.69572276 16 18 9949 39.86400000 3184377466 3184377466 1.00000000
20.47423935 -1.89573359 -1.31778109 27 19 9949 20.60400000 3184377466 3184377466 -3.66700000
20.46113205 -4.98788643 -1.22650075 22 20 9950 21.09600000 3184377468 3184377468 -3.33300000
40.00836945 -5.69403410 2.35346746 5 21 9950 40.48000000 3184377468 3184377468 3.33300000
39.29941559 -7.57498789 1.63057077 25 22 9951 40.05600000 3184377470 3184377470 2.33300000
20.51033974 -2.92270613 -0.96505553 22 23 9951 20.74000000 3184377470 3184377470 -2.66700000
20.48950958 -3.95307565 -1.09361219 31 24 9952 20.89600000 3184377472 3184377472 -3.00000000
90.38304901 -12.89560223 11.21002960 28 25 9952 91.98400000 3184377472 3184377472 7.00000000
88.08611298 -17.01054955 7.32377911 28 26 9953 90.01200000 3184377475 3184377475 4.66700000
20.72075462 -1.93314958 -0.84785122 7 27 9953 20.82800000 3184377475 3184377475 -2.33300000
39.04912949 -9.54803848 -1.40379739 23 28 9954 40.22400000 3184377477 3184377477 -2.00000000
96.31274414 -18.63409042 17.88594627 28 30 9955 99.71600000 3184377479 3184377479 10.33300000
39.89010239 -5.71272278 -0.93769068 26 31 9955 40.30800000 3184377479 3184377479 -1.33300000
5.85709953 -1.14062679 -2.78251863 7 0 9962 6.58400000 3184377500 3184377500 -25.00000000
40.12963486 -3.80750108 -0.70361120 17 1 9962 40.31600000 3184377500 3184377500 -1.00000000
39.67223358 -7.73306036 -1.17630482 25 2 9963 40.43600000 3184377502 3184377502 -1.66700000
9.02359104 -1.30514252 -2.55233955 3 3 9963 9.46800000 3184377502 3184377502 -15.63900000
11.87258053 -2.31639886 -2.41930294 3 4 9964 12.33600000 3184377505 3184377505 -11.31000000
39.56726456 -5.72992945 0.00000000 19 5 9964 39.98000000 3184377505 3184377505 0.00000000
39.60113907 -9.75629234 -0.47481650 20 6 9964 40.78800000 3184377507 3184377507 -0.66700000
14.20320034 -2.05683494 -2.23273754 3 7 9964 14.52400000 3184377507 3184377507 -8.84300000
16.55517578 -3.23299575 -2.14706492 2 8 9965 17.00400000 3184377509 3184377509 -7.25400000
40.10519791 -3.82637143 0.23415038 25 9 9965 40.28800000 3184377509 3184377509 0.33300000
39.79029846 -7.77770185 -0.23563823 22 10 9966 40.54400000 3184377512 3184377512 -0.33300000
18.06110191 -2.62195396 -1.96587348 27 11 9966 18.35600000 3184377512 3184377512 -6.14800000
20.34583282 -5.02378035 -1.95628679 13 12 9967 21.04800000 3184377514 3184377514 -5.33300000
39.19739151 -5.69732189 0.92168564 18 13 9967 39.62000000 3184377514 3184377514 1.33300000
39.19049454 -9.68414974 0.46997380 17 14 9968 40.37200000 3184377516 3184377516 0.66700000
20.45407104 -2.97663474 -1.44535410 26 15 9968 20.72000000 3184377516 3184377516 -4.00000000
20.43389320 -4.00526667 -1.69986653 31 16 9969 20.89200000 3184377519 3184377519 -4.66700000
40.03846359 -3.84821272 1.17060304 22 17 9969 40.24000000 3184377519 3184377519 1.66700000
39.43153381 -7.72901249 0.70137733 17 18 9969 40.18800000 3184377521 3184377521 1.00000000
20.47146988 -1.96757233 -1.31803691 27 19 9969 20.60800000 3184377521 3184377521 -3.66700000
20.45134926 -5.06119728 -1.22696590 22 20 9970 21.10400000 3184377523 3184377523 -3.33300000
39.88551331 -5.81866693 2.34742117 5 21 9970 40.37600000 3184377523 3184377523 3.33300000
39.28449631 -7.71443272 1.63105929 25 22 9971 40.06800000 3184377525 3184377525 2.33300000
20.51187515 -2.99601507 -0.96561390 22 23 9971 20.75200000 3184377525 3184377525 -2.66700000
20.49126434 -4.02765512 -1.09444952 31 24 9972 20.91200000 3184377528 3184377528 -3.00000000
90.56925964 -13.24491501 11.23879051 28 25 9972 92.22000000 3184377528 3184377528 7.00000000
92.32521820 -18.16369438 7.68145704 28 26 9973 94.40800000 3184377530 3184377530 4.66700000
20.73774910 -2.00777769 -0.84882820 7 27 9973 20.85200000 3184377530 3184377530 -2.33300000
39.01168442 -9.68332386 -1.40365779 23 28 9974 40.22000000 3184377532 3184377532 -2.00000000
96.83782196 -19.08659935 17.99571991 28 30 9975 100.32800000 3184377535 3184377535 10.33300000
39.91344070 -5.85831833 -0.93871421 26 31 9975 40.35200000 3184377535 3184377535 -1.33300000
5.85663843 -1.16177022 -2.78420901 7 0 9982 6.58800000 3184377555 3184377555 -25.00000000
40.16386414 -3.95225644 -0.70444894 17 1 9982 40.36400000 3184377555 3184377555 -1.00000000
39.72343445 -7.88706875 -1.17863202 25 2 9983 40.51600000 3184377558 3184377558 -1.66700000
9.02278996 -1.33719742 -2.55341792 3 3 9983 9.47200000 3184377558 3184377558 -15.63900000
11.87211609 -2.35935688 -2.42087173 4 4 9984 12.34400000 3184377560 3184377560 -11.31000000
39.58263016 -5.87329388 0.00000000 19 5 9984 40.01600000 3184377560 3184377560 0.00000000
39.71817017 -9.93231010 -0.47663251 20 6 9984 40.94400000 3184377562 3184377562 -0.66700000
14.19202423 -2.10582089 -2.23212266 4 7 9984 14.52000000 3184377562 3184377562 -8.84300000
16.55157471 -3.29231262 -2.14807510 2 8 9985 17.01200000 3184377565 3184377565 -7.25400000
40.14732361 -3.97185469 0.23447585 16 9 9985 40.34400000 3184377565 3184377565 0.33300000
39.76290512 -7.91654825 -0.23563823 22 10 9986 40.54400000 3184377567 3184377567 -0.33300000
18.06364250 -2.68673825 -1.96715856 25 11 9986 18.36800000 3184377567 3184377567 -6.14800000
20.35135078 -5.10057926 -1.95851743 11 12 9987 21.07200000 3184377569 3184377569 -5.33300000
39.55301666 -5.89006710 0.93052560 18 13 9987 40.00000000 3184377569 3184377569 1.33300000
39.49009323 -9.90457249 0.47397834 27 14 9988 40.71600000 3184377571 3184377571 0.66700000
20.45539474 -3.04977989 -1.44619119 28 15 9988 20.73200000 3184377571 3184377571 -4.00000000
20.42760658 -4.07813072 -1.70051754 31 16 9989 20.90000000 3184377574 3184377574 -4.66700000
40.11231613 -3.99667096 1.17316306 15 17 9989 40.32800000 3184377574 3184377574 1.66700000
39.55334854 -7.89636040 0.70403010 25 18 9989 40.34000000 3184377576 3184377576 1.00000000
20.46447754 -2.03901911 -1.31803691 31 19 9989 20.60800000 3184377576 3184377576 -3.66700000
20.45292091 -5.13741875 -1.22812867 22 20 9990 21.12400000 3184377578 3184377578 -3.33300000
88.11048126 -13.16820049 5.18832636 35 21 9990 89.24000000 3184377578 3184377578 3.33300000
39.25733185 -7.85151434 1.63105929 25 22 9991 40.06800000 3184377581 3184377581 2.33300000
20.51314545 -3.06937051 -0.96617228 23 23 9991 20.76400000 3184377581 3184377581 -2.66700000
20.50058174 -4.10386276 -1.09570563 35 24 9992 20.93600000 3184377583 3184377583 -3.00000000
88.34725952 -13.23511600 10.96872807 28 25 9992 90.00400000 3184377583 3184377583 7.00000000
92.42152405 -18.51797104 7.69480085 28 26 9993 94.57200000 3184377585 3184377585 4.66700000
20.75447464 -2.08254790 -0.84980518 5 27 9993 20.87600000 3184377585 3184377585 -2.33300000
39.03191376 -9.83311272 -1.40561211 15 28 9994 40.27600000 3184377588 3184377588 -2.00000000
95.92952728 -19.25568199 17.83930969 28 30 9995 99.45600000 3184377590 3184377590 10.33300000
39.91647720 -6.00117350 -0.93927252 15 31 9995 40.37600000 3184377590 3184377590 -1.33300000
5.85254717 -1.18220663 -2.78420901 7 0 10002 6.58800000 3184377611 3184377611 -25.00000000
40.15777969 -4.09324121 -0.70458853 25 1 10002 40.37200000 3184377611 3184377611 -1.00000000
39.84850311 -8.05658245 -1.18317020 25 2 10003 40.67200000 3184377613 3184377613 -1.66700000
9.02568436 -1.36984074 -2.55557442 3 3 10003 9.48000000 3184377613 3184377613 -15.63900000
11.87534142 -2.40311766 -2.42322516 3 4 10004 12.35600000 3184377615 3184377615 -11.31000000
39.57770538 -6.01383066 0.00000000 26 5 10004 40.03200000 3184377615 3184377615 0.00000000
39.57083130 -10.04235935 -0.47528213 20 6 10004 40.82800000 3184377618 3184377618 -0.66700000
14.20021725 -2.15772247 -2.23458219 3 7 10004 14.53600000 3184377618 3184377618 -8.84300000
16.55164719 -3.35243154 -2.14959025 2 8 10005 17.02400000 3184377620 3184377620 -7.25400000
40.16107178 -4.11482477 0.23463859 16 9 10005 40.37200000 3184377620 3184377620 0.33300000
39.51942062 -8.01158905 -0.23435961 22 10 10006 40.32400000 3184377622 3184377622 -0.33300000
18.06594849 -2.75157213 -1.96844375 25 11 10006 18.38000000 3184377622 3184377622 -6.14800000
20.36044121 -5.17845964 -1.96111989 9 12 10007 21.10000000 3184377624 3184377624 -5.33300000
39.33850861 -5.99855947 0.92596602 18 13 10007 39.80400000 3184377624 3184377624 1.33300000
39.04440689 -9.93778133 0.46904251 25 14 10008 40.29200000 3184377627 3184377627 0.66700000
20.46040344 -3.12357283 -1.44730735 28 15 10008 20.74800000 3184377627 3184377627 -4.00000000
20.42106056 -4.15100002 -1.70116842 31 16 10009 20.90800000 3184377629 3184377629 -4.66700000
39.79585266 -4.10548162 1.16431952 15 17 10009 40.02400000 3184377629 3184377629 1.66700000
39.14929581 -7.95789909 0.69732833 25 18 10009 39.95600000 3184377631 3184377631 1.00000000
20.45723534 -2.11044121 -1.31803691 33 19 10009 20.60800000 3184377631 3184377631 -3.66700000
20.44647217 -5.21174049 -1.22882640 22 20 10010 21.13600000 3184377634 3184377634 -3.33300000
