# .PCD v0.7 - Point Cloud Data file format
VERSION 0.7
FIELDS x y z intensity laser_id azimuth distance_m adjustedtime timestamp vertical_angle
SIZE 4 4 4 1 1 2 8 8 4 8
TYPE F F F U U U F U U F
COUNT 1 1 1 1 1 1 1 1 1 1
WIDTH 524
HEIGHT 1
VIEWPOINT 0 0 0 1 0 0 0
POINTS 524
DATA ascii
7.02047062 5.56036758 -2.50705075 6 3 5302 9.30000000 3184664544 3184664544 -15.63900000
9.56812286 6.84252882 -2.35262299 3 4 5303 11.99600000 3184664546 3184664546 -11.31000000
12.61015511 9.98393917 0.00000000 1 5 5303 16.08400000 3184664546 3184664546 0.00000000
39.19105148 25.22787476 -0.54261416 12 6 5303 46.61200000 3184664549 3184664549 -0.66700000
10.76212120 8.52078056 -2.13558173 2 7 5303 13.89200000 3184664549 3184664549 -8.84300000
13.07333183 9.34578800 -2.04554534 1 8 5304 16.20000000 3184664551 3184664551 -7.25400000
11.71453094 10.24085903 0.09043337 41 9 5304 15.56000000 3184664551 3184664551 0.33300000
13.25183105 9.46989822 -0.09466445 4 10 5305 16.28800000 3184664553 3184664553 -0.33300000
11.69587135 9.25342655 -1.60645568 2 11 5305 15.00000000 3184664553 3184664553 -6.14800000
13.17208099 8.46931744 -1.46182430 3 12 5306 15.72800000 3184664555 3184664555 -5.33300000
12.88484478 10.19045067 0.38225991 1 13 5306 16.43200000 3184664555 3184664555 1.33300000
40.51414871 26.03958893 0.56068110 30 14 5307 48.16400000 3184664558 3184664558 0.66700000
11.63794804 9.20099545 -1.03741825 65 15 5307 14.87200000 3184664558 3184664558 -4.00000000
12.05139732 8.60252666 -1.20875061 33 16 5308 14.85600000 3184664560 3184664560 -4.66700000
40.05316162 28.58019257 0.85886782 27 18 5309 49.21200000 3184664562 3184664562 1.00000000
11.62145996 10.14161777 -0.98852772 2 19 5309 15.45600000 3184664562 3184664562 -3.66700000
13.32901287 8.56035900 -0.92254996 2 20 5309 15.86800000 3184664565 3184664565 -3.33300000
13.33872890 10.53807449 0.98999125 3 21 5309 17.02800000 3184664565 3184664565 3.33300000
39.70566940 28.32177734 1.98700380 20 22 5310 48.81200000 3184664567 3184664567 2.33300000
11.68050194 9.22470474 -0.69331372 45 23 5310 14.90000000 3184664567 3184664567 -2.66700000
12.05340958 8.59443951 -0.77582824 54 24 5311 14.82400000 3184664569 3184664569 -3.00000000
43.32364655 34.20267868 6.77739811 40 25 5311 55.61200000 3184664569 3184664569 7.00000000
42.95083618 30.61391830 4.30580807 33 26 5312 52.92000000 3184664572 3184664572 4.66700000
11.64698982 10.15316010 -0.62949741 45 27 5312 15.46400000 3184664572 3184664572 -2.33300000
13.41337967 8.60132217 -0.55643755 1 28 5313 15.94400000 3184664574 3184664574 -2.00000000
11.84553432 9.34497261 -0.35108730 51 31 5313 15.09200000 3184664576 3184664576 -1.33300000
3.96022677 2.81334662 -2.26523399 6 0 5321 5.36000000 3184664597 3184664597 -25.00000000
11.70100975 10.16794777 -0.27058211 64 1 5321 15.50400000 3184664597 3184664597 -1.00000000
12.21173382 8.67201328 -0.43589255 12 2 5322 14.98400000 3184664599 3184664599 -1.66700000
7.03983736 5.53582764 -2.50705075 6 3 5322 9.30000000 3184664599 3184664599 -15.63900000
9.57915592 6.80000591 -2.34948516 3 4 5323 11.98000000 3184664601 3184664601 -11.31000000
12.76757240 10.03626823 0.00000000 1 5 5323 16.24000000 3184664601 3184664601 0.00000000
39.14166641 24.99365425 -0.54065847 12 6 5324 46.44400000 3184664604 3184664604 -0.66700000
10.78706360 8.47639465 -2.13435197 2 7 5324 13.88400000 3184664604 3184664604 -8.84300000
13.09940243 9.29550362 -2.04453516 2 8 5324 16.19200000 3184664606 3184664606 -7.25400000
13.33700562 9.46061039 -0.09503641 2 10 5325 16.35200000 3184664608 3184664608 -0.33300000
11.69369793 9.18552017 -1.60174346 2 11 5325 14.95600000 3184664608 3184664608 -6.14800000
13.25864124 8.45970440 -1.46814454 1 12 5326 15.79600000 3184664611 3184664611 -5.33300000
40.48339844 25.82057953 0.55900484 30 14 5327 48.02000000 3184664613 3184664613 0.66700000
11.65430069 9.14799690 -1.03602314 48 15 5327 14.85200000 3184664613 3184664613 -4.00000000
12.12038803 8.58806610 -1.21265614 31 16 5328 14.90400000 3184664615 3184664615 -4.66700000
40.10529709 28.41715622 0.85796028 40 18 5328 49.16000000 3184664618 3184664618 1.00000000
11.62486362 10.07687759 -0.98596942 2 19 5328 15.41600000 3184664618 3184664618 -3.66700000
13.39585495 8.53738785 -0.92510808 2 20 5329 15.91200000 3184664620 3184664620 -3.33300000
13.42570400 10.53088093 0.99371213 2 21 5329 17.09200000 3184664620 3184664620 3.33300000
40.01956940 28.33543396 1.99775052 31 22 5330 49.07600000 3184664622 3184664622 2.33300000
11.70005417 9.17401409 -0.69256926 40 23 5330 14.88400000 3184664622 3184664622 -2.66700000
12.07681465 8.54769802 -0.77540952 36 24 5331 14.81600000 3184664625 3184664625 -3.00000000
44.12083054 34.58271790 6.88318062 21 25 5331 56.48000000 3184664625 3184664625 7.00000000
42.59854889 30.13913536 4.25991821 15 26 5332 52.35600000 3184664627 3184664627 4.66700000
11.64005470 10.07582188 -0.62721777 47 27 5332 15.40800000 3184664627 3184664627 -2.33300000
11.86081409 9.28670216 -0.35052899 51 31 5334 15.06800000 3184664631 3184664631 -1.33300000
3.96113491 2.79323816 -2.26016235 6 0 5341 5.34800000 3184664652 3184664652 -25.00000000
11.71220779 10.10614014 -0.27002364 67 1 5341 15.47200000 3184664652 3184664652 -1.00000000
12.26153851 8.64315510 -0.43659073 12 2 5342 15.00800000 3184664654 3184664654 -1.66700000
7.05608177 5.50885010 -2.50597262 6 3 5342 9.29600000 3184664654 3184664654 -15.63900000
9.60924721 6.77104568 -2.35105419 3 4 5343 11.98800000 3184664657 3184664657 -11.31000000
12.83406162 10.01625061 0.00000000 1 5 5343 16.28000000 3184664657 3184664657 0.00000000
39.21515656 24.84830856 -0.54047221 12 6 5344 46.42800000 3184664659 3184664659 -0.66700000
10.81346989 8.43625736 -2.13373709 2 7 5344 13.88000000 3184664659 3184664659 -8.84300000
13.13177013 9.24972153 -2.04453516 2 8 5344 16.19200000 3184664661 3184664661 -7.25400000
13.45498180 9.47387218 -0.09564085 2 10 5345 16.45600000 3184664664 3184664664 -0.33300000
11.73509789 9.15198326 -1.60302866 1 11 5345 14.96800000 3184664664 3184664664 -6.14800000
13.33856392 8.44532967 -1.47372115 1 12 5346 15.85600000 3184664666 3184664666 -5.33300000
40.47527313 25.61707687 0.55765444 30 14 5347 47.90400000 3184664668 3184664668 0.66700000
11.66727734 9.09254265 -1.03434896 47 15 5347 14.82800000 3184664668 3184664668 -4.00000000
40.06031036 28.17575264 0.85488868 40 18 5348 48.98400000 3184664673 3184664673 1.00000000
12.08957767 10.40602112 -1.02229726 5 19 5348 15.98400000 3184664673 3184664673 -3.66700000
13.55059814 10.55265141 1.00022376 2 21 5349 17.20400000 3184664675 3184664675 3.33300000
40.06264496 28.15649986 1.99498236 21 22 5350 49.00800000 3184664678 3184664678 2.33300000
11.72254753 9.12575436 -0.69201088 33 23 5350 14.87200000 3184664678 3184664678 -2.66700000
42.47185516 29.82757568 4.23681068 15 26 5352 52.07200000 3184664682 3184664682 4.66700000
11.64181519 10.00647259 -0.62542665 57 27 5352 15.36400000 3184664682 3184664682 -2.33300000
13.44268036 8.48826122 -0.55518121 4 28 5353 15.90800000 3184664684 3184664684 -2.00000000
11.86629105 9.22768116 -0.34978458 50 31 5353 15.03600000 3184664687 3184664687 -1.33300000
3.97086120 2.77939415 -2.26016235 8 0 5361 5.34800000 3184664707 3184664707 -25.00000000
11.74741364 10.06519508 -0.27002364 58 1 5361 15.47200000 3184664707 3184664707 -1.00000000
12.30473804 8.60947037 -0.43705618 10 2 5362 15.02400000 3184664710 3184664710 -1.66700000
7.07831287 5.48654604 -2.50705075 5 3 5362 9.30000000 3184664710 3184664710 -15.63900000
9.63603783 6.73970985 -2.35183859 1 4 5363 11.99200000 3184664712 3184664712 -11.31000000
12.89107990 9.98853970 0.00000000 1 5 5363 16.30800000 3184664712 3184664712 0.00000000
39.15176010 24.62655830 -0.53846997 12 6 5363 46.25600000 3184664714 3184664714 -0.66700000
10.84451008 8.40277290 -2.13435197 2 7 5363 13.88400000 3184664714 3184664714 -8.84300000
13.17048168 9.20837402 -2.04554534 1 8 5364 16.20000000 3184664717 3184664717 -7.25400000
13.58632660 9.49559021 -0.09633828 2 10 5365 16.57600000 3184664719 3184664719 -0.33300000
11.74810600 9.09635544 -1.60045826 2 11 5365 14.94400000 3184664719 3184664719 -6.14800000
13.44215393 8.44533062 -1.48190022 1 12 5366 15.94400000 3184664721 3184664721 -5.33300000
40.17831039 25.23313141 0.55234611 29 14 5367 47.44800000 3184664724 3184664724 0.66700000
11.68000984 9.03711033 -1.03267479 49 15 5367 14.80400000 3184664724 3184664724 -4.00000000
12.19639301 8.51465225 -1.21428335 1 16 5368 14.92400000 3184664726 3184664726 -4.66700000
40.32566071 28.15250206 0.85844898 27 18 5368 49.18800000 3184664728 3184664728 1.00000000
12.20168972 10.42859554 -1.02869308 9 19 5368 16.08400000 3184664728 3184664728 -3.66700000
13.44836521 8.43941498 -0.92464298 18 20 5369 15.90400000 3184664731 3184664731 -3.33300000
39.97859192 30.91011620 2.94299722 19 21 5369 50.62000000 3184664731 3184664731 3.33300000
39.94762421 27.86784935 1.98439848 31 22 5370 48.74800000 3184664733 3184664733 2.33300000
11.74800777 9.07989216 -0.69163865 27 23 5370 14.86400000 3184664733 3184664733 -2.66700000
44.43030548 34.32725906 6.89390516 44 25 5371 56.56800000 3184664735 3184664735 7.00000000
42.74578094 29.79769135 4.25373459 47 26 5372 52.28000000 3184664737 3184664737 4.66700000
11.64019299 9.93463898 -0.62347269 47 27 5372 15.31600000 3184664737 3184664737 -2.33300000
20.78930473 13.02594280 -0.85671282 12 28 5373 24.54800000 3184664740 3184664740 -2.00000000
11.89053440 9.17679691 -0.34950542 48 31 5374 15.02400000 3184664742 3184664742 -1.33300000
3.97362018 2.76276660 -2.25678158 8 0 5379 5.34000000 3184664763 3184664763 -25.00000000
11.76070499 10.01268387 -0.26960477 37 1 5379 15.44800000 3184664763 3184664763 -1.00000000
12.36783981 8.59587288 -0.43833616 15 2 5380 15.06800000 3184664765 3184664765 -1.66700000
7.08941078 5.45958090 -2.50489426 5 3 5380 9.29200000 3184664765 3184664765 -15.63900000
9.65072155 6.70492840 -2.35026956 3 4 5381 11.98400000 3184664767 3184664767 -11.31000000
13.03650093 10.03583336 0.00000000 1 5 5381 16.45200000 3184664767 3184664767 0.00000000
39.19840240 24.48436737 -0.53805089 12 6 5381 46.22000000 3184664770 3184664770 -0.66700000
10.86772251 8.36625195 -2.13373709 2 7 5381 13.88000000 3184664770 3184664770 -8.84300000
13.19608688 9.16468906 -2.04504013 2 8 5382 16.19600000 3184664772 3184664772 -7.25400000
40.21741104 27.92061043 -0.28455129 18 10 5383 48.96000000 3184664774 3184664774 -0.33300000
11.70727634 9.00605488 -1.59103370 3 11 5383 14.85600000 3184664774 3184664774 -6.14800000
13.57336807 8.46841145 -1.49342525 1 12 5384 16.06800000 3184664777 3184664777 -5.33300000
40.42368317 25.21049690 0.55462778 30 14 5385 47.64400000 3184664779 3184664779 0.66700000
11.68619823 8.98334885 -1.03072166 48 15 5385 14.77600000 3184664779 3184664779 -4.00000000
12.23618603 8.48538113 -1.21558523 1 16 5386 14.94000000 3184664781 3184664781 -4.66700000
40.45005798 28.05074692 0.85921687 27 18 5386 49.23200000 3184664784 3184664784 1.00000000
12.26177597 10.41346741 -1.03099549 9 19 5386 16.12000000 3184664784 3184664784 -3.66700000
39.97733307 30.70895576 2.93578792 29 21 5387 50.49600000 3184664786 3184664786 3.33300000
39.92985535 27.66936874 1.97918797 20 22 5388 48.62000000 3184664788 3184664788 2.33300000
11.77964401 9.04537392 -0.69182473 20 23 5388 14.86800000 3184664788 3184664788 -2.66700000
12.32362270 8.53646278 -0.78566736 2 24 5389 15.01200000 3184664790 3184664790 -3.00000000
44.50958633 34.16574860 6.88951778 66 25 5389 56.53200000 3184664790 3184664790 7.00000000
42.68185425 29.55431557 4.23811245 30 26 5390 52.08800000 3184664793 3184664793 4.66700000
11.62867165 9.86183071 -0.62119311 49 27 5390 15.26000000 3184664793 3184664793 -2.33300000
20.78939438 12.93522453 -0.85503769 15 28 5391 24.50000000 3184664795 3184664795 -2.00000000
11.90661240 9.12966347 -0.34913319 50 31 5392 15.00800000 3184664797 3184664797 -1.33300000
3.98323989 2.74887919 -2.25678158 8 0 5399 5.34000000 3184664818 3184664818 -25.00000000
11.71311855 9.90185738 -0.26771992 51 1 5399 15.34000000 3184664818 3184664818 -1.00000000
7.11148500 5.43714094 -2.50597262 5 3 5400 9.29600000 3184664820 3184664820 -15.63900000
9.66760921 6.66674662 -2.34870076 3 4 5401 11.97600000 3184664823 3184664823 -11.31000000
13.08098698 9.99755287 0.00000000 1 5 5401 16.46400000 3184664823 3184664823 0.00000000
39.27682877 24.34317589 -0.53795773 12 6 5401 46.21200000 3184664825 3184664825 -0.66700000
10.88429928 8.31866550 -2.13127732 3 7 5401 13.86400000 3184664825 3184664825 -8.84300000
13.22472954 9.11631870 -2.04453516 2 8 5402 16.19200000 3184664827 3184664827 -7.25400000
12.05299664 10.17836189 0.09168875 0 9 5402 15.77600000 3184664827 3184664827 0.33300000
40.26522064 27.74601173 -0.28420258 27 10 5403 48.90000000 3184664830 3184664830 -0.33300000
11.71651745 8.94823742 -1.58803499 3 11 5403 14.82800000 3184664830 3184664830 -6.14800000
16.38301468 10.14207172 -1.79865360 2 12 5404 19.35200000 3184664832 3184664832 -5.33300000
40.43661118 25.02293396 0.55360335 29 14 5405 47.55600000 3184664834 3184664834 0.66700000
11.69210815 8.92313480 -1.02848947 49 15 5405 14.74400000 3184664834 3184664834 -4.00000000
12.45620346 8.57372093 -1.23446178 1 16 5406 15.17200000 3184664837 3184664837 -4.66700000
40.25122833 27.70529747 0.85293400 26 18 5406 48.87200000 3184664839 3184664839 1.00000000
12.19734669 10.28568172 -1.02255309 5 19 5406 15.98800000 3184664839 3184664839 -3.66700000
20.36474609 12.59225845 -1.39440632 3 20 5407 23.98400000 3184664841 3184664841 -3.33300000
39.73500824 30.30285645 2.91020679 28 21 5407 50.05600000 3184664841 3184664841 3.33300000
39.37089157 27.07910347 1.94678497 30 22 5408 47.82400000 3184664843 3184664843 2.33300000
11.81432438 9.00662231 -0.69201088 19 23 5408 14.87200000 3184664843 3184664843 -2.66700000
43.71913910 33.31711960 6.74912405 40 25 5409 55.38000000 3184664846 3184664846 7.00000000
42.57776642 29.26288795 4.21760893 30 26 5410 51.83600000 3184664848 3184664848 4.66700000
11.62328243 9.78771210 -0.61907631 49 27 5410 15.20800000 3184664848 3184664848 -2.33300000
20.78679848 12.83317661 -0.85308331 18 28 5411 24.44400000 3184664850 3184664850 -2.00000000
11.92568111 9.07835674 -0.34876099 45 31 5412 14.99200000 3184664853 3184664853 -1.33300000
3.98479056 2.72742176 -2.25171018 8 0 5421 5.32800000 3184664873 3184664873 -25.00000000
11.72653961 9.83624744 -0.26716143 55 1 5421 15.30800000 3184664873 3184664873 -1.00000000
12.49651527 8.55013657 -0.44066340 1 2 5422 15.14800000 3184664876 3184664876 -1.66700000
7.13230944 5.40979481 -2.50597262 5 3 5422 9.29600000 3184664876 3184664876 -15.63900000
9.68666172 6.62514830 -2.34713173 2 4 5423 11.96800000 3184664878 3184664878 -11.31000000
13.14477825 9.96658611 0.00000000 1 5 5423 16.49600000 3184664878 3184664878 0.00000000
39.20984650 24.09376717 -0.53576922 12 6 5423 46.02400000 3184664880 3184664880 -0.66700000
10.91930962 8.27919960 -2.13189220 2 7 5423 13.86800000 3184664880 3184664880 -8.84300000
13.24980927 9.05875397 -2.04301977 2 8 5424 16.18000000 3184664883 3184664883 -7.25400000
12.27287865 10.28357601 0.09306036 1 9 5424 16.01200000 3184664883 3184664883 0.33300000
40.29880905 27.54154587 -0.28369114 27 10 5425 48.81200000 3184664885 3184664885 -0.33300000
11.72860050 8.88637066 -1.58503628 3 11 5425 14.80000000 3184664885 3184664885 -6.14800000
16.41844177 10.07700729 -1.79828179 2 12 5426 19.34800000 3184664887 3184664887 -5.33300000
40.49830246 24.84656715 0.55313772 29 14 5427 47.51600000 3184664889 3184664889 0.66700000
11.71037865 8.86613178 -1.02709436 19 15 5427 14.72400000 3184664889 3184664889 -4.00000000
12.47915363 8.51908588 -1.23348546 1 16 5428 15.16000000 3184664892 3184664892 -4.66700000
40.42337418 27.59563828 0.85433018 26 18 5428 48.95200000 3184664894 3184664894 1.00000000
12.15715218 10.17216969 -1.01590157 5 19 5428 15.88400000 3184664894 3184664894 -3.66700000
20.52529335 12.58284378 -1.40208066 3 20 5429 24.11600000 3184664896 3184664896 -3.33300000
39.83196259 30.13560486 2.90881157 28 21 5429 50.03200000 3184664896 3184664896 3.33300000
39.48448181 26.93448830 1.94727349 30 22 5430 47.83600000 3184664899 3184664899 2.33300000
11.85519409 8.96601295 -0.69238311 19 23 5430 14.88000000 3184664899 3184664899 -2.66700000
12.50137520 8.52466297 -0.79299438 4 24 5431 15.15200000 3184664901 3184664901 -3.00000000
43.88791656 33.18013000 6.75546122 40 25 5431 55.43200000 3184664901 3184664901 7.00000000
42.52180862 28.98466492 4.20101070 29 26 5432 51.63200000 3184664903 3184664903 4.66700000
11.62704182 9.71482182 -0.61728519 49 27 5432 15.16400000 3184664903 3184664903 -2.33300000
20.78136635 12.71987534 -0.85084975 18 28 5433 24.38000000 3184664906 3184664906 -2.00000000
11.95726013 9.03008938 -0.34866795 44 31 5434 14.98800000 3184664908 3184664908 -1.33300000
3.98828936 2.70942116 -2.24832916 8 0 5441 5.32000000 3184664929 3184664929 -25.00000000
11.73007202 9.76965904 -0.26646334 61 1 5441 15.26800000 3184664929 3184664929 -1.00000000
12.66851521 8.60305119 -0.44566697 1 2 5442 15.32000000 3184664931 3184664931 -1.66700000
7.14499569 5.38023090 -2.50381589 4 3 5442 9.28800000 3184664931 3184664931 -15.63900000
9.72270966 6.60010719 -2.35026956 4 4 5443 11.98400000 3184664933 3184664933 -11.31000000
13.29773235 10.00964832 0.00000000 1 5 5443 16.64400000 3184664933 3184664933 0.00000000
39.31078339 23.96716309 -0.53600204 12 6 5443 46.04400000 3184664936 3184664936 -0.66700000
10.94814301 8.24103355 -2.13189220 2 7 5443 13.86800000 3184664936 3184664936 -8.84300000
13.28135014 9.01244831 -2.04301977 2 8 5444 16.18000000 3184664938 3184664938 -7.25400000
12.29640102 10.23044014 0.09296737 1 9 5444 15.99600000 3184664938 3184664938 0.33300000
40.29539490 27.33334732 -0.28299370 27 10 5445 48.69200000 3184664940 3184664940 -0.33300000
11.73730087 8.82864189 -1.58203757 3 11 5445 14.77200000 3184664940 3184664940 -6.14800000
16.44671249 10.01549149 -1.79753828 2 12 5446 19.34000000 3184664942 3184664942 -5.33300000
13.71168041 10.30999756 0.39919549 1 13 5446 17.16000000 3184664942 3184664942 1.33300000
40.50278854 24.65513802 0.55202019 44 14 5447 47.42000000 3184664945 3184664945 0.66700000
12.55172157 8.50454521 -1.23771632 1 16 5448 15.21200000 3184664947 3184664947 -4.66700000
40.53932190 27.46782684 0.85474908 27 18 5448 48.97600000 3184664949 3184664949 1.00000000
12.15881157 10.10161114 -1.01308739 5 19 5448 15.84000000 3184664949 3184664949 -3.66700000
20.67144203 12.57337570 -1.40905726 3 20 5449 24.23600000 3184664952 3184664952 -3.33300000
39.87624741 29.95081711 2.90439296 27 21 5449 49.95600000 3184664952 3184664952 3.33300000
39.70071411 26.87940216 1.95329809 20 22 5450 47.98400000 3184664954 3184664954 2.33300000
11.89600468 8.93177319 -0.69294149 31 23 5450 14.89200000 3184664954 3184664954 -2.66700000
12.51451492 8.46977901 -0.79194766 4 24 5451 15.13200000 3184664956 3184664956 -3.00000000
44.11143112 33.10776138 6.77203560 40 25 5451 55.56800000 3184664956 3184664956 7.00000000
43.11142731 29.16668701 4.24917841 46 26 5452 52.22400000 3184664959 3184664959 4.66700000
11.64242649 9.65886497 -0.61630821 47 27 5452 15.14000000 3184664959 3184664959 -2.33300000
20.78805542 12.62443256 -0.84931415 18 28 5453 24.33600000 3184664961 3184664961 -2.00000000
11.97114372 8.97839069 -0.34820268 15 31 5453 14.96800000 3184664963 3184664963 -1.33300000
3.99772286 2.69548297 -2.24832916 9 0 5461 5.32000000 3184664984 3184664984 -25.00000000
11.74869251 9.71590996 -0.26611429 59 1 5461 15.24800000 3184664984 3184664984 -1.00000000
12.71504593 8.56995106 -0.44624880 1 2 5462 15.34000000 3184664986 3184664986 -1.66700000
7.15756226 5.35064507 -2.50165939 4 3 5462 9.28000000 3184664986 3184664986 -15.63900000
9.63508987 6.49161291 -2.32359767 2 4 5463 11.84800000 3184664989 3184664989 -11.31000000
13.36142921 9.98471928 0.00000000 2 5 5463 16.68000000 3184664989 3184664989 0.00000000
39.38125229 23.81257248 -0.53576922 12 6 5464 46.02400000 3184664991 3184664991 -0.66700000
10.97510719 8.19848537 -2.13127732 2 7 5464 13.86400000 3184664991 3184664991 -8.84300000
13.31601906 8.96824932 -2.04352498 2 8 5464 16.18400000 3184664993 3184664993 -7.25400000
12.21176910 10.08810234 0.09206071 1 9 5464 15.84000000 3184664993 3184664993 0.33300000
40.35737991 27.17018509 -0.28276122 18 10 5465 48.65200000 3184664995 3184664995 -0.33300000
11.75848675 8.78047848 -1.58075249 3 11 5465 14.76000000 3184664995 3184664995 -6.14800000
16.48157310 9.95802116 -1.79753828 2 12 5466 19.34000000 3184664998 3184664998 -5.33300000
40.47219467 24.44330215 0.55043697 29 14 5467 47.28400000 3184665000 3184665000 0.66700000
11.76239586 8.77700329 -1.02625728 117 15 5467 14.71200000 3184665000 3184665000 -4.00000000
12.59787273 8.47180367 -1.23934364 1 16 5468 15.23200000 3184665002 3184665002 -4.66700000
13.37045860 11.02959633 0.50442988 1 17 5468 17.34000000 3184665002 3184665002 1.66700000
39.99912643 26.88843155 0.84127581 26 18 5469 48.20400000 3184665005 3184665005 1.00000000
12.15879726 10.02650356 -1.01001751 5 19 5469 15.79200000 3184665005 3184665005 -3.66700000
20.70494843 12.49495220 -1.40835965 3 20 5469 24.22400000 3184665007 3184665007 -3.33300000
39.90052032 29.75176430 2.89857912 27 21 5469 49.85600000 3184665007 3184665007 3.33300000
39.81088257 26.75180435 1.95411229 30 22 5470 48.00400000 3184665009 3184665009 2.33300000
11.92070293 8.88541794 -0.69256926 49 23 5470 14.88400000 3184665009 3184665009 -2.66700000
12.67663956 8.51513672 -0.80032146 6 24 5471 15.29200000 3184665012 3184665012 -3.00000000
43.44134903 29.16937065 4.27163506 32 26 5472 52.50000000 3184665014 3184665014 4.66700000
11.66064644 9.60546112 -0.61549407 39 27 5472 15.12000000 3184665014 3184665014 -2.33300000
20.79090881 12.52703476 -0.84763896 18 28 5473 24.28800000 3184665016 3184665016 -2.00000000
12.00241089 8.93654919 -0.34820268 12 31 5473 14.96800000 3184665019 3184665019 -1.33300000
3.99806881 2.67546344 -2.24325776 8 0 5481 5.30800000 3184665039 3184665039 -25.00000000
11.76399040 9.65961266 -0.26569542 60 1 5481 15.22400000 3184665039 3184665039 -1.00000000
12.85455227 8.59887695 -0.45008874 1 2 5482 15.47200000 3184665042 3184665042 -1.66700000
7.18238211 5.33021879 -2.50381589 4 3 5482 9.28800000 3184665042 3184665042 -15.63900000
9.67073345 6.46666145 -2.32673550 2 4 5483 11.86400000 3184665044 3184665044 -11.31000000
13.29982567 9.86652184 0.00000000 3 5 5483 16.56000000 3184665044 3184665044 0.00000000
39.33722687 23.59882927 -0.53404635 12 6 5484 45.87600000 3184665046 3184665046 -0.66700000
10.99413490 8.15306282 -2.12943268 4 7 5484 13.85200000 3184665046 3184665046 -8.84300000
13.35384083 8.92612267 -2.04453516 2 8 5484 16.19200000 3184665048 3184665048 -7.25400000
12.39844894 10.16971302 0.09319985 1 9 5484 16.03600000 3184665048 3184665048 0.33300000
40.33557129 26.95136833 -0.28194755 18 10 5485 48.51200000 3184665051 3184665051 -0.33300000
11.78267479 8.73464394 -1.57989562 3 11 5485 14.75200000 3184665051 3184665051 -6.14800000
16.51623344 9.90042877 -1.79753828 2 12 5486 19.34000000 3184665053 3184665053 -5.33300000
40.22224426 29.80637360 1.16492498 19 13 5486 50.07600000 3184665053 3184665053 1.33300000
40.48179245 24.25665092 0.54941255 29 14 5487 47.19600000 3184665055 3184665055 0.66700000
12.77327251 8.52515697 -1.25366378 3 16 5488 15.40800000 3184665058 3184665058 -4.66700000
13.39959812 10.97525692 0.50408077 1 17 5488 17.32800000 3184665058 3184665058 1.66700000
40.09805298 26.76230240 0.84148520 26 18 5488 48.21600000 3184665060 3184665060 1.00000000
12.14565754 9.94818687 -1.00618005 3 19 5488 15.73200000 3184665060 3184665060 -3.66700000
20.66963768 12.37542248 -1.40301085 3 20 5489 24.13200000 3184665062 3184665062 -3.33300000
39.85648727 29.50301743 2.88788152 27 21 5489 49.67200000 3184665062 3184665062 3.33300000
39.89072037 26.60380554 1.95346093 20 22 5490 47.98800000 3184665065 3184665065 2.33300000
11.94522190 8.83899975 -0.69219702 58 23 5490 14.87600000 3184665065 3184665065 -2.66700000
44.28403473 32.75650406 6.76326132 20 25 5491 55.49600000 3184665067 3184665067 7.00000000
43.79504013 29.18557930 4.29636955 49 26 5492 52.80400000 3184665069 3184665069 4.66700000
11.67244911 9.54698658 -0.61435425 34 27 5492 15.09200000 3184665069 3184665069 -2.33300000
20.78990173 12.42772007 -0.84582418 15 28 5493 24.23600000 3184665072 3184665072 -2.00000000
12.03031635 8.89222145 -0.34810963 29 31 5493 14.96400000 3184665074 3184665074 -1.33300000
4.00738335 2.66149116 -2.24325776 8 0 5501 5.30800000 3184665094 3184665094 -25.00000000
11.77903843 9.60332680 -0.26527658 60 1 5501 15.20000000 3184665094 3184665094 -1.00000000
12.91446972 8.57385635 -0.45113599 1 2 5502 15.50800000 3184665096 3184665096 -1.66700000
7.19784355 5.30283070 -2.50273776 4 3 5502 9.28400000 3184665096 3184665096 -15.63900000
9.67690659 6.42202044 -2.32281327 2 4 5503 11.84400000 3184665099 3184665099 -11.31000000
13.22145653 9.73701668 0.00000000 2 5 5503 16.42000000 3184665099 3184665099 0.00000000
39.42901230 23.47643661 -0.53423262 12 6 5503 45.89200000 3184665101 3184665101 -0.66700000
11.01792812 8.11421585 -2.12881780 3 7 5503 13.84800000 3184665101 3184665101 -8.84300000
13.37499809 8.87287426 -2.04301977 4 8 5504 16.18000000 3184665103 3184665103 -7.25400000
12.43387222 10.12637234 0.09319985 1 9 5504 16.03600000 3184665103 3184665103 0.33300000
40.32273102 26.73966599 -0.28120363 18 10 5505 48.38400000 3184665106 3184665106 -0.33300000
11.80028057 8.68403244 -1.57818210 9 11 5505 14.73600000 3184665106 3184665106 -6.14800000
16.54726791 9.84068012 -1.79716647 2 12 5506 19.33600000 3184665108 3184665108 -5.33300000
14.22798347 10.46679401 0.41101316 1 13 5506 17.66800000 3184665108 3184665108 1.33300000
39.87859726 23.70642853 0.54009968 41 14 5507 46.39600000 3184665110 3184665110 0.66700000
11.89731979 8.74904442 -1.03267479 11 15 5507 14.80400000 3184665110 3184665110 -4.00000000
12.93257809 8.56638050 -1.26635671 1 16 5508 15.56400000 3184665112 3184665112 -4.66700000
13.41611290 10.91075802 0.50326622 1 17 5508 17.30000000 3184665112 3184665112 1.66700000
40.33793259 26.71934891 0.84455687 26 18 5508 48.39200000 3184665115 3184665115 1.00000000
11.58879185 9.42467403 -0.95731646 48 19 5508 14.96800000 3184665115 3184665115 -3.66700000
20.69211006 12.29096127 -1.40161550 3 20 5509 24.10800000 3184665117 3184665117 -3.33300000
39.88200378 29.30696106 2.88230014 27 21 5509 49.57600000 3184665117 3184665117 3.33300000
39.99334335 26.47101593 1.95394945 30 22 5510 48.00000000 3184665119 3184665119 2.33300000
11.97278309 8.79488373 -0.69201088 61 23 5510 14.87200000 3184665119 3184665119 -2.66700000
12.67248154 8.38455200 -0.79634392 180 24 5511 15.21600000 3184665122 3184665122 -3.00000000
44.20930099 32.46308136 6.73449993 39 25 5511 55.26000000 3184665122 3184665122 7.00000000
42.27725220 27.96148491 4.13787174 26 26 5512 50.85600000 3184665124 3184665124 4.66700000
11.68708801 9.49106693 -0.61337727 24 27 5512 15.06800000 3184665124 3184665124 -2.33300000
20.78158188 12.32448673 -0.84373021 15 28 5513 24.17600000 3184665126 3184665126 -2.00000000
12.07095528 8.85727119 -0.34838879 17 31 5513 14.97600000 3184665129 3184665129 -1.33300000
4.00967264 2.64489627 -2.23987675 8 0 5519 5.30000000 3184665149 3184665149 -25.00000000
11.79050446 9.55116940 -0.26485771 59 1 5519 15.17600000 3184665149 3184665149 -1.00000000
13.03146648 8.59266949 -0.45427778 1 2 5520 15.61600000 3184665152 3184665152 -1.66700000
7.22068357 5.28474188 -2.50489426 3 3 5520 9.29200000 3184665152 3184665152 -15.63900000
9.70685959 6.39806366 -2.32516670 2 4 5521 11.85600000 3184665154 3184665154 -11.31000000
13.28426361 9.71905136 0.00000000 3 5 5521 16.46000000 3184665154 3184665154 0.00000000
39.46125412 23.32802582 -0.53367382 12 6 5521 45.84400000 3184665156 3184665156 -0.66700000
11.04655552 8.08189583 -2.12943268 2 7 5521 13.85200000 3184665156 3184665156 -8.84300000
13.28352356 8.75221825 -2.02483726 2 8 5522 16.03600000 3184665159 3184665159 -7.25400000
12.53403091 10.14261627 0.09371129 1 9 5522 16.12400000 3184665159 3184665159 0.33300000
40.24953461 26.50945091 -0.28011099 18 10 5523 48.19600000 3184665161 3184665161 -0.33300000
11.82429314 8.64457035 -1.57775366 7 11 5523 14.73200000 3184665161 3184665161 -6.14800000
16.59181976 9.79674721 -1.79865360 2 12 5524 19.35200000 3184665163 3184665163 -5.33300000
14.22528076 10.39608860 0.40998960 3 13 5524 17.62400000 3184665163 3184665163 1.33300000
39.98387527 23.59932518 0.54051876 28 14 5525 46.43200000 3184665165 3184665165 0.66700000
11.94730091 8.72810173 -1.03462803 4 15 5525 14.83200000 3184665165 3184665165 -4.00000000
13.00272369 8.55419350 -1.27058756 1 16 5526 15.61600000 3184665168 3184665168 -4.66700000
13.47831345 10.89117241 0.50431347 1 17 5526 17.33600000 3184665168 3184665168 1.66700000
40.07753372 26.36608887 0.83736646 38 18 5526 47.98000000 3184665170 3184665170 1.00000000
11.57487488 9.35309601 -0.95373482 51 19 5526 14.91200000 3184665170 3184665170 -3.66700000
20.74437904 12.23400879 -1.40254569 7 20 5527 24.12400000 3184665172 3184665172 -3.33300000
39.87711716 29.11088943 2.87532353 27 21 5527 49.45600000 3184665172 3184665172 3.33300000
40.16981888 26.40671539 1.95850873 20 22 5528 48.11200000 3184665175 3184665175 2.33300000
11.99067116 8.75016022 -0.69145250 62 23 5528 14.86000000 3184665175 3184665175 -2.66700000
12.75551033 8.38199139 -0.79990274 148 24 5529 15.28400000 3184665177 3184665177 -3.00000000
44.58370209 32.52291489 6.77593565 40 25 5529 55.60000000 3184665177 3184665177 7.00000000
42.72809219 28.06711006 4.17334652 28 26 5530 51.29200000 3184665179 3184665179 4.66700000
11.71062660 9.44928455 -0.61305165 21 27 5530 15.06000000 3184665179 3184665179 -2.33300000
20.78230476 12.23682785 -0.84219468 15 28 5531 24.13200000 3184665182 3184665182 -2.00000000
12.10195255 8.82166100 -0.34848183 14 31 5531 14.98000000 3184665184 3184665184 -1.33300000
4.01327276 2.62621212 -2.23649573 8 0 5540 5.29200000 3184665205 3184665205 -25.00000000
11.79737949 9.48533726 -0.26422945 57 1 5540 15.14000000 3184665205 3184665205 -1.00000000
13.09967899 8.56892490 -0.45555776 1 2 5541 15.66000000 3184665207 3184665207 -1.66700000
7.22442150 5.24692345 -2.49950266 5 3 5541 9.27200000 3184665207 3184665207 -15.63900000
9.72696114 6.36029673 -2.32438207 2 4 5542 11.85200000 3184665209 3184665209 -11.31000000
13.38129711 9.71494675 0.00000000 3 5 5542 16.53600000 3184665209 3184665209 0.00000000
39.50853729 23.16098595 -0.53316158 12 6 5542 45.80000000 3184665212 3184665212 -0.66700000
11.06970596 8.03670979 -2.12820292 3 7 5542 13.84400000 3184665212 3184665212 -8.84300000
13.29890537 8.69261837 -2.02231193 2 8 5543 16.01600000 3184665214 3184665214 -7.25400000
40.25936508 26.30486679 -0.27950656 18 10 5544 48.09200000 3184665216 3184665216 -0.33300000
11.85911751 8.60350990 -1.57818210 5 11 5544 14.73600000 3184665216 3184665216 -6.14800000
16.59668350 9.71775818 -1.79530764 2 12 5545 19.31600000 3184665218 3184665218 -5.33300000
14.16940880 10.27579784 0.40729105 1 13 5545 17.50800000 3184665218 3184665218 1.33300000
39.96654510 23.39200783 0.53912187 27 14 5546 46.31200000 3184665221 3184665221 0.66700000
11.99859524 8.69830608 -1.03630221 3 15 5546 14.85600000 3184665221 3184665221 -4.00000000
13.06737518 8.52826786 -1.27384222 1 16 5547 15.65600000 3184665223 3184665223 -4.66700000
40.37945175 26.34312248 0.84155506 26 18 5548 48.22000000 3184665225 3184665225 1.00000000
11.59512997 9.29609871 -0.95245570 55 19 5548 14.89200000 3184665225 3184665225 -3.66700000
20.78563309 12.15587807 -1.40231323 7 20 5548 24.12000000 3184665228 3184665228 -3.33300000
39.84125519 28.86145973 2.86509085 27 21 5548 49.28000000 3184665228 3184665228 3.33300000
40.16925049 26.19599533 1.95378661 20 22 5549 47.99600000 3184665230 3184665230 2.33300000
12.00648022 8.69443607 -0.69052190 62 23 5549 14.84000000 3184665230 3184665230 -2.66700000
12.85976410 8.38317490 -0.80450833 156 24 5550 15.37200000 3184665232 3184665232 -3.00000000
44.40995026 32.14744186 6.73157501 59 25 5550 55.23600000 3184665232 3184665232 7.00000000
42.97764206 28.00608444 4.18766689 43 26 5551 51.46800000 3184665235 3184665235 4.66700000
11.73582268 9.39880466 -0.61256313 20 27 5551 15.04800000 3184665235 3184665235 -2.33300000
20.77523232 12.13033962 -0.84010071 15 28 5552 24.07200000 3184665237 3184665237 -2.00000000
12.15688515 8.79365158 -0.34913319 11 31 5552 15.00800000 3184665239 3184665239 -1.33300000
4.01587963 2.60893941 -2.23311496 8 0 5559 5.28400000 3184665260 3184665260 -25.00000000
11.80689335 9.42869377 -0.26374078 55 1 5559 15.11200000 3184665260 3184665260 -1.00000000
13.16826153 8.55156898 -0.45695412 1 2 5560 15.70800000 3184665262 3184665262 -1.66700000
7.23865700 5.22068405 -2.49842453 3 3 5560 9.26800000 3184665262 3184665262 -15.63900000
9.74141979 6.32373476 -2.32281327 2 4 5561 11.84400000 3184665264 3184665264 -11.31000000
13.46210957 9.70560837 0.00000000 3 5 5561 16.59600000 3184665264 3184665264 0.00000000
39.47504425 22.95658112 -0.53162497 24 6 5562 45.66800000 3184665267 3184665267 -0.66700000
11.09769154 7.99802017 -2.12820292 3 7 5562 13.84400000 3184665267 3184665267 -8.84300000
13.37092972 8.67654896 -2.02887774 2 8 5562 16.06800000 3184665269 3184665269 -7.25400000
12.76087856 10.17958450 0.09487368 1 9 5562 16.32400000 3184665269 3184665269 0.33300000
13.69152451 8.88119125 -0.09485043 1 10 5563 16.32000000 3184665271 3184665271 -0.33300000
11.91016960 8.58040905 -1.58118081 3 11 5563 14.76400000 3184665271 3184665271 -6.14800000
16.64603615 9.67267227 -1.79716647 2 12 5564 19.33600000 3184665274 3184665274 -5.33300000
39.98500824 28.79568291 1.14659369 27 13 5564 49.28800000 3184665274 3184665274 1.33300000
40.24103546 23.37385368 0.54177600 28 14 5565 46.54000000 3184665276 3184665276 0.66700000
12.08890247 8.70276451 -1.04160368 3 15 5565 14.93200000 3184665276 3184665276 -4.00000000
13.20265102 8.55425835 -1.28425682 1 16 5566 15.78400000 3184665278 3184665278 -4.66700000
12.91603565 10.28860950 0.48057562 1 17 5566 16.52000000 3184665278 3184665278 1.66700000
40.42173386 26.19004059 0.84071732 26 18 5566 48.17200000 3184665281 3184665281 1.00000000
11.60242176 9.24221516 -0.95066488 55 19 5566 14.86400000 3184665281 3184665281 -3.66700000
20.81201363 12.07886600 -1.40138292 7 20 5567 24.10400000 3184665283 3184665283 -3.33300000
39.77466583 28.61258698 2.85346317 27 21 5567 49.08000000 3184665283 3184665283 3.33300000
39.93046951 25.85195541 1.93799222 30 22 5568 47.60800000 3184665285 3184665285 2.33300000
12.02551365 8.64757538 -0.68996352 62 23 5568 14.82800000 3184665285 3184665285 -2.66700000
12.93108845 8.36869812 -0.80722982 114 24 5569 15.42400000 3184665288 3184665288 -3.00000000
44.77098465 32.18306351 6.77008581 40 25 5569 55.55200000 3184665288 3184665288 7.00000000
43.13722229 27.90672112 4.19417572 29 26 5570 51.54800000 3184665290 3184665290 4.66700000
11.76379776 9.35734749 -0.61240035 20 27 5570 15.04400000 3184665290 3184665290 -2.33300000
20.77383804 12.03732872 -0.83842552 15 28 5571 24.02400000 3184665292 3184665292 -2.00000000
12.20049953 8.76049232 -0.34950542 10 31 5572 15.02400000 3184665294 3184665294 -1.33300000
4.02191496 2.59294105 -2.23142433 7 0 5579 5.28000000 3184665315 3184665315 -25.00000000
11.83346558 9.38245296 -0.26360115 50 1 5579 15.10400000 3184665315 3184665315 -1.00000000
13.30221844 8.57269478 -0.46056134 1 2 5580 15.83200000 3184665317 3184665317 -1.66700000
7.26310062 5.19986916 -2.50058103 4 3 5580 9.27600000 3184665317 3184665317 -15.63900000
9.77002907 6.29394054 -2.32438207 2 4 5581 11.85200000 3184665320 3184665320 -11.31000000
13.55770969 9.70278835 0.00000000 3 5 5581 16.67200000 3184665320 3184665320 0.00000000
39.55493546 22.81864738 -0.53162497 12 6 5582 45.66800000 3184665322 3184665322 -0.66700000
11.11268425 7.95003462 -2.12574315 4 7 5582 13.82800000 3184665322 3184665322 -8.84300000
13.40447140 8.63197136 -2.02938294 2 8 5582 16.07200000 3184665324 3184665324 -7.25400000
12.63955498 10.01080608 0.09371129 1 9 5582 16.12400000 3184665324 3184665324 0.33300000
13.79307270 8.87881088 -0.09533864 4 10 5583 16.40400000 3184665327 3184665327 -0.33300000
11.95298767 8.54803562 -1.58289433 2 11 5583 14.78000000 3184665327 3184665327 -6.14800000
16.65554428 9.60058594 -1.79456413 2 12 5584 19.30800000 3184665329 3184665329 -5.33300000
40.18612671 28.72802734 1.14947832 18 13 5584 49.41200000 3184665329 3184665329 1.33300000
40.14216995 23.12940788 0.53935468 41 14 5585 46.33200000 3184665331 3184665331 0.66700000
12.14842606 8.68139362 -1.04411495 13 15 5585 14.96800000 3184665331 3184665331 -4.00000000
13.20560360 8.49087143 -1.28165317 1 16 5586 15.75200000 3184665334 3184665334 -4.66700000
40.39853287 25.97524071 0.83834380 25 18 5586 48.03600000 3184665336 3184665336 1.00000000
11.61269569 9.18432522 -0.94887406 56 19 5586 14.83600000 3184665336 3184665336 -3.66700000
20.78483772 11.96629715 -1.39673185 11 20 5587 24.02400000 3184665338 3184665338 -3.33300000
39.88729858 28.48285675 2.85439348 27 21 5587 49.09600000 3184665338 3184665338 3.33300000
39.96330261 25.67568779 1.93522406 20 22 5588 47.54000000 3184665341 3184665341 2.33300000
12.04261780 8.59626007 -0.68921900 63 23 5588 14.81200000 3184665341 3184665341 -2.66700000
43.79716873 31.25175285 6.60629320 35 25 5589 54.20800000 3184665343 3184665343 7.00000000
43.35850525 27.83566475 4.20621777 14 26 5590 51.69600000 3184665345 3184665345 4.66700000
11.78384399 9.30631924 -0.61174899 26 27 5590 15.02800000 3184665345 3184665345 -2.33300000
20.77067375 11.93884373 -0.83661073 15 28 5591 23.97200000 3184665347 3184665347 -2.00000000
12.24901962 8.73391533 -0.35006374 10 31 5591 15.04800000 3184665350 3184665350 -1.33300000
4.01567316 2.56911755 -2.22297215 6 0 5599 5.26000000 3184665370 3184665370 -25.00000000
11.85357475 9.33119392 -0.26332191 46 1 5599 15.08800000 3184665370 3184665370 -1.00000000
13.37585068 8.55421352 -0.46207404 1 2 5600 15.88400000 3184665373 3184665373 -1.66700000
7.27806759 5.17225313 -2.49950266 3 3 5600 9.27200000 3184665373 3184665373 -15.63900000
9.78532982 6.25557327 -2.32281327 2 4 5601 11.84400000 3184665375 3184665375 -11.31000000
13.66975784 9.71100140 0.00000000 1 5 5601 16.76800000 3184665375 3184665375 0.00000000
39.61997604 22.68139076 -0.53148532 12 6 5601 45.65600000 3184665377 3184665377 -0.66700000
11.14220810 7.91542912 -2.12635803 3 7 5601 13.83200000 3184665377 3184665377 -8.84300000
13.42783356 8.58085537 -2.02837276 2 8 5602 16.06400000 3184665380 3184665380 -7.25400000
12.67442226 9.96662521 0.09371129 1 9 5602 16.12400000 3184665380 3184665380 0.33300000
13.72622585 8.76816463 -0.09466445 1 10 5603 16.28800000 3184665382 3184665382 -0.33300000
11.99572563 8.51546860 -1.58460796 2 11 5603 14.79600000 3184665382 3184665382 -6.14800000
16.69932747 9.54831886 -1.79567945 2 12 5604 19.32000000 3184665384 3184665384 -5.33300000
40.16223526 28.49963570 1.14594233 18 13 5604 49.26000000 3184665384 3184665384 1.33300000
40.23655319 22.99708366 0.53954095 27 14 5605 46.34800000 3184665387 3184665387 0.66700000
12.14285564 8.61353970 -1.04104567 9 15 5605 14.92400000 3184665387 3184665387 -4.00000000
13.28221416 8.47474575 -1.28620958 1 16 5606 15.80800000 3184665389 3184665389 -4.66700000
40.40129471 25.77813339 0.83652872 25 18 5606 47.93200000 3184665391 3184665391 1.00000000
11.61956787 9.12401104 -0.94682741 56 19 5606 14.80400000 3184665391 3184665391 -3.66700000
20.70164680 11.82238102 -1.38835979 7 20 5607 23.88000000 3184665394 3184665394 -3.33300000
39.78123474 28.19796944 2.83974242 26 21 5607 48.84400000 3184665394 3184665394 3.33300000
39.80330276 25.37703705 1.92317474 20 22 5608 47.24400000 3184665396 3184665396 2.33300000
12.06276989 8.54724026 -0.68866062 48 23 5608 14.80000000 3184665396 3184665396 -2.66700000
44.56691360 31.56681442 6.70573854 38 25 5609 55.02400000 3184665398 3184665398 7.00000000
42.66860962 27.18290138 4.13006067 39 26 5610 50.76000000 3184665400 3184665400 4.66700000
11.81311226 9.26266289 -0.61158615 43 27 5610 15.02400000 3184665400 3184665400 -2.33300000
20.77749443 11.84646797 -0.83521473 15 28 5611 23.93200000 3184665403 3184665403 -2.00000000
12.30706406 8.70743942 -0.35080814 10 31 5612 15.08000000 3184665405 3184665405 -1.33300000
3.98789001 2.53176832 -2.20268631 5 0 5619 5.21200000 3184665426 3184665426 -25.00000000
11.87346935 9.27990913 -0.26304266 40 1 5619 15.07200000 3184665426 3184665426 -1.00000000
13.51703262 8.57816982 -0.46591398 1 2 5620 16.01600000 3184665428 3184665428 -1.66700000
7.29293013 5.14459610 -2.49842453 4 3 5620 9.26800000 3184665428 3184665428 -15.63900000
9.81041813 6.22347927 -2.32359767 2 4 5621 11.84800000 3184665430 3184665430 -11.31000000
40.45365143 28.52634048 0.00000000 18 5 5621 49.50000000 3184665430 3184665430 0.00000000
39.69542694 22.54097748 -0.53143871 12 6 5621 45.65200000 3184665433 3184665433 -0.66700000
11.16331005 7.87193155 -2.12512827 2 7 5621 13.82400000 3184665433 3184665433 -8.84300000
13.45770454 8.53393078 -2.02837276 2 8 5622 16.06400000 3184665435 3184665435 -7.25400000
12.95190430 10.11185837 0.09550136 1 9 5622 16.43200000 3184665435 3184665435 0.33300000
14.06755924 8.91721630 -0.09680323 1 10 5623 16.65600000 3184665437 3184665437 -0.33300000
12.05788612 8.49645138 -1.58889186 2 11 5623 14.83600000 3184665437 3184665437 -6.14800000
16.73948479 9.49389935 -1.79642296 2 12 5624 19.32800000 3184665440 3184665440 -5.33300000
40.10127640 28.24643135 1.14138269 27 13 5624 49.06400000 3184665440 3184665440 1.33300000
40.36181641 22.88213539 0.54014623 27 14 5625 46.40000000 3184665442 3184665442 0.66700000
12.08802032 8.51137161 -1.03379095 50 15 5625 14.82000000 3184665442 3184665442 -4.00000000
13.34876728 8.45178986 -1.28978968 1 16 5626 15.85200000 3184665444 3184665444 -4.66700000
39.95038605 25.29463959 0.82535923 25 18 5626 47.29200000 3184665447 3184665447 1.00000000
11.62616062 9.06376171 -0.94478077 58 19 5626 14.77200000 3184665447 3184665447 -3.66700000
20.70456886 11.72839642 -1.38580167 7 20 5627 23.83600000 3184665449 3184665449 -3.33300000
39.93820953 28.10029602 2.84392834 26 21 5627 48.91600000 3184665449 3184665449 3.33300000
39.84773636 25.21016502 1.92105794 30 22 5628 47.19200000 3184665451 3184665451 2.33300000
13.37587452 8.45914459 -0.82942021 4 24 5629 15.84800000 3184665453 3184665453 -3.00000000
43.85843277 27.72614861 4.23583460 15 26 5630 52.06000000 3184665456 3184665456 4.66700000
11.82645035 9.20664024 -0.61060923 51 27 5630 15.00000000 3184665456 3184665456 -2.33300000
20.76652527 11.74435043 -0.83312076 15 28 5631 23.87200000 3184665458 3184665458 -2.00000000
12.36356449 8.68281269 -0.35155258 17 31 5632 15.11200000 3184665460 3184665460 -1.33300000
3.95682812 2.49271226 -2.18071032 3 0 5639 5.16000000 3184665481 3184665481 -25.00000000
11.90894985 9.24085808 -0.26311249 32 1 5639 15.07600000 3184665481 3184665481 -1.00000000
7.31084347 5.11910772 -2.49842453 3 3 5640 9.26800000 3184665483 3184665483 -15.63900000
9.82876301 6.18710709 -2.32281327 2 4 5641 11.84400000 3184665486 3184665486 -11.31000000
40.53659439 28.37348747 0.00000000 27 5 5641 49.48000000 3184665486 3184665486 0.00000000
39.72159576 22.37283516 -0.53074026 24 6 5641 45.59200000 3184665488 3184665488 -0.66700000
11.19395828 7.83518314 -2.12574315 2 7 5641 13.82800000 3184665488 3184665488 -8.84300000
13.49077034 8.48901653 -2.02887774 2 8 5642 16.06800000 3184665490 3184665490 -7.25400000
12.98079967 10.06168461 0.09545487 1 9 5642 16.42400000 3184665490 3184665490 0.33300000
12.11354256 8.47254562 -1.59231889 2 11 5643 14.86800000 3184665493 3184665493 -6.14800000
16.75863838 9.42759895 -1.79493582 2 12 5644 19.31200000 3184665495 3184665495 -5.33300000
40.07181549 28.01691628 1.13775361 27 13 5644 48.90800000 3184665495 3184665495 1.33300000
40.42749786 22.73326492 0.53996003 27 14 5645 46.38400000 3184665497 3184665497 0.66700000
12.12092686 8.47141075 -1.03407001 13 15 5645 14.82400000 3184665497 3184665497 -4.00000000
13.49296474 8.47725296 -1.30085516 1 16 5646 15.98800000 3184665500 3184665500 -4.66700000
40.00457001 25.13375664 0.82466114 37 18 5646 47.25200000 3184665502 3184665502 1.00000000
11.63247395 9.00357723 -0.94273412 55 19 5646 14.74000000 3184665502 3184665502 -3.66700000
20.69664383 11.62866783 -1.38254595 7 20 5647 23.78000000 3184665504 3184665504 -3.33300000
39.99021912 27.92870331 2.84067249 26 21 5647 48.86000000 3184665504 3184665504 3.33300000
39.77301407 24.96891594 1.91324222 30 22 5648 47.00000000 3184665506 3184665506 2.33300000
43.72808456 30.51648140 6.54730844 34 25 5649 53.72400000 3184665509 3184665509 7.00000000
43.73542404 27.43518066 4.21467972 15 26 5650 51.80000000 3184665511 3184665511 4.66700000
11.84586620 9.15552616 -0.60995787 60 27 5650 14.98400000 3184665511 3184665511 -2.33300000
20.76206970 11.64636517 -0.83130604 18 28 5651 23.82000000 3184665513 3184665513 -2.00000000
12.40035820 8.64417648 -0.35173869 12 31 5652 15.12000000 3184665516 3184665516 -1.33300000
3.95013499 2.46927714 -2.17225790 4 0 5659 5.14000000 3184665536 3184665536 -25.00000000
11.93162918 9.19190979 -0.26290306 23 1 5659 15.06400000 3184665536 3184665536 -1.00000000
20.81924629 13.00930882 -0.71446353 22 2 5660 24.56000000 3184665539 3184665539 -1.66700000
7.32234192 5.08916044 -2.49626780 3 3 5660 9.26000000 3184665539 3184665539 -15.63900000
9.85362720 6.15483856 -2.32359767 2 4 5661 11.84800000 3184665541 3184665541 -11.31000000
40.46457291 28.11313629 0.00000000 18 5 5661 49.27200000 3184665541 3184665541 0.00000000
39.45725250 22.04287529 -0.52617699 12 6 5661 45.20000000 3184665543 3184665543 -0.66700000
11.21474838 7.79155064 -2.12451339 4 7 5661 13.82000000 3184665543 3184665543 -8.84300000
13.52031994 8.44187260 -2.02887774 2 8 5662 16.06800000 3184665546 3184665546 -7.25400000
13.03486252 10.03094864 0.09559435 1 9 5662 16.44800000 3184665546 3184665546 0.33300000
40.47801208 25.26400948 -0.27732128 17 10 5663 47.71600000 3184665548 3184665548 -0.33300000
12.19531441 8.46649742 -1.59917319 2 11 5663 14.93200000 3184665548 3184665548 -6.14800000
16.80535507 9.37680531 -1.79642296 2 12 5664 19.32800000 3184665550 3184665550 -5.33300000
40.07409668 27.81075096 1.13505518 18 13 5664 48.79200000 3184665550 3184665550 1.33300000
40.19571304 22.41861343 0.53581578 27 14 5665 46.02800000 3184665552 3184665552 0.66700000
13.69839764 8.53977585 -1.31777906 1 16 5666 16.19600000 3184665555 3184665555 -4.66700000
40.22442245 25.07647705 0.82738370 25 18 5666 47.40800000 3184665557 3184665557 1.00000000
11.64484024 8.94832325 -0.94119912 58 19 5666 14.71600000 3184665557 3184665557 -3.66700000
20.70222664 11.53691387 -1.38022041 7 20 5667 23.74000000 3184665559 3184665559 -3.33300000
39.99557495 27.72524261 2.83416104 26 21 5667 48.74800000 3184665559 3184665559 3.33300000
39.89724731 24.85317612 1.91503334 30 22 5668 47.04400000 3184665562 3184665562 2.33300000
12.23371887 8.47734833 -0.69331372 0 23 5668 14.90000000 3184665562 3184665562 -2.66700000
20.73852539 12.91361809 -1.28034687 12 24 5669 24.46400000 3184665564 3184665564 -3.00000000
43.71358490 30.28001022 6.52927208 33 25 5669 53.57600000 3184665564 3184665564 7.00000000
43.44507599 27.04217911 4.17757750 28 26 5670 51.34400000 3184665566 3184665566 4.66700000
11.86824036 9.10682106 -0.60946941 60 27 5670 14.97200000 3184665566 3184665566 -2.33300000
20.76416969 11.55244255 -0.82977045 15 28 5671 23.77600000 3184665569 3184665569 -2.00000000
12.46991825 8.62814236 -0.35285532 8 31 5672 15.16800000 3184665571 3184665571 -1.33300000
3.95564961 2.45356250 -2.17056727 3 0 5679 5.13600000 3184665592 3184665592 -25.00000000
11.96999550 9.15506363 -0.26304266 19 1 5679 15.07200000 3184665592 3184665592 -1.00000000
20.81695747 12.90705967 -0.71283442 22 2 5680 24.50400000 3184665594 3184665594 -1.66700000
7.34957409 5.07013130 -2.49950266 6 3 5680 9.27200000 3184665594 3184665594 -15.63900000
9.86504936 6.11420631 -2.32124424 2 4 5681 11.83600000 3184665596 3184665596 -11.31000000
