# .PCD v0.7 - Point Cloud Data file format
VERSION 0.7
FIELDS x y z intensity laser_id azimuth distance_m adjustedtime timestamp vertical_angle
SIZE 4 4 4 1 1 2 8 8 4 8
TYPE F F F U U U F U U F
COUNT 1 1 1 1 1 1 1 1 1 1
WIDTH 509
HEIGHT 1
VIEWPOINT 0 0 0 1 0 0 0
POINTS 509
DATA ascii
20.22351265 -17.32140541 -1.39548588 13 24 12918 26.66400000 3177085754 3177085754 -3.00000000
40.98889160 -35.11932373 4.40637445 37 26 12919 54.15600000 3177085756 3177085756 4.66700000
38.61372757 -27.02758217 -1.92024386 21 27 12919 47.17200000 3177085756 3177085756 -2.33300000
39.42316055 -37.28063202 -1.89476347 30 28 12920 54.29200000 3177085758 3177085758 -2.00000000
39.38646698 -30.55127525 -1.15990019 16 31 12920 49.86000000 3177085761 3177085761 -1.33300000
3.95281005 -3.39875293 -2.43090034 10 0 12929 5.75200000 3177085781 3177085781 -25.00000000
39.65617752 -27.86048889 -0.84595305 20 1 12929 48.47200000 3177085781 3177085781 -1.00000000
39.37295532 -33.86608505 -1.51142776 30 2 12930 51.95600000 3177085784 3177085784 -1.66700000
7.79020405 -6.06450844 -2.76368666 4 3 12930 10.25200000 3177085784 3177085784 -15.63900000
10.21888924 -8.79273510 -2.69622040 3 4 12931 13.74800000 3177085786 3177085786 -11.31000000
38.67880249 -30.12146950 0.00000000 27 5 12931 49.02400000 3177085786 3177085786 0.00000000
39.03857040 -37.07212830 -0.62675589 40 6 12932 53.84000000 3177085788 3177085788 -0.66700000
12.84603691 -10.00757027 -2.53342843 1 7 12932 16.48000000 3177085788 3177085788 -8.84300000
15.06387615 -12.96612835 -2.52991009 3 8 12932 20.03600000 3177085790 3177085790 -7.25400000
38.69487381 -27.21539688 0.27495003 19 9 12932 47.30800000 3177085790 3177085790 0.33300000
39.07113647 -33.64208984 -0.29966226 24 10 12933 51.56000000 3177085793 3177085793 -0.33300000
17.08984947 -13.31846142 -2.33385897 4 11 12933 21.79200000 3177085793 3177085793 -6.14800000
18.86669731 -17.92887688 -2.42955804 6 12 12934 26.14000000 3177085795 3177085795 -5.33300000
38.69040680 -30.16306305 1.14156878 27 13 12934 49.07200000 3177085795 3177085795 1.33300000
38.81912994 -36.90241623 0.62354296 42 14 12935 53.56400000 3177085797 3177085797 0.66700000
20.18169785 -15.73932838 -1.78967214 23 15 12935 25.65600000 3177085797 3177085797 -4.00000000
20.13877106 -17.35880089 -2.17047858 11 16 12936 26.67600000 3177085800 3177085800 -4.66700000
39.13739777 -27.56749725 1.39320385 19 17 12936 47.89200000 3177085800 3177085800 1.66700000
39.39963150 -33.96087646 0.90794396 33 18 12936 52.02400000 3177085802 3177085802 1.00000000
20.24997520 -14.26362419 -1.58742619 22 19 12936 24.82000000 3177085802 3177085802 -3.66700000
20.15712738 -19.17525864 -1.62021828 13 20 12937 27.86800000 3177085804 3177085804 -3.33300000
40.57454681 -31.66611290 2.99741530 21 21 12937 51.55600000 3177085804 3177085804 3.33300000
39.27032852 -33.87332535 2.11287069 28 22 12938 51.90400000 3177085807 3177085807 2.33300000
34.32626343 -26.79932404 -2.02857089 5 23 12938 43.59600000 3177085807 3177085807 -2.66700000
20.22340012 -17.45021248 -1.39988220 13 24 12939 26.74800000 3177085809 3177085809 -3.00000000
40.83877182 -35.25108337 4.40409613 37 26 12940 54.12800000 3177085811 3177085811 4.66700000
38.84752655 -27.40391541 -1.93685246 33 27 12940 47.58000000 3177085811 3177085811 -2.33300000
39.32967377 -37.46623230 -1.89685750 30 28 12941 54.35200000 3177085814 3177085814 -2.00000000
39.37189865 -30.77176666 -1.16278481 25 31 12941 49.98400000 3177085816 3177085816 -1.33300000
3.94974041 -3.41896009 -2.43597174 10 0 12948 5.76400000 3177085837 3177085837 -25.00000000
39.51133347 -27.95488167 -0.84483612 20 1 12948 48.40800000 3177085837 3177085837 -1.00000000
39.39947510 -34.11686325 -1.51678050 31 2 12949 52.14000000 3177085839 3177085839 -1.66700000
7.77914524 -6.09743690 -2.76692152 3 3 12949 10.26400000 3177085839 3177085839 -15.63900000
10.20153427 -8.83684635 -2.69935846 3 4 12950 13.76400000 3177085842 3177085842 -11.31000000
38.59129333 -30.25943947 0.00000000 27 5 12950 49.04000000 3177085842 3177085842 0.00000000
38.93926239 -37.21117020 -0.62703532 40 6 12950 53.86400000 3177085844 3177085844 -0.66700000
12.83319569 -10.06251144 -2.53711772 1 7 12950 16.50400000 3177085844 3177085844 -8.84300000
15.04478550 -13.03679943 -2.53395081 3 8 12951 20.06800000 3177085846 3177085846 -7.25400000
38.76108932 -27.45453835 0.27606589 29 9 12951 47.50000000 3177085846 3177085846 0.33300000
39.01678848 -33.82124710 -0.30010396 37 10 12952 51.63600000 3177085849 3177085849 -0.33300000
17.07687759 -13.39961052 -2.33814287 4 11 12952 21.83200000 3177085849 3177085849 -6.14800000
18.82440567 -18.00786018 -2.43178868 6 12 12953 26.16400000 3177085851 3177085851 -5.33300000
38.88585663 -30.52329826 1.15031576 18 13 12953 49.44800000 3177085851 3177085851 1.33300000
38.79479599 -37.12496567 0.62512618 42 14 12954 53.70000000 3177085853 3177085853 0.66700000
20.17646980 -15.84313107 -1.79385746 23 15 12954 25.71600000 3177085853 3177085853 -4.00000000
20.14131737 -17.47774506 -2.17698789 11 16 12955 26.75600000 3177085855 3177085855 -4.66700000
39.18599319 -27.79660034 1.39820743 30 17 12955 48.06400000 3177085855 3177085855 1.66700000
39.23846436 -34.04940796 0.90682703 33 18 12955 51.96000000 3177085858 3177085858 1.00000000
20.24814606 -14.36303139 -1.59100771 26 19 12955 24.87600000 3177085858 3177085858 -3.66700000
20.14822769 -19.29447174 -1.62463677 13 20 12956 27.94400000 3177085860 3177085860 -3.33300000
40.29976654 -31.66725731 2.98485732 31 21 12956 51.34000000 3177085860 3177085860 3.33300000
38.91637039 -33.79372406 2.09984446 27 22 12957 51.58400000 3177085862 3177085862 2.33300000
34.36914062 -27.01671791 -2.03638816 6 23 12957 43.76400000 3177085862 3177085862 -2.66700000
20.21367264 -17.55909348 -1.40323162 13 24 12958 26.81200000 3177085865 3177085865 -3.00000000
40.91725540 -35.55629349 4.42525101 38 26 12959 54.38800000 3177085867 3177085867 4.66700000
38.76947021 -27.54184723 -1.93750370 33 27 12959 47.59600000 3177085867 3177085867 -2.33300000
39.32062531 -37.70712280 -1.90244138 31 28 12960 54.51200000 3177085869 3177085869 -2.00000000
39.39220047 -30.99860573 -1.16641390 25 31 12960 50.14000000 3177085872 3177085872 -1.33300000
3.94598007 -3.43987298 -2.44104314 9 0 12968 5.77600000 3177085892 3177085892 -25.00000000
39.15948105 -27.91156769 -0.83939093 30 1 12968 48.09600000 3177085892 3177085892 -1.00000000
39.34342957 -34.30936813 -1.51922405 31 2 12969 52.22400000 3177085895 3177085895 -1.66700000
7.76083708 -6.12694073 -2.76799989 4 3 12969 10.26800000 3177085895 3177085895 -15.63900000
10.17062569 -8.87240219 -2.69935846 3 4 12970 13.76400000 3177085897 3177085897 -11.31000000
38.76167297 -30.61212540 0.00000000 18 5 12970 49.39200000 3177085897 3177085897 0.00000000
38.89271164 -37.42729568 -0.62838566 40 6 12970 53.98000000 3177085899 3177085899 -0.66700000
12.80109501 -10.10969543 -2.53773284 1 7 12970 16.50800000 3177085899 3177085899 -8.84300000
15.02310467 -13.11010742 -2.53799129 3 8 12971 20.10000000 3177085902 3177085902 -7.25400000
38.65199661 -27.58037949 0.27597290 29 9 12971 47.48400000 3177085902 3177085902 0.33300000
39.11846161 -34.14926147 -0.30180106 25 10 12972 51.92800000 3177085904 3177085904 -0.33300000
17.03936005 -13.46653652 -2.33942795 4 11 12972 21.84400000 3177085904 3177085904 -6.14800000
18.79011536 -18.10109138 -2.43550634 6 12 12973 26.20400000 3177085906 3177085906 -5.33300000
38.73201752 -30.62164688 1.14891994 27 13 12973 49.38800000 3177085906 3177085906 1.33300000
38.73121262 -37.32399368 0.62619716 42 14 12974 53.79200000 3177085908 3177085908 0.66700000
20.17424965 -15.95554352 -1.79860091 23 15 12974 25.78400000 3177085908 3177085908 -4.00000000
20.13422203 -17.59516716 -2.18284607 11 16 12975 26.82800000 3177085911 3177085911 -4.66700000
39.14402771 -27.97273636 1.40018559 20 17 12975 48.13200000 3177085911 3177085911 1.66700000
39.30006027 -34.34407043 0.91101563 34 18 12975 52.20000000 3177085913 3177085913 1.00000000
20.24660301 -14.46843624 -1.59484518 22 19 12975 24.93600000 3177085913 3177085913 -3.66700000
20.14974022 -19.43121147 -1.63021815 13 20 12976 28.04000000 3177085915 3177085915 -3.33300000
40.25473404 -31.85977745 2.98974109 31 21 12976 51.42400000 3177085915 3177085915 3.33300000
39.49615097 -34.53975677 2.13762069 30 22 12977 52.51200000 3177085918 3177085918 2.33300000
34.28402328 -27.14396477 -2.03694654 6 23 12977 43.77600000 3177085918 3177085918 -2.66700000
20.21539116 -17.68477631 -1.40762782 13 24 12978 26.89600000 3177085920 3177085920 -3.00000000
40.76589203 -35.67527390 4.42232180 57 26 12979 54.35200000 3177085922 3177085922 4.66700000
38.64384460 -27.65607643 -1.93603826 22 27 12979 47.56000000 3177085922 3177085922 -2.33300000
39.32966995 -37.98022079 -1.90928161 31 28 12980 54.70800000 3177085925 3177085925 -2.00000000
39.36210251 -31.19801903 -1.16874015 25 31 12980 50.24000000 3177085927 3177085927 -1.33300000
3.94151759 -3.46148920 -2.44611454 9 0 12989 5.78800000 3177085948 3177085948 -25.00000000
39.33951569 -28.25790024 -0.84546435 20 1 12989 48.44400000 3177085948 3177085948 -1.00000000
39.36159515 -34.58000565 -1.52480948 32 2 12990 52.41600000 3177085950 3177085950 -1.66700000
7.74134350 -6.15774250 -2.76907802 3 3 12990 10.27200000 3177085950 3177085950 -15.63900000
10.14982414 -8.91997719 -2.70249629 3 4 12991 13.78000000 3177085952 3177085952 -11.31000000
38.75250626 -30.83617973 0.00000000 27 5 12991 49.52400000 3177085952 3177085952 0.00000000
38.67486191 -37.49164200 -0.62708187 20 6 12991 53.86800000 3177085955 3177085955 -0.66700000
12.77632618 -10.16639042 -2.54019237 1 7 12991 16.52400000 3177085955 3177085955 -8.84300000
14.98687363 -13.17556190 -2.54001164 3 8 12992 20.11600000 3177085957 3177085957 -7.25400000
38.79420853 -27.89700508 0.27771649 30 9 12992 47.78400000 3177085957 3177085957 0.33300000
39.02907944 -34.32410812 -0.30208004 26 10 12993 51.97600000 3177085959 3177085959 -0.33300000
17.07699966 -13.59826469 -2.35142279 4 11 12993 21.95600000 3177085959 3177085959 -6.14800000
18.79509926 -18.23917770 -2.44480085 6 12 12994 26.30400000 3177085961 3177085961 -5.33300000
38.98860931 -31.05740738 1.15990019 18 13 12994 49.86000000 3177085961 3177085961 1.33300000
38.69459915 -37.56320572 0.62782687 64 14 12995 53.93200000 3177085964 3177085964 0.66700000
20.16556358 -16.06916618 -1.80306530 24 15 12995 25.84800000 3177085964 3177085964 -4.00000000
20.13243675 -17.72416687 -2.18968081 11 16 12996 26.91200000 3177085966 3177085966 -4.66700000
39.13533020 -28.18377876 1.40356004 20 17 12996 48.24800000 3177085966 3177085966 1.66700000
39.17090225 -34.49736023 0.91108543 34 18 12997 52.20400000 3177085968 3177085968 1.00000000
20.23948097 -14.58107090 -1.59868264 22 19 12997 24.99600000 3177085968 3177085968 -3.66700000
20.13853455 -19.56336403 -1.63510180 13 20 12997 28.12400000 3177085971 3177085971 -3.33300000
40.01905441 -31.91249847 2.98090386 30 21 12997 51.27200000 3177085971 3177085971 3.33300000
39.46525574 -34.76882935 2.14283133 46 22 12998 52.64000000 3177085973 3177085973 2.33300000
34.33111191 -27.38655090 -2.04569435 6 23 12998 43.96400000 3177085973 3177085973 -2.66700000
20.20438004 -17.80629158 -1.41139603 14 24 12999 26.96800000 3177085975 3177085975 -3.00000000
40.60495377 -35.79808426 4.41906738 57 26 13000 54.31200000 3177085978 3177085978 4.66700000
38.60057068 -27.83960915 -1.93896914 22 27 13000 47.63200000 3177085978 3177085978 -2.33300000
39.31341171 -38.24397659 -1.91528440 31 28 13001 54.88000000 3177085980 3177085980 -2.00000000
39.36310959 -31.43440819 -1.17218316 25 31 13001 50.38800000 3177085982 3177085982 -1.33300000
3.93544912 -3.47934294 -2.44949555 7 0 13008 5.79600000 3177086003 3177086003 -25.00000000
39.55019760 -28.60853386 -0.85202646 20 1 13008 48.82000000 3177086003 3177086003 -1.00000000
39.42341232 -34.86662674 -1.53167474 33 2 13009 52.65200000 3177086005 3177086005 -1.66700000
7.73290730 -6.19301128 -2.77339125 4 3 13009 10.28800000 3177086005 3177086005 -15.63900000
10.13487625 -8.96658134 -2.70641851 3 4 13010 13.80000000 3177086007 3177086007 -11.31000000
38.63130569 -30.94951057 0.00000000 27 5 13010 49.50000000 3177086007 3177086007 0.00000000
38.64965439 -37.72978973 -0.62880474 40 6 13011 54.01600000 3177086010 3177086010 -0.66700000
12.74692917 -10.21586895 -2.54142213 1 7 13011 16.53200000 3177086010 3177086010 -8.84300000
14.96389866 -13.24359608 -2.54354715 3 8 13011 20.14400000 3177086012 3177086012 -7.25400000
38.86994934 -28.14749146 0.27892536 30 9 13011 47.99200000 3177086012 3177086012 0.33300000
38.94199371 -34.47720718 -0.30228925 39 10 13012 52.01200000 3177086014 3177086014 -0.33300000
17.03801918 -13.65979481 -2.35227966 4 11 13012 21.96400000 3177086014 3177086014 -6.14800000
18.75160599 -18.31810379 -2.44703150 6 12 13013 26.32800000 3177086017 3177086017 -5.33300000
38.94779587 -31.23656464 1.16176116 18 13 13013 49.94000000 3177086017 3177086017 1.33300000
38.66994476 -37.78915787 0.62945664 43 14 13014 54.07200000 3177086019 3177086019 0.66700000
20.17752647 -16.18838692 -1.80892491 24 15 13014 25.93200000 3177086019 3177086019 -4.00000000
20.12725449 -17.83842659 -2.19553900 11 16 13015 26.98400000 3177086021 3177086021 -4.66700000
39.04813004 -28.31809616 1.40379286 30 17 13015 48.25600000 3177086021 3177086021 1.66700000
39.18504715 -34.72901154 0.91394764 34 18 13015 52.36800000 3177086024 3177086024 1.00000000
20.24204636 -14.67973518 -1.60252011 23 19 13015 25.05600000 3177086024 3177086024 -3.66700000
20.14207077 -19.69704437 -1.64068317 13 20 13016 28.22000000 3177086026 3177086026 -3.33300000
39.91300964 -32.04502869 2.98090386 30 21 13016 51.27200000 3177086026 3177086026 3.33300000
39.37964249 -34.92602921 2.14445949 31 22 13017 52.68000000 3177086028 3177086028 2.33300000
34.28371811 -27.53527641 -2.04830003 6 23 13017 44.02000000 3177086028 3177086028 -2.66700000
20.20498085 -17.92621422 -1.41558290 14 24 13018 27.04800000 3177086031 3177086031 -3.00000000
40.52180099 -35.96429443 4.42297268 19 26 13019 54.36000000 3177086033 3177086033 4.66700000
38.60181808 -28.03557014 -1.94369125 22 27 13019 47.74800000 3177086033 3177086033 -2.33300000
39.33489609 -38.51957321 -1.92254353 32 28 13020 55.08800000 3177086035 3177086035 -2.00000000
39.44634247 -31.72700882 -1.17795241 17 31 13021 50.63600000 3177086037 3177086037 -1.33300000
3.92869520 -3.49788046 -2.45287633 6 0 13028 5.80400000 3177086058 3177086058 -25.00000000
39.56969070 -28.83356285 -0.85460943 20 1 13028 48.96800000 3177086058 3177086058 -1.00000000
39.37909698 -35.07316589 -1.53470016 33 2 13029 52.75600000 3177086060 3177086060 -1.66700000
7.71124268 -6.21996641 -2.77339125 4 3 13029 10.28800000 3177086060 3177086060 -15.63900000
10.10937214 -9.00712204 -2.70798755 3 4 13030 13.80800000 3177086063 3177086063 -11.31000000
38.49190521 -31.05905342 0.00000000 27 5 13030 49.46000000 3177086063 3177086063 0.00000000
38.82576752 -38.16729736 -0.63383371 41 6 13031 54.44800000 3177086065 3177086065 -0.66700000
12.73272038 -10.27768040 -2.54572654 1 7 13031 16.56000000 3177086065 3177086065 -8.84300000
14.95904922 -13.33271122 -2.55061817 3 8 13031 20.20000000 3177086067 3177086067 -7.25400000
38.65512466 -28.19813728 0.27808845 30 9 13031 47.84800000 3177086067 3177086067 0.33300000
38.79752350 -34.59163666 -0.30210328 26 10 13032 51.98000000 3177086070 3177086070 -0.33300000
17.00570488 -13.73167801 -2.35442162 4 11 13032 21.98400000 3177086070 3177086070 -6.14800000
18.71594048 -18.41137695 -2.45074916 6 12 13033 26.36800000 3177086072 3177086072 -5.33300000
38.94429016 -31.45776367 1.16492498 28 13 13033 50.07600000 3177086072 3177086072 1.33300000
38.60622025 -37.99124146 0.63057417 43 14 13034 54.16800000 3177086074 3177086074 0.66700000
20.17675972 -16.30386353 -1.81394732 24 15 13034 26.00400000 3177086074 3177086074 -4.00000000
20.12435150 -17.96166992 -2.20204806 11 16 13035 27.06400000 3177086077 3177086077 -4.66700000
39.00069809 -28.49196434 1.40565455 30 17 13035 48.32000000 3177086077 3177086077 1.66700000
38.84875107 -34.67383575 0.90892130 34 18 13035 52.08000000 3177086079 3177086079 1.00000000
20.23903084 -14.78562546 -1.60635757 23 19 13035 25.11600000 3177086079 3177086079 -3.66700000
20.13009644 -19.82327080 -1.64533424 13 20 13036 28.30000000 3177086081 3177086081 -3.33300000
39.64875793 -32.06112671 2.96950865 20 21 13036 51.07600000 3177086081 3177086081 3.33300000
39.37970352 -35.17243195 2.15113544 31 22 13037 52.84400000 3177086084 3177086084 2.33300000
34.30233765 -27.74775887 -2.05518675 6 23 13037 44.16800000 3177086084 3177086084 -2.66700000
20.21079636 -18.05784607 -1.42039788 14 24 13038 27.14000000 3177086086 3177086086 -3.00000000
41.99818420 -37.53752136 4.59839439 22 26 13039 56.51600000 3177086088 3177086088 4.66700000
38.55855560 -28.21026421 -1.94645929 33 27 13039 47.81600000 3177086088 3177086088 -2.33300000
39.24289322 -38.69874954 -1.92463744 48 28 13040 55.14800000 3177086090 3177086090 -2.00000000
39.52426910 -32.00612259 -1.18344247 17 31 13040 50.87200000 3177086093 3177086093 -1.33300000
3.92725801 -3.52125335 -2.45963836 6 0 13048 5.82000000 3177086113 3177086113 -25.00000000
39.54940033 -29.03067398 -0.85635465 20 1 13048 49.06800000 3177086113 3177086113 -1.00000000
39.30405045 -35.25312805 -1.53656197 33 2 13049 52.82000000 3177086116 3177086116 -1.66700000
7.69247341 -6.24927473 -2.77446961 3 3 13049 10.29200000 3177086116 3177086116 -15.63900000
10.08662891 -9.05021381 -2.71034098 3 4 13050 13.82000000 3177086118 3177086118 -11.31000000
38.71850586 -31.46567726 0.00000000 18 5 13050 49.89200000 3177086118 3177086118 0.00000000
38.83829498 -38.43369675 -0.63611537 42 6 13050 54.64400000 3177086120 3177086120 -0.66700000
12.71697235 -10.33480263 -2.54941607 1 7 13050 16.58400000 3177086120 3177086120 -8.84300000
14.92423058 -13.39544868 -2.55263853 3 8 13051 20.21600000 3177086123 3177086123 -7.25400000
38.81109619 -28.52001572 0.27992502 20 9 13051 48.16400000 3177086123 3177086123 0.33300000
38.90571213 -34.93262100 -0.30389336 27 10 13052 52.28800000 3177086125 3177086125 -0.33300000
16.97309494 -13.80350113 -2.35656357 4 11 13052 22.00400000 3177086125 3177086125 -6.14800000
18.67702484 -18.50182152 -2.45409513 6 12 13053 26.40400000 3177086127 3177086127 -5.33300000
39.35538483 -32.01748657 1.18055785 20 13 13053 50.74800000 3177086127 3177086127 1.33300000
38.78304291 -38.43264771 0.63564968 44 14 13054 54.60400000 3177086130 3177086130 0.66700000
20.15995979 -16.40693665 -1.81757474 24 15 13054 26.05600000 3177086130 3177086130 -4.00000000
20.13269234 -18.09576988 -2.20985913 12 16 13055 27.16000000 3177086132 3177086132 -4.66700000
39.16506958 -28.82225800 1.41519630 30 17 13055 48.64800000 3177086132 3177086132 1.66700000
38.74235153 -34.82259750 0.90927035 34 18 13055 52.10000000 3177086134 3177086134 1.00000000
20.24195099 -14.89640522 -1.61070669 23 19 13055 25.18400000 3177086134 3177086134 -3.66700000
20.13166428 -19.96371269 -1.65114820 13 20 13056 28.40000000 3177086137 3177086137 -3.33300000
40.05987549 -32.62549591 3.00881052 31 21 13056 51.75200000 3177086137 3177086137 3.33300000
39.37257767 -35.41391754 2.15748596 48 22 13057 53.00000000 3177086139 3177086139 2.33300000
34.38493729 -28.01370430 -2.06598186 6 23 13057 44.40000000 3177086139 3177086139 -2.66700000
20.20405769 -18.17905045 -1.42437541 14 24 13058 27.21600000 3177086141 3177086141 -3.00000000
41.71873856 -37.55053711 4.58212185 22 26 13059 56.31600000 3177086143 3177086143 4.66700000
38.54671478 -28.40870667 -1.95085573 22 27 13059 47.92400000 3177086143 3177086143 -2.33300000
39.21819305 -38.94535065 -1.93008173 49 28 13060 55.30400000 3177086146 3177086146 -2.00000000
39.50584793 -32.23166656 -1.18642020 17 31 13061 51.00000000 3177086148 3177086148 -1.33300000
3.92032385 -3.53979945 -2.46301913 6 0 13068 5.82800000 3177086169 3177086169 -25.00000000
39.61182785 -29.28981972 -0.85991496 20 1 13068 49.27200000 3177086169 3177086169 -1.00000000
39.27867126 -35.47854996 -1.54040194 34 2 13069 52.95200000 3177086171 3177086171 -1.66700000
7.67955637 -6.28340578 -2.77770448 6 3 13069 10.30400000 3177086171 3177086171 -15.63900000
10.06370640 -9.09325695 -2.71269441 3 4 13070 13.83200000 3177086173 3177086173 -11.31000000
39.08202744 -31.98826790 0.00000000 19 5 13070 50.50400000 3177086173 3177086173 0.00000000
38.69256592 -38.55773926 -0.63592911 63 6 13070 54.62800000 3177086176 3177086176 -0.66700000
12.68693638 -10.38413715 -2.55064583 1 7 13070 16.59200000 3177086176 3177086176 -8.84300000
14.89798641 -13.46608734 -2.55617404 3 8 13071 20.24400000 3177086178 3177086178 -7.25400000
38.85276413 -28.76002884 0.28094789 20 9 13071 48.34000000 3177086178 3177086178 0.33300000
38.86364365 -35.14064789 -0.30452102 27 10 13072 52.39600000 3177086180 3177086180 -0.33300000
16.94942284 -13.88282490 -2.35999060 4 11 13072 22.03600000 3177086180 3177086180 -6.14800000
18.67999840 -18.63440895 -2.46301770 6 12 13073 26.50000000 3177086183 3177086183 -5.33300000
39.14749527 -32.07609940 1.17767322 29 13 13073 50.62400000 3177086183 3177086183 1.33300000
38.74491119 -38.66384888 0.63723290 67 14 13074 54.74000000 3177086185 3177086185 0.66700000
20.16428757 -16.52779961 -1.82315516 24 15 13074 26.13600000 3177086185 3177086185 -4.00000000
20.11669540 -18.20874214 -2.21506643 12 16 13075 27.22400000 3177086187 3177086187 -4.66700000
39.26015472 -29.10404015 1.42229438 30 17 13075 48.89200000 3177086187 3177086187 1.66700000
38.86073685 -35.17501831 0.91492498 35 18 13075 52.42400000 3177086190 3177086190 1.00000000
20.24434471 -15.00738430 -1.61505580 23 19 13075 25.25200000 3177086190 3177086190 -3.66700000
20.13249588 -20.10440445 -1.65696216 13 20 13076 28.50000000 3177086192 3177086192 -3.33300000
40.14643478 -32.92974091 3.02392673 32 21 13076 52.01200000 3177086192 3177086192 3.33300000
39.28722763 -35.58601761 2.15960264 32 22 13077 53.05200000 3177086194 3177086194 2.33300000
34.28385544 -28.13102531 -2.06579566 6 23 13077 44.39600000 3177086194 3177086194 -2.66700000
20.19672012 -18.30042458 -1.42835295 14 24 13078 27.29200000 3177086196 3177086196 -3.00000000
41.68488693 -37.78429031 4.59286165 22 26 13079 56.44800000 3177086199 3177086199 4.66700000
38.51149750 -28.59073448 -1.95411229 33 27 13079 48.00400000 3177086199 3177086199 -2.33300000
39.09614563 -39.09614563 -1.93077981 32 28 13080 55.32400000 3177086201 3177086201 -2.00000000
39.50123596 -32.45822906 -1.18967700 17 31 13081 51.14000000 3177086203 3177086203 -1.33300000
3.92073226 -3.56634116 -2.47147155 6 0 13089 5.84800000 3177086224 3177086224 -25.00000000
39.49138260 -29.42524910 -0.85963571 20 1 13089 49.25600000 3177086224 3177086224 -1.00000000
39.40565491 -35.85638428 -1.55052543 35 2 13090 53.30000000 3177086226 3177086226 -1.66700000
7.66539145 -6.31886101 -2.78093934 3 3 13090 10.31600000 3177086226 3177086226 -15.63900000
10.04481411 -9.14328289 -2.71661663 3 4 13091 13.85200000 3177086229 3177086229 -11.31000000
38.87194061 -32.05495071 0.00000000 29 5 13091 50.38400000 3177086229 3177086229 0.00000000
38.47194672 -38.61995316 -0.63462532 41 6 13091 54.51600000 3177086231 3177086231 -0.66700000
12.66403866 -10.44314098 -2.55372047 1 7 13091 16.61200000 3177086231 3177086231 -8.84300000
14.86320019 -13.53395844 -2.55869937 3 8 13092 20.26400000 3177086233 3177086233 -7.25400000
38.79518509 -28.93811226 0.28129661 30 9 13092 48.40000000 3177086233 3177086233 0.33300000
39.02437973 -35.54682159 -0.30679929 43 10 13093 52.78800000 3177086236 3177086236 -0.33300000
16.90456009 -13.94991684 -2.36084723 2 11 13093 22.04400000 3177086236 3177086236 -6.14800000
18.63685799 -18.72815704 -2.46636391 7 12 13094 26.53600000 3177086238 3177086238 -5.33300000
39.43057251 -32.55031586 1.18976998 30 13 13094 51.14400000 3177086238 3177086238 1.33300000
38.63114929 -38.83395386 0.63769853 67 14 13095 54.78000000 3177086240 3177086240 0.66700000
20.15587807 -16.64478683 -1.82789862 24 15 13095 26.20400000 3177086240 3177086240 -4.00000000
20.11757660 -18.34413338 -2.22255206 12 16 13096 27.31600000 3177086243 3177086243 -4.66700000
39.21408081 -29.29320335 1.42450523 30 17 13096 48.96800000 3177086243 3177086243 1.66700000
39.01230240 -35.57321167 0.92155689 54 18 13096 52.80400000 3177086245 3177086245 1.00000000
20.23717499 -15.11731720 -1.61889327 23 19 13096 25.31200000 3177086245 3177086245 -3.66700000
20.12342453 -20.24319458 -1.66231084 13 20 13097 28.59200000 3177086247 3177086247 -3.33300000
40.04701614 -33.09447098 3.02555466 21 21 13097 52.04000000 3177086247 3177086247 3.33300000
39.88575745 -36.39517593 2.19982147 17 22 13098 54.04000000 3177086249 3177086249 2.33300000
34.32218170 -28.37360382 -2.07435751 6 23 13098 44.58000000 3177086249 3177086249 -2.66700000
20.18851471 -18.42818642 -1.43253982 14 24 13099 27.37200000 3177086252 3177086252 -3.00000000
41.77575302 -38.14650345 4.61824751 22 26 13100 56.76000000 3177086254 3177086254 4.66700000
38.43524933 -28.75324059 -1.95557773 33 27 13100 48.04000000 3177086254 3177086254 -2.33300000
39.09340286 -39.38102722 -1.93775964 33 28 13101 55.52400000 3177086256 3177086256 -2.00000000
39.45901489 -32.66654205 -1.19200325 17 31 13102 51.24000000 3177086259 3177086259 -1.33300000
3.91155815 -3.58177161 -2.47316217 6 0 13108 5.85200000 3177086279 3177086279 -25.00000000
39.49275970 -29.63045120 -0.86179984 20 1 13108 49.38000000 3177086279 3177086279 -1.00000000
39.37792969 -36.07058334 -1.55413270 35 2 13109 53.42400000 3177086282 3177086282 -1.66700000
7.65032339 -6.34916544 -2.78309608 3 3 13109 10.32400000 3177086282 3177086282 -15.63900000
10.03178978 -9.19244099 -2.72132349 3 4 13110 13.87600000 3177086284 3177086284 -11.31000000
38.91930771 -32.31143188 0.00000000 30 5 13110 50.58400000 3177086284 3177086284 0.00000000
38.51528549 -38.92074203 -0.63746572 42 6 13110 54.76000000 3177086286 3177086286 -0.66700000
12.65062523 -10.50275135 -2.55802488 1 7 13110 16.64000000 3177086286 3177086286 -8.84300000
14.83286381 -13.59657860 -2.56122470 3 8 13111 20.28400000 3177086289 3177086289 -7.25400000
38.71500397 -29.07861328 0.28141287 20 9 13111 48.42000000 3177086289 3177086289 0.33300000
38.98883438 -35.75173187 -0.30745023 44 10 13112 52.90000000 3177086291 3177086291 -0.33300000
16.87350273 -14.01860428 -2.36298919 4 11 13112 22.06400000 3177086291 3177086291 -6.14800000
18.58864975 -18.80401802 -2.46822262 7 12 13113 26.55600000 3177086293 3177086293 -5.33300000
39.16249466 -32.54798126 1.18493128 20 13 13113 50.93600000 3177086293 3177086293 1.33300000
38.78610992 -39.24918747 0.64240152 69 14 13114 55.18400000 3177086295 3177086295 0.66700000
20.15273285 -16.75490189 -1.83264208 24 15 13114 26.27200000 3177086295 3177086295 -4.00000000
20.10950089 -18.45927238 -2.22841024 12 16 13115 27.38800000 3177086298 3177086298 -4.66700000
39.18062973 -29.47115135 1.42683256 30 17 13115 49.04800000 3177086298 3177086298 1.66700000
39.03259659 -35.82949829 0.92483795 54 18 13115 52.99200000 3177086300 3177086300 1.00000000
20.23478317 -15.22033596 -1.62273073 23 19 13115 25.37200000 3177086300 3177086300 -3.66700000
20.12633133 -20.38084984 -1.66812479 13 20 13116 28.69200000 3177086302 3177086302 -3.33300000
39.98923874 -33.27050781 3.02950811 21 21 13116 52.10800000 3177086302 3177086302 3.33300000
40.89509583 -37.56547165 2.26234794 41 22 13117 55.57600000 3177086305 3177086305 2.33300000
34.36610413 -28.60228539 -2.08273315 6 23 13117 44.76000000 3177086305 3177086305 -2.66700000
20.18611908 -18.54908943 -1.43672669 14 24 13118 27.45200000 3177086307 3177086307 -3.00000000
38.45141983 -28.96470261 -1.96127677 22 27 13119 48.18000000 3177086309 3177086309 -2.33300000
39.12258911 -39.67269516 -1.94571674 33 28 13120 55.75200000 3177086312 3177086312 -2.00000000
39.36582947 -32.81001282 -1.19246852 17 31 13121 51.26000000 3177086314 3177086314 -1.33300000
3.89903140 -3.59540367 -2.47316217 6 0 13128 5.85200000 3177086335 3177086335 -25.00000000
39.44013977 -29.80670738 -0.86291677 20 1 13128 49.44400000 3177086335 3177086335 -1.00000000
39.36346054 -36.31083679 -1.55855441 36 2 13129 53.57600000 3177086337 3177086337 -1.66700000
7.62220287 -6.37089109 -2.78093934 3 3 13129 10.31600000 3177086337 3177086337 -15.63900000
10.01117134 -9.23804283 -2.72446132 3 4 13130 13.89200000 3177086339 3177086339 -11.31000000
38.93823624 -32.55741882 0.00000000 30 5 13130 50.75600000 3177086339 3177086339 0.00000000
38.61468124 -39.29458237 -0.64137709 43 6 13130 55.09600000 3177086342 3177086342 -0.66700000
12.61995125 -10.55191708 -2.55925465 1 7 13130 16.64800000 3177086342 3177086342 -8.84300000
14.80863762 -13.66980362 -2.56526518 3 8 13131 20.31600000 3177086344 3177086344 -7.25400000
38.69300842 -29.27391052 0.28199404 20 9 13131 48.52000000 3177086344 3177086344 0.33300000
38.95489883 -35.97172928 -0.30817091 30 10 13132 53.02400000 3177086346 3177086346 -0.33300000
16.90071869 -14.14122105 -2.37369895 2 11 13132 22.16400000 3177086346 3177086346 -6.14800000
18.55916786 -18.90573883 -2.47305584 7 12 13133 26.60800000 3177086348 3177086348 -5.33300000
38.95357895 -32.60491943 1.18204665 20 13 13133 50.81200000 3177086348 3177086348 1.33300000
38.73291397 -39.46998215 0.64379847 46 14 13134 55.30400000 3177086351 3177086351 0.66700000
20.15837288 -16.87894058 -1.83850157 24 15 13134 26.35600000 3177086351 3177086351 -4.00000000
20.10934830 -18.58889198 -2.23557019 12 16 13135 27.47600000 3177086353 3177086353 -4.66700000
39.19543076 -29.69707680 1.43113792 20 17 13135 49.19600000 3177086353 3177086353 1.66700000
39.23915482 -36.27230072 0.93272638 56 18 13135 53.44400000 3177086355 3177086355 1.00000000
20.23880196 -15.33426857 -1.62733567 20 19 13135 25.44400000 3177086355 3177086355 -3.66700000
20.11937332 -20.51655388 -1.67347360 13 20 13136 28.78400000 3177086358 3177086358 -3.33300000
39.90346527 -33.43553925 3.03183365 21 21 13136 52.14800000 3177086358 3177086358 3.33300000
43.18712997 -39.94973755 2.39684463 26 22 13137 58.88000000 3177086360 3177086360 2.33300000
34.30892563 -28.75800705 -2.08533883 6 23 13137 44.81600000 3177086360 3177086360 -2.66700000
20.19454384 -18.68726349 -1.44196022 14 24 13138 27.55200000 3177086362 3177086362 -3.00000000
44.11897278 -40.84031296 4.90790510 28 26 13139 60.32000000 3177086365 3177086365 4.66700000
38.42967987 -29.15914345 -1.96534753 34 27 13139 48.28000000 3177086365 3177086365 -2.33300000
39.11252594 -39.94039917 -1.95213830 51 28 13140 55.93600000 3177086367 3177086367 -2.00000000
39.45899200 -33.11002731 -1.19861007 18 31 13140 51.52400000 3177086369 3177086369 -1.33300000
3.90834260 -3.62804461 -2.48668575 5 0 13147 5.88400000 3177086390 3177086390 -25.00000000
39.23923492 -29.85983086 -0.86068290 20 1 13147 49.31600000 3177086390 3177086390 -1.00000000
39.39811325 -36.58536911 -1.56472170 36 2 13148 53.78800000 3177086392 3177086392 -1.66700000
7.60987616 -6.40357256 -2.78417444 4 3 13148 10.32800000 3177086392 3177086392 -15.63900000
9.98910236 -9.27919865 -2.72681475 3 4 13149 13.90400000 3177086395 3177086395 -11.31000000
38.88208008 -32.73015213 0.00000000 20 5 13149 50.82400000 3177086395 3177086395 0.00000000
38.54153061 -39.49497604 -0.64244813 43 6 13150 55.18800000 3177086397 3177086397 -0.66700000
12.60118103 -10.61117935 -2.56294394 1 7 13150 16.67200000 3177086397 3177086397 -8.84300000
14.78357220 -13.73774338 -2.56880069 3 8 13150 20.34400000 3177086399 3177086399 -7.25400000
38.64344788 -29.43841934 0.28234276 30 9 13150 48.58000000 3177086399 3177086399 0.33300000
38.80317307 -36.07075500 -0.30791518 44 10 13151 52.98000000 3177086401 3177086401 -0.33300000
16.87806511 -14.21768570 -2.37712598 4 11 13151 22.19600000 3177086401 3177086401 -6.14800000
18.56310654 -19.03561020 -2.48197842 7 12 13152 26.70400000 3177086404 3177086404 -5.33300000
38.87582397 -32.75968170 1.18297720 20 13 13152 50.85200000 3177086404 3177086404 1.33300000
38.73582840 -39.73567963 0.64603353 70 14 13153 55.49600000 3177086406 3177086406 0.66700000
20.15110397 -16.98684502 -1.84296608 25 15 13153 26.42000000 3177086406 3177086406 -4.00000000
20.11472321 -18.71793938 -2.24305582 12 16 13154 27.56800000 3177086408 3177086408 -4.66700000
39.35422516 -30.02332687 1.44056320 31 17 13154 49.52000000 3177086408 3177086408 1.66700000
39.30257797 -36.58617783 0.93726403 38 18 13155 53.70400000 3177086411 3177086411 1.00000000
20.22957802 -15.43872643 -1.63091731 20 19 13155 25.50000000 3177086411 3177086411 -3.66700000
20.12367439 -20.65752983 -1.67952001 13 20 13155 28.88800000 3177086413 3177086413 -3.33300000
39.75574493 -33.53678131 3.02904296 43 21 13155 52.10000000 3177086413 3177086413 3.33300000
43.02223969 -40.06277084 2.39505363 52 22 13156 58.83600000 3177086415 3177086415 2.33300000
34.35078430 -28.98758125 -2.09371448 6 23 13156 44.99600000 3177086415 3177086415 -2.66700000
20.18507576 -18.80313683 -1.44572842 14 24 13157 27.62400000 3177086418 3177086418 -3.00000000
43.95121384 -40.95649719 4.90432501 28 26 13158 60.27600000 3177086420 3177086420 4.66700000
38.43757629 -29.36649132 -1.97072089 23 27 13158 48.41200000 3177086420 3177086420 -2.33300000
39.04955292 -40.14151764 -1.95562816 34 28 13159 56.03600000 3177086422 3177086422 -2.00000000
39.33065033 -33.22521210 -1.19805169 18 31 13159 51.50000000 3177086425 3177086425 -1.33300000
3.90889621 -3.65404320 -2.49513817 4 0 13167 5.90400000 3177086445 3177086445 -25.00000000
39.53789139 -30.30561256 -0.86954868 21 1 13167 49.82400000 3177086445 3177086445 -1.00000000
39.04529953 -36.51239014 -1.55576181 35 2 13168 53.48000000 3177086448 3177086448 -1.66700000
7.59041595 -6.43258715 -2.78525257 3 3 13168 10.33200000 3177086448 3177086448 -15.63900000
9.95951557 -9.31669044 -2.72759938 4 4 13169 13.90800000 3177086450 3177086450 -11.31000000
38.76759338 -32.86567688 0.00000000 20 5 13169 50.82400000 3177086450 3177086450 0.00000000
38.30044556 -39.52299500 -0.64072520 43 6 13170 55.04000000 3177086452 3177086452 -0.66700000
12.57009315 -10.66021442 -2.56417394 1 7 13170 16.68000000 3177086452 3177086452 -8.84300000
14.77319336 -13.82450962 -2.57536674 3 8 13170 20.39600000 3177086454 3177086454 -7.25400000
38.79114914 -29.76549530 0.28417933 20 9 13170 48.89600000 3177086454 3177086454 0.33300000
38.88435364 -36.40006638 -0.30956578 30 10 13171 53.26400000 3177086457 3177086457 -0.33300000
16.83136559 -14.27908802 -2.37755442 4 11 13171 22.20000000 3177086457 3177086457 -6.14800000
18.51594162 -19.12031937 -2.48458076 7 12 13172 26.73200000 3177086459 3177086459 -5.33300000
38.65147018 -32.80203247 1.17962730 30 13 13172 50.70800000 3177086459 3177086459 1.33300000
38.68312836 -39.95973969 0.64747703 70 14 13173 55.62000000 3177086461 3177086461 0.66700000
20.14948082 -17.10614967 -1.84826756 25 15 13173 26.49600000 3177086461 3177086461 -4.00000000
20.10744286 -18.84255981 -2.24956489 12 16 13174 27.64800000 3177086464 3177086464 -4.66700000
39.33478546 -30.22629356 1.44370508 31 17 13174 49.62800000 3177086464 3177086464 1.66700000
39.20438385 -36.73818588 0.93782252 38 18 13174 53.73600000 3177086466 3177086466 1.00000000
20.23524475 -15.54950619 -1.63552225 21 19 13174 25.57200000 3177086466 3177086466 -3.66700000
20.11530113 -20.79365921 -1.68486881 13 20 13175 28.98000000 3177086468 3177086468 -3.33300000
39.62930679 -33.66759491 3.02834535 21 21 13175 52.08800000 3177086468 3177086468 3.33300000
42.49730301 -39.85182953 2.37356019 76 22 13176 58.30800000 3177086471 3177086471 2.33300000
34.29201508 -29.14353752 -2.09632015 6 23 13176 45.05200000 3177086471 3177086471 -2.66700000
20.18049622 -18.93087387 -1.45012462 14 24 13177 27.70800000 3177086473 3177086473 -3.00000000
44.01729584 -41.30608749 4.92775774 28 26 13178 60.56400000 3177086475 3177086475 4.66700000
38.44252396 -29.58335686 -1.97625709 23 27 13178 48.54800000 3177086475 3177086475 -2.33300000
39.07861710 -40.45296097 -1.96414363 34 28 13179 56.28000000 3177086478 3177086478 -2.00000000
39.32408142 -33.45558167 -1.20140159 27 31 13179 51.64400000 3177086480 3177086480 -1.33300000
3.90867329 -3.68077207 -2.50359058 4 0 13188 5.92400000 3177086500 3177086500 -25.00000000
39.58797836 -30.57499886 -0.87310898 21 1 13188 50.02800000 3177086500 3177086500 -1.00000000
39.40597153 -37.12132645 -1.57554328 38 2 13189 54.16000000 3177086502 3177086502 -1.66700000
7.56971788 -6.46286535 -2.78633094 5 3 13189 10.33600000 3177086502 3177086502 -15.63900000
9.94242859 -9.36927128 -2.73230600 3 4 13190 13.93200000 3177086505 3177086505 -11.31000000
39.01186752 -33.31928253 0.00000000 32 5 13190 51.30400000 3177086505 3177086505 0.00000000
38.55330276 -40.06280899 -0.64729077 45 6 13190 55.60400000 3177086507 3177086507 -0.66700000
12.55083847 -10.71942902 -2.56786323 1 7 13190 16.70400000 3177086507 3177086507 -8.84300000
14.73108673 -13.88672829 -2.57688189 3 8 13191 20.40800000 3177086509 3177086509 -7.25400000
38.65015030 -29.88300705 0.28394684 30 9 13191 48.85600000 3177086509 3177086509 0.33300000
38.93110657 -36.71248245 -0.31100711 31 10 13192 53.51200000 3177086512 3177086512 -0.33300000
16.79403305 -14.35360146 -2.37969637 2 11 13192 22.22000000 3177086512 3177086512 -6.14800000
18.46505737 -19.20815277 -2.48718333 7 12 13193 26.76000000 3177086514 3177086514 -5.33300000
38.70119476 -33.08900452 1.18483829 20 13 13193 50.93200000 3177086514 3177086514 1.33300000
38.55858231 -40.12432098 0.64784956 47 14 13194 55.65200000 3177086516 3177086516 0.66700000
20.14426422 -17.22916412 -1.85356903 25 15 13194 26.57200000 3177086516 3177086516 -4.00000000
20.10492516 -18.97907639 -2.25705051 8 16 13195 27.74000000 3177086518 3177086518 -4.66700000
39.17631531 -30.33354378 1.44195962 31 17 13195 49.56800000 3177086518 3177086518 1.66700000
39.04911423 -36.86241150 0.93733382 57 18 13195 53.70800000 3177086521 3177086521 1.00000000
20.23177338 -15.66511250 -1.63987136 21 19 13195 25.64000000 3177086521 3177086521 -3.66700000
20.10810089 -20.93925095 -1.69068277 13 20 13196 29.08000000 3177086523 3177086523 -3.33300000
39.81811905 -34.08006668 3.05229855 33 21 13196 52.50000000 3177086523 3177086523 3.33300000
42.25798416 -39.91949463 2.36834955 50 22 13197 58.18000000 3177086525 3177086525 2.33300000
34.28816605 -29.35738373 -2.10264850 6 23 13197 45.18800000 3177086525 3177086525 -2.66700000
20.17194557 -19.06232643 -1.45452094 14 24 13198 27.79200000 3177086528 3177086528 -3.00000000
43.23113251 -40.86735916 4.85648251 27 26 13199 59.68800000 3177086530 3177086530 4.66700000
38.38437271 -29.76324272 -1.97886229 23 27 13199 48.61200000 3177086530 3177086530 -2.33300000
39.01586151 -40.68536377 -1.96847117 35 28 13200 56.40400000 3177086532 3177086532 -2.00000000
39.29835510 -33.68276596 -1.20437932 27 31 13200 51.77200000 3177086535 3177086535 -1.33300000
3.89843154 -3.69688797 -2.50528097 3 0 13208 5.92800000 3177086555 3177086555 -25.00000000
39.44628525 -30.68598747 -0.87234110 21 1 13208 49.98400000 3177086555 3177086555 -1.00000000
39.20073318 -37.18710709 -1.57251787 37 2 13209 54.05600000 3177086558 3177086558 -1.66700000
7.55879498 -6.49929428 -2.79064417 4 3 13209 10.35200000 3177086558 3177086558 -15.63900000
9.91819859 -9.41201878 -2.73465943 3 4 13210 13.94400000 3177086560 3177086560 -11.31000000
39.04088593 -33.58045959 0.00000000 33 5 13210 51.49600000 3177086560 3177086560 0.00000000
38.66744995 -40.46317673 -0.65157473 46 6 13210 55.97200000 3177086562 3177086562 -0.66700000
12.52832699 -10.77606106 -2.57093787 1 7 13210 16.72400000 3177086562 3177086562 -8.84300000
14.70266724 -13.95718861 -2.58041739 5 8 13211 20.43600000 3177086565 3177086565 -7.25400000
38.64343262 -30.09392548 0.28466752 30 9 13211 48.98000000 3177086565 3177086565 0.33300000
38.96514511 -37.00239944 -0.31230900 32 10 13212 53.73600000 3177086567 3177086567 -0.33300000
16.77396965 -14.43808079 -2.38398027 2 11 13212 22.26000000 3177086567 3177086567 -6.14800000
18.42814636 -19.30418015 -2.49127293 7 12 13213 26.80400000 3177086569 3177086569 -5.33300000
38.75212860 -33.36740494 1.18995619 20 13 13213 51.15200000 3177086569 3177086569 1.33300000
38.52321625 -40.36862946 0.64961898 47 14 13214 55.80400000 3177086571 3177086571 0.66700000
20.13539696 -17.34364510 -1.85831249 21 15 13214 26.64000000 3177086571 3177086571 -4.00000000
20.09634209 -19.10407448 -2.26355958 8 16 13215 27.82000000 3177086574 3177086574 -4.66700000
39.12379074 -30.51190948 1.44393778 31 17 13215 49.63600000 3177086574 3177086574 1.66700000
39.08252335 -37.15280533 0.94124317 39 18 13215 53.93200000 3177086576 3177086576 1.00000000
20.21788979 -15.76755238 -1.64319706 17 19 13215 25.69200000 3177086576 3177086576 -3.66700000
20.10102654 -21.07867050 -1.69626403 13 20 13216 29.17600000 3177086578 3177086578 -3.33300000
39.78965378 -34.29706192 3.05927539 33 21 13216 52.62000000 3177086578 3177086578 3.33300000
41.88672256 -39.84638596 2.35532331 73 22 13217 57.86000000 3177086581 3177086581 2.33300000
34.24297333 -29.52646828 -2.10618472 6 23 13217 45.26400000 3177086581 3177086581 -2.66700000
20.16894341 -19.19320488 -1.45912647 14 24 13218 27.88000000 3177086583 3177086583 -3.00000000
43.58487701 -41.49081421 4.91246128 28 26 13219 60.37600000 3177086585 3177086585 4.66700000
38.38734055 -29.98069000 -1.98439848 11 27 13219 48.74800000 3177086585 3177086585 -2.33300000
38.93701172 -40.88788986 -1.97168195 35 28 13220 56.49600000 3177086588 3177086588 -2.00000000
39.23200226 -33.86415863 -1.20596123 27 31 13220 51.84000000 3177086590 3177086590 -1.33300000
3.89926195 -3.72231150 -2.51373339 4 0 13227 5.94800000 3177086611 3177086611 -25.00000000
39.52062988 -30.95473099 -0.87625045 21 1 13227 50.20800000 3177086611 3177086611 -1.00000000
39.18708038 -37.42182541 -1.57693970 38 2 13228 54.20800000 3177086613 3177086613 -1.66700000
7.54011345 -6.52684546 -2.79172254 6 3 13228 10.35600000 3177086613 3177086613 -15.63900000
9.90111351 -9.45840454 -2.73858190 3 4 13229 13.96400000 3177086615 3177086615 -11.31000000
38.82952499 -33.62332916 0.00000000 32 5 13229 51.36400000 3177086615 3177086615 0.00000000
38.56059265 -40.62018585 -0.65204036 46 6 13229 56.01200000 3177086618 3177086618 -0.66700000
12.50148678 -10.82530880 -2.57278252 1 7 13229 16.73600000 3177086618 3177086618 -8.84300000
14.67351532 -14.02231598 -2.58344793 5 8 13230 20.46000000 3177086620 3177086620 -7.25400000
38.72914124 -30.36752510 0.28603914 20 9 13230 49.21600000 3177086620 3177086620 0.33300000
38.81620407 -37.10653305 -0.31209975 48 10 13231 53.70000000 3177086622 3177086622 -0.33300000
16.72900581 -14.49623013 -2.38440871 2 11 13231 22.26400000 3177086622 3177086622 -6.14800000
18.44076347 -19.44610023 -2.50168252 7 12 13232 26.91600000 3177086624 3177086624 -5.33300000
39.20631790 -33.98553848 1.20735693 32 13 13232 51.90000000 3177086624 3177086624 1.33300000
38.65055084 -40.77191544 0.65404260 48 14 13233 56.18400000 3177086627 3177086627 0.66700000
20.13505173 -17.45999146 -1.86361396 25 15 13233 26.71600000 3177086627 3177086627 -4.00000000
20.10200882 -19.23676491 -2.27137065 8 16 13234 27.91600000 3177086629 3177086629 -4.66700000
39.37145233 -30.91557312 1.45685399 21 17 13234 50.08000000 3177086629 3177086629 1.66700000
39.08260345 -37.41345596 0.94438463 39 18 13235 54.11200000 3177086631 3177086631 1.00000000
20.21295357 -15.87748337 -1.64729035 21 19 13235 25.75600000 3177086631 3177086631 -3.66700000
20.10241890 -21.22058678 -1.70231056 13 20 13235 29.28000000 3177086634 3177086634 -3.33300000
39.71189499 -34.46022797 3.06206584 34 21 13235 52.66800000 3177086634 3177086634 3.33300000
41.75724411 -39.98783493 2.35548615 49 22 13236 57.86400000 3177086636 3177086636 2.33300000
34.22634125 -29.71058083 -2.11121011 6 23 13236 45.37200000 3177086636 3177086636 -2.66700000
20.17441368 -19.32629967 -1.46415067 14 24 13237 27.97600000 3177086638 3177086638 -3.00000000
43.37220764 -41.56340027 4.90399933 28 26 13238 60.27200000 3177086641 3177086641 4.66700000
38.45107651 -30.23628616 -1.99286568 23 27 13238 48.95600000 3177086641 3177086641 -2.33300000
38.88087845 -41.10100174 -1.97573030 35 28 13239 56.61200000 3177086643 3177086643 -2.00000000
39.27343369 -34.12784195 -1.21070683 18 31 13239 52.04400000 3177086645 3177086645 -1.33300000
3.89669895 -3.74594951 -2.52049541 4 0 13247 5.96400000 3177086666 3177086666 -25.00000000
39.58189392 -31.22625732 -0.88002014 22 1 13247 50.42400000 3177086666 3177086666 -1.00000000
39.21760559 -37.71358871 -1.58345592 38 2 13248 54.43200000 3177086668 3177086668 -1.66700000
7.52309132 -6.55818796 -2.79387903 4 3 13248 10.36400000 3177086668 3177086668 -15.63900000
9.87086391 -9.49562740 -2.73936629 3 4 13249 13.96800000 3177086670 3177086670 -11.31000000
38.93199539 -33.95058060 0.00000000 33 5 13249 51.65600000 3177086670 3177086670 0.00000000
38.48003006 -40.83401871 -0.65320444 46 6 13250 56.11200000 3177086673 3177086673 -0.66700000
12.47661781 -10.88404751 -2.57585716 1 7 13250 16.75600000 3177086673 3177086673 -8.84300000
14.61590195 -14.06519604 -2.58193254 3 8 13250 20.44800000 3177086675 3177086675 -7.25400000
38.62290192 -30.50252914 0.28603914 30 9 13250 49.21600000 3177086675 3177086675 0.33300000
38.67779541 -37.23347855 -0.31203002 48 10 13251 53.68800000 3177086677 3177086677 -0.33300000
16.75321388 -14.61990929 -2.39511847 4 11 13251 22.36400000 3177086677 3177086677 -6.14800000
18.39188576 -19.53064919 -2.50428486 7 12 13252 26.94400000 3177086680 3177086680 -5.33300000
39.05430984 -34.09326172 1.20633340 21 13 13252 51.85600000 3177086680 3177086680 1.33300000
38.69441986 -41.10462189 0.65720898 48 14 13253 56.45600000 3177086682 3177086682 0.66700000
20.13709831 -17.58528709 -1.86947346 21 15 13253 26.80000000 3177086682 3177086682 -4.00000000
20.09789467 -19.36767769 -2.27853060 12 16 13254 28.00400000 3177086684 3177086684 -4.66700000
39.87796402 -31.53894615 1.47966087 24 17 13254 50.86400000 3177086684 3177086684 1.66700000
38.97848129 -37.56227875 0.94487327 39 18 13254 54.14000000 3177086687 3177086687 1.00000000
20.22280884 -15.99394894 -1.65240693 21 19 13254 25.83600000 3177086687 3177086687 -3.66700000
20.10483360 -21.37206650 -1.70882213 13 20 13255 29.39200000 3177086689 3177086689 -3.33300000
39.44102097 -34.46725464 3.05043817 22 21 13255 52.46800000 3177086689 3177086689 3.33300000
41.50520706 -40.02515030 2.34913564 24 22 13256 57.70800000 3177086691 3177086691 2.33300000
34.13145065 -29.83776093 -2.11176848 6 23 13256 45.38400000 3177086691 3177086691 -2.66700000
20.16432762 -19.45207024 -1.46833754 14 24 13257 28.05600000 3177086694 3177086694 -3.00000000
43.23833847 -41.72561646 4.90530157 28 26 13258 60.28800000 3177086696 3177086696 4.66700000
38.44242477 -30.44724655 -1.99791336 23 27 13258 49.08000000 3177086696 3177086696 -2.33300000
38.84938812 -41.35593033 -1.98145378 35 28 13259 56.77600000 3177086698 3177086698 -2.00000000
39.22932434 -34.34267807 -1.21321929 18 31 13260 52.15200000 3177086700 3177086700 -1.33300000
3.90443683 -3.77970052 -2.53401899 2 0 13267 5.99600000 3177086721 3177086721 -25.00000000
39.49143982 -31.37916183 -0.88043898 22 1 13267 50.44800000 3177086721 3177086721 -1.00000000
39.17763519 -37.93925858 -1.58717954 39 2 13268 54.56000000 3177086723 3177086723 -1.66700000
7.49725866 -6.58186722 -2.79280066 6 3 13268 10.36000000 3177086723 3177086723 -15.63900000
9.84329224 -9.53548336 -2.74093533 3 4 13269 13.97600000 3177086726 3177086726 -11.31000000
39.05068588 -34.29479218 0.00000000 23 5 13269 51.97200000 3177086726 3177086726 0.00000000
38.53949356 -41.18420410 -0.65665025 23 6 13270 56.40800000 3177086728 3177086728 -0.66700000
12.45636559 -10.94318485 -2.57954669 1 7 13270 16.78000000 3177086728 3177086728 -8.84300000
14.58666229 -14.13545895 -2.58546805 3 8 13270 20.47600000 3177086730 3177086730 -7.25400000
38.64766693 -30.74174309 0.28701556 20 9 13270 49.38400000 3177086730 3177086730 0.33300000
38.70842361 -37.52417374 -0.31333190 33 10 13271 53.91200000 3177086733 3177086733 -0.33300000
16.71701431 -14.69142628 -2.39726043 2 11 13271 22.38400000 3177086733 3177086733 -6.14800000
