# .PCD v0.7 - Point Cloud Data file format
VERSION 0.7
FIELDS x y z intensity laser_id azimuth distance_m adjustedtime timestamp vertical_angle
SIZE 4 4 4 1 1 2 8 8 4 8
TYPE F F F U U U F U U F
COUNT 1 1 1 1 1 1 1 1 1 1
WIDTH 525
HEIGHT 1
VIEWPOINT 0 0 0 1 0 0 0
POINTS 525
DATA ascii
8.27205372 16.22081947 -0.52991319 46 2 2562 18.21600000 3179856999 3179856999 -1.66700000
3.37534118 7.50346851 -2.30325198 16 3 2562 8.54400000 3179856999 3179856999 -15.63900000
5.61852360 11.01271439 -2.47264671 4 4 2563 12.60800000 3179857001 3179857001 -11.31000000
9.37489223 16.34962845 -0.21941113 5 6 2563 18.84800000 3179857003 3179857003 -0.66700000
6.11203146 13.58086395 -2.31698012 4 7 2563 15.07200000 3179857003 3179857003 -8.84300000
7.82529688 15.33154011 -2.19100618 3 8 2564 17.35200000 3179857006 3179857006 -7.25400000
21.49406815 54.73389053 0.34176376 25 9 2564 58.80400000 3179857006 3179857006 0.33300000
8.69501495 17.02817535 -0.11112379 5 10 2565 19.12000000 3179857008 3179857008 -0.33300000
7.86821556 17.46679115 -2.06354594 1 11 2565 19.26800000 3179857008 3179857008 -6.14800000
7.99023533 17.72940063 0.45251459 12 13 2566 19.45200000 3179857010 3179857010 1.33300000
10.18708801 17.73737526 0.23813000 2 14 2567 20.45600000 3179857013 3179857013 0.66700000
8.16886044 15.97710323 -1.46488595 4 16 2568 18.00400000 3179857015 3179857015 -4.66700000
42.18763351 107.20927429 3.35297489 28 17 2568 115.26000000 3179857015 3179857015 1.66700000
8.07739258 20.52666473 -1.41371751 5 19 2568 22.10400000 3179857017 3179857017 -3.66700000
9.21755981 16.03630257 -1.07719982 2 20 2569 18.52800000 3179857020 3179857020 -3.33300000
8.24768448 18.27510071 1.16766405 27 21 2569 20.08400000 3179857020 3179857020 3.33300000
9.05782986 17.70055008 0.81007487 13 22 2570 19.90000000 3179857022 3179857022 2.33300000
7.98130846 17.67663956 -0.90344828 7 23 2570 19.41600000 3179857022 3179857022 -2.66700000
8.21320724 16.04310799 -0.94455934 40 24 2571 18.04800000 3179857024 3179857024 -3.00000000
9.51214981 18.57238197 1.70344663 11 26 2572 20.93600000 3179857026 3179857026 4.66700000
8.16610813 20.70967102 -0.90695822 11 27 2572 22.28000000 3179857026 3179857026 -2.33300000
9.16296482 15.91559505 -0.64131314 3 28 2573 18.37600000 3179857029 3179857029 -2.00000000
7.99026012 17.66357613 -0.45111883 18 31 2574 19.39200000 3179857031 3179857031 -1.33300000
2.56106663 4.98115826 -2.61178088 16 0 2581 6.18000000 3179857052 3179857052 -25.00000000
16.61751556 41.94966125 -0.78759217 9 1 2581 45.12800000 3179857052 3179857052 -1.00000000
8.30667782 16.14917946 -0.52851683 33 2 2582 18.16800000 3179857054 3179857054 -1.66700000
3.39195776 7.47059679 -2.29678202 17 3 2582 8.52000000 3179857054 3179857054 -15.63900000
5.64975166 10.97908401 -2.46950889 4 4 2583 12.59200000 3179857056 3179857056 -11.31000000
7.97880840 17.56473351 0.00000000 41 5 2583 19.29200000 3179857056 3179857056 0.00000000
9.44791985 16.34450722 -0.21978365 5 6 2583 18.88000000 3179857059 3179857059 -0.66700000
6.15286160 13.54505157 -2.31452060 3 7 2583 15.05600000 3179857059 3179857059 -8.84300000
7.87150145 15.29001999 -2.18898582 1 8 2584 17.33600000 3179857061 3179857061 -7.25400000
21.47995949 54.14172363 0.33853236 24 9 2584 58.24800000 3179857061 3179857061 0.33300000
8.76172733 17.01194382 -0.11121678 5 10 2585 19.13600000 3179857063 3179857063 -0.33300000
7.92584610 17.43197823 -2.06268907 1 11 2585 19.26000000 3179857063 3179857063 -6.14800000
9.10496807 15.73219681 -1.69678688 4 12 2586 18.25600000 3179857066 3179857066 -5.33300000
10.20685577 17.62901688 0.23715214 5 14 2587 20.37200000 3179857068 3179857068 0.66700000
8.02945232 17.64350128 -1.35550785 7 15 2587 19.43200000 3179857068 3179857068 -4.00000000
8.22640896 15.95203495 -1.46521139 6 16 2588 18.00800000 3179857070 3179857070 -4.66700000
43.46113968 109.32408142 3.42383957 28 17 2588 117.69600000 3179857070 3179857070 1.66700000
8.05609035 20.26465034 -1.39760017 5 19 2588 21.85200000 3179857073 3179857073 -3.66700000
9.33154011 16.10422897 -1.08394396 2 20 2589 18.64400000 3179857075 3179857075 -3.33300000
8.30315018 18.22802925 1.16650128 27 21 2589 20.06400000 3179857075 3179857075 3.33300000
9.13239193 17.69368553 0.81121469 22 22 2590 19.92800000 3179857077 3179857077 2.33300000
7.92200327 17.38324928 -0.88986123 7 23 2590 19.12400000 3179857077 3179857077 -2.66700000
8.26365948 16.00369453 -0.94393128 57 24 2591 18.03600000 3179857079 3179857079 -3.00000000
9.59155941 18.56740189 1.70605028 11 26 2592 20.96800000 3179857082 3179857082 4.66700000
8.24426556 20.69589233 -0.90760952 16 27 2592 22.29600000 3179857082 3179857082 -2.33300000
9.30073738 16.02526855 -0.64703667 3 28 2593 18.54000000 3179857084 3179857084 -2.00000000
8.00370407 17.53008270 -0.44842029 25 31 2594 19.27600000 3179857086 3179857086 -1.33300000
2.59345865 5.00115252 -2.62699509 13 0 2601 6.21600000 3179857107 3179857107 -25.00000000
16.73710060 41.82456589 -0.78633565 9 1 2601 45.05600000 3179857107 3179857107 -1.00000000
8.34826851 16.09169197 -0.52758592 30 2 2602 18.13600000 3179857109 3179857109 -1.66700000
3.38431573 7.38517427 -2.27413774 19 3 2602 8.43600000 3179857109 3179857109 -15.63900000
5.68623495 10.95581436 -2.46872449 3 4 2603 12.58800000 3179857112 3179857112 -11.31000000
8.02840328 17.51132393 0.00000000 18 5 2603 19.26400000 3179857112 3179857112 0.00000000
9.52102470 16.33907509 -0.22015616 5 6 2603 18.91200000 3179857114 3179857114 -0.66700000
6.19186926 13.50552750 -2.31144595 3 7 2603 15.03600000 3179857114 3179857114 -8.84300000
7.95225334 15.31527328 -2.19656205 3 8 2604 17.39600000 3179857116 3179857116 -7.25400000
21.49471855 53.63201141 0.33581236 24 9 2604 57.78000000 3179857116 3179857116 0.33300000
8.81736851 16.97415733 -0.11117028 5 10 2605 19.12800000 3179857119 3179857119 -0.33300000
7.97669458 17.38251877 -2.06011891 3 11 2605 19.23600000 3179857119 3179857119 -6.14800000
9.18591881 15.74503899 -1.70161998 4 12 2606 18.30800000 3179857121 3179857121 -5.33300000
40.07531738 68.66319275 0.92555922 28 14 2607 79.50800000 3179857123 3179857123 0.66700000
8.27836227 15.91614819 -1.46456051 6 16 2608 18.00000000 3179857126 3179857126 -4.66700000
41.16342163 102.50060272 3.21462035 28 17 2608 110.50400000 3179857126 3179857126 1.66700000
9.78655243 18.81582451 0.37020046 2 18 2608 21.21200000 3179857128 3179857128 1.00000000
8.06132412 20.07341766 -1.38634360 5 19 2608 21.67600000 3179857128 3179857128 -3.66700000
9.39373970 16.08190155 -1.08464158 2 20 2609 18.65600000 3179857130 3179857130 -3.33300000
8.36172295 18.18805122 1.16580367 27 21 2609 20.05200000 3179857130 3179857130 3.33300000
9.20886326 17.69006157 0.81251734 11 22 2610 19.96000000 3179857132 3179857132 2.33300000
7.90749931 17.19213676 -0.88148558 16 23 2610 18.94400000 3179857132 3179857132 -2.66700000
8.32131767 15.97829342 -0.94414067 51 24 2611 18.04000000 3179857135 3179857135 -3.00000000
9.67473507 18.56916428 1.70930481 11 26 2612 21.00800000 3179857137 3179857137 4.66700000
8.32839298 20.69664955 -0.90891218 11 27 2612 22.32800000 3179857137 3179857137 -2.33300000
9.36065674 15.99960613 -0.64731586 3 28 2613 18.54800000 3179857139 3179857139 -2.00000000
8.03974342 17.44755936 -0.44702449 33 31 2614 19.21600000 3179857142 3179857142 -1.33300000
2.71338725 5.18802547 -2.73011398 14 0 2621 6.46000000 3179857162 3179857162 -25.00000000
16.88299370 41.76588821 -0.78633565 9 1 2621 45.05600000 3179857162 3179857162 -1.00000000
8.39882755 16.05182457 -0.52723682 26 2 2622 18.12400000 3179857165 3179857165 -1.66700000
3.40037251 7.35233927 -2.26766801 18 3 2622 8.41200000 3179857165 3179857165 -15.63900000
5.72262383 10.93242455 -2.46794009 4 4 2623 12.58400000 3179857167 3179857167 -11.31000000
9.59825897 16.34022713 -0.22062181 8 6 2623 18.95200000 3179857169 3179857169 -0.66700000
6.23399496 13.47307014 -2.30960131 4 7 2623 15.02400000 3179857169 3179857169 -8.84300000
8.00014305 15.27687645 -2.19504690 4 8 2624 17.38400000 3179857172 3179857172 -7.25400000
21.47616196 53.04870987 0.33262745 23 9 2624 57.23200000 3179857172 3179857172 0.33300000
8.87656593 16.94327545 -0.11117028 5 10 2625 19.12800000 3179857174 3179857174 -0.33300000
8.02896595 17.33652496 -2.05797696 1 11 2625 19.21600000 3179857174 3179857174 -6.14800000
9.26505089 15.75407410 -1.70608127 4 12 2626 18.35600000 3179857176 3179857176 -5.33300000
10.55481052 17.93998718 0.24232079 2 14 2627 20.81600000 3179857178 3179857178 0.66700000
7.97958183 17.21413231 -1.32676816 3 15 2627 19.02000000 3179857178 3179857178 -4.00000000
8.33572197 15.89068508 -1.46488595 6 16 2628 18.00400000 3179857181 3179857181 -4.66700000
41.37066650 101.98577881 3.20298409 28 17 2628 110.10400000 3179857181 3179857181 1.66700000
9.84659863 18.77092361 0.36999100 2 18 2628 21.20000000 3179857183 3179857183 1.00000000
8.05181599 19.84910583 -1.37278461 4 19 2628 21.46400000 3179857183 3179857183 -3.66700000
9.47413158 16.09030533 -1.08743227 2 20 2629 18.70400000 3179857185 3179857185 -3.33300000
8.41675663 18.14064026 1.16464090 26 21 2629 20.03200000 3179857185 3179857185 3.33300000
9.28913498 17.69319534 0.81414562 21 22 2630 20.00000000 3179857188 3179857188 2.33300000
7.90353489 17.02670860 -0.87441289 14 23 2630 18.79200000 3179857188 3179857188 -2.66700000
8.36961174 15.93500423 -0.94330329 54 24 2631 18.02400000 3179857190 3179857190 -3.00000000
8.41262722 20.69707298 -0.91021478 4 27 2632 22.36000000 3179857192 3179857192 -2.33300000
9.43066311 15.99093723 -0.64829308 3 28 2633 18.57600000 3179857195 3179857195 -2.00000000
8.03989410 17.28885269 -0.44367462 22 31 2634 19.07200000 3179857197 3179857197 -1.33300000
2.66890144 5.05988121 -2.66756654 15 0 2641 6.31200000 3179857218 3179857218 -25.00000000
16.93192673 41.46973038 -0.78186780 9 1 2641 44.80000000 3179857218 3179857218 -1.00000000
8.44547749 16.00473022 -0.52665502 24 2 2642 18.10400000 3179857220 3179857220 -1.66700000
3.42764544 7.34391546 -2.26874614 21 3 2642 8.41600000 3179857220 3179857220 -15.63900000
5.75708818 10.90544510 -2.46637106 4 4 2643 12.57600000 3179857222 3179857222 -11.31000000
9.66950321 16.33071518 -0.22094776 5 6 2643 18.98000000 3179857225 3179857225 -0.66700000
6.27597046 13.44048405 -2.30775642 3 7 2643 15.01200000 3179857225 3179857225 -8.84300000
7.98485708 15.11903477 -2.17635918 1 8 2644 17.23600000 3179857227 3179857227 -7.25400000
21.49467468 52.56616211 0.33007020 22 9 2644 56.79200000 3179857227 3179857227 0.33300000
8.93939209 16.91926193 -0.11121678 5 10 2645 19.13600000 3179857229 3179857229 -0.33300000
8.07764530 17.28317261 -2.05497813 1 11 2645 19.18800000 3179857229 3179857229 -6.14800000
9.36466694 15.79700851 -1.71426034 4 12 2646 18.44400000 3179857231 3179857231 -5.33300000
10.56840324 17.82046700 0.24120325 2 14 2647 20.72000000 3179857234 3179857234 0.66700000
8.05483818 17.21870232 -1.32927942 4 15 2647 19.05600000 3179857234 3179857234 -4.00000000
8.39486790 15.86853886 -1.46553683 6 16 2648 18.01200000 3179857236 3179857236 -4.66700000
44.47623825 108.55219269 3.41406512 28 17 2648 117.36000000 3179857236 3179857236 1.66700000
9.85969639 18.63745308 0.36803636 2 18 2648 21.08800000 3179857238 3179857238 1.00000000
8.04689598 19.63988304 -1.36024892 4 19 2648 21.26800000 3179857238 3179857238 -3.66700000
9.52820206 16.05370331 -1.08719969 2 20 2649 18.70000000 3179857241 3179857241 -3.33300000
8.47325516 18.09668350 1.16371059 24 21 2649 20.01600000 3179857241 3179857241 3.33300000
9.36393070 17.68538666 0.81528538 21 22 2650 20.02800000 3179857243 3179857243 2.33300000
7.90529251 16.87599182 -0.86808467 18 23 2650 18.65600000 3179857243 3179857243 -2.66700000
8.42331505 15.90216160 -0.94309396 54 24 2651 18.02000000 3179857245 3179857245 -3.00000000
8.71553612 21.22956276 -0.93496484 2 27 2652 22.96800000 3179857248 3179857248 -2.33300000
9.49868107 15.97853851 -0.64913064 1 28 2653 18.60000000 3179857250 3179857250 -2.00000000
8.04453659 17.14986420 -0.44078997 22 31 2653 18.94800000 3179857252 3179857252 -1.33300000
2.67375231 5.02859688 -2.65573311 14 0 2660 6.28400000 3179857273 3179857273 -25.00000000
17.00381851 41.25435638 -0.77886599 9 1 2660 44.62800000 3179857273 3179857273 -1.00000000
8.49662685 15.97310543 -0.52653867 26 2 2661 18.10000000 3179857275 3179857275 -1.66700000
3.43393254 7.29417324 -2.25688505 20 3 2661 8.37200000 3179857275 3179857275 -15.63900000
5.78584957 10.87244320 -2.46323323 4 4 2662 12.56000000 3179857278 3179857278 -11.31000000
9.76129627 16.35525131 -0.22173935 5 6 2663 19.04800000 3179857280 3179857280 -0.66700000
6.31779385 13.40776825 -2.30591178 4 7 2663 15.00000000 3179857280 3179857280 -8.84300000
8.09648418 15.20805740 -2.19302654 1 8 2663 17.36800000 3179857282 3179857282 -7.25400000
21.45673180 51.98066330 0.32683879 21 9 2663 56.23600000 3179857282 3179857282 0.33300000
9.00485134 16.90717506 -0.11133302 5 10 2664 19.15600000 3179857284 3179857284 -0.33300000
8.06538486 17.10880089 -2.03741431 1 11 2664 19.02400000 3179857284 3179857284 -6.14800000
9.47622681 15.86502361 -1.72504187 2 12 2665 18.56000000 3179857287 3179857287 -5.33300000
8.37383747 17.75507545 0.45679501 1 13 2665 19.63600000 3179857287 3179857287 1.33300000
40.22629547 67.31985474 0.91298687 28 14 2666 78.42800000 3179857289 3179857289 0.66700000
8.03186417 17.02228737 -1.31616509 3 15 2666 18.86800000 3179857289 3179857289 -4.00000000
8.45119572 15.84764862 -1.46618783 4 16 2667 18.02000000 3179857291 3179857291 -4.66700000
44.73510742 108.16024780 3.40638518 28 17 2667 117.09600000 3179857291 3179857291 1.66700000
10.05270481 18.84287071 0.37278339 2 18 2668 21.36000000 3179857294 3179857294 1.00000000
8.04061317 19.43093872 -1.34771323 4 19 2668 21.07200000 3179857294 3179857294 -3.66700000
9.58753395 16.03229904 -1.08789742 2 20 2668 18.71200000 3179857296 3179857296 -3.33300000
8.53321934 18.06848717 1.16371059 26 21 2668 20.01600000 3179857296 3179857296 3.33300000
9.43569851 17.67891884 0.81642520 21 22 2669 20.05600000 3179857298 3179857298 2.33300000
7.91683102 16.75575447 -0.86324543 21 23 2669 18.55200000 3179857298 3179857298 -2.66700000
8.46283150 15.84947586 -0.94162852 51 24 2670 17.99200000 3179857301 3179857301 -3.00000000
8.80883980 21.25592613 -0.93740726 5 27 2671 23.02800000 3179857303 3179857303 -2.33300000
9.56188583 15.96409893 -0.64982861 1 28 2672 18.62000000 3179857305 3179857305 -2.00000000
8.05860710 17.03272438 -0.43846366 22 31 2672 18.84800000 3179857308 3179857308 -1.33300000
2.70670700 5.04798746 -2.67094731 16 0 2680 6.32000000 3179857328 3179857328 -25.00000000
17.07702065 41.02490616 -0.77565473 9 1 2680 44.44400000 3179857328 3179857328 -1.00000000
8.55233192 15.94334888 -0.52653867 24 2 2681 18.10000000 3179857331 3179857331 -1.66700000
3.48581815 7.33781052 -2.27413774 21 3 2681 8.43600000 3179857331 3179857331 -15.63900000
5.82005692 10.84526825 -2.46166420 4 4 2682 12.55200000 3179857333 3179857333 -11.31000000
8.31200504 17.48928452 0.00000000 1 5 2682 19.36400000 3179857333 3179857333 0.00000000
9.86781120 16.40333366 -0.22285689 5 6 2683 19.14400000 3179857335 3179857335 -0.66700000
6.36116266 13.37849426 -2.30468202 4 7 2683 14.99200000 3179857335 3179857335 -8.84300000
8.11010647 15.10628605 -2.18242002 1 8 2683 17.28400000 3179857337 3179857337 -7.25400000
21.45797348 51.47348785 0.32411879 20 9 2683 55.76800000 3179857337 3179857337 0.33300000
9.07327652 16.89325905 -0.11144926 3 10 2684 19.17600000 3179857340 3179857340 -0.33300000
8.06013775 16.94407272 -2.02113557 1 11 2684 18.87200000 3179857340 3179857340 -6.14800000
10.12316132 16.81451416 -1.83211350 4 12 2685 19.71200000 3179857342 3179857342 -5.33300000
40.28976059 66.89464569 0.90912205 28 14 2686 78.09600000 3179857344 3179857344 0.66700000
8.06893444 16.94731140 -1.31253779 3 15 2686 18.81600000 3179857344 3179857344 -4.00000000
8.51023960 15.82507515 -1.46683872 4 16 2687 18.02800000 3179857347 3179857347 -4.66700000
42.47258377 101.68350220 3.20705676 28 17 2687 110.24400000 3179857347 3179857347 1.66700000
10.11513424 18.80943108 0.37278339 2 18 2687 21.36000000 3179857349 3179857349 1.00000000
8.02192307 19.20526505 -1.33389843 6 19 2687 20.85600000 3179857349 3179857349 -3.66700000
9.63931561 15.99189472 -1.08743227 2 20 2688 18.70400000 3179857351 3179857351 -3.33300000
8.59623814 18.03858948 1.16371059 24 21 2688 20.01600000 3179857351 3179857351 3.33300000
9.52008247 17.68810654 0.81837916 23 22 2689 20.10400000 3179857354 3179857354 2.33300000
7.92884350 16.63063622 -0.85822004 20 23 2689 18.44400000 3179857354 3179857354 -2.66700000
8.50484943 15.79521847 -0.94016314 31 24 2690 17.96400000 3179857356 3179857356 -3.00000000
8.81200504 21.05545425 -0.92991710 5 27 2691 22.84400000 3179857358 3179857358 -2.33300000
9.57003307 15.85191250 -0.64661789 1 28 2692 18.52800000 3179857361 3179857361 -2.00000000
8.08183384 16.92870712 -0.43650955 22 31 2692 18.76400000 3179857363 3179857363 -1.33300000
2.73036504 5.04759884 -2.67601871 15 0 2701 6.33200000 3179857383 3179857383 -25.00000000
17.23192024 40.97309875 -0.77586418 9 1 2701 44.45600000 3179857383 3179857383 -1.00000000
8.61451530 15.91892910 -0.52677137 24 2 2702 18.10800000 3179857385 3179857385 -1.66700000
3.50602698 7.31109238 -2.26982450 21 3 2702 8.42000000 3179857385 3179857385 -15.63900000
5.86163521 10.82731342 -2.46244860 4 4 2703 12.55600000 3179857388 3179857388 -11.31000000
8.39335346 17.49476624 0.00000000 1 5 2703 19.40400000 3179857388 3179857388 0.00000000
21.10256767 34.80334473 -0.47383866 9 6 2703 40.70400000 3179857390 3179857390 -0.66700000
6.39756584 13.33482742 -2.30099249 3 7 2703 14.96800000 3179857390 3179857390 -8.84300000
8.15974998 15.06599236 -2.18090487 2 8 2704 17.27200000 3179857392 3179857392 -7.25400000
7.61399984 18.07765007 0.11400650 1 9 2704 19.61600000 3179857392 3179857392 0.33300000
9.14275455 16.87395859 -0.11154225 3 10 2705 19.19200000 3179857395 3179857395 -0.33300000
8.12046528 16.91083145 -2.02070713 1 11 2705 18.86800000 3179857395 3179857395 -6.14800000
10.12272072 16.67516327 -1.82096016 2 12 2706 19.59200000 3179857397 3179857397 -5.33300000
8.37945843 17.44238091 0.45028135 1 13 2706 19.35600000 3179857397 3179857397 1.33300000
40.08830261 66.01151276 0.89911067 28 14 2707 77.23600000 3179857399 3179857399 0.66700000
8.05148315 16.75218773 -1.29970264 1 15 2707 18.63200000 3179857399 3179857399 -4.00000000
8.57198620 15.80078506 -1.46748960 4 16 2708 18.03600000 3179857401 3179857401 -4.66700000
8.08139610 19.14999008 -1.33210766 22 19 2708 20.82800000 3179857404 3179857404 -3.66700000
9.77045345 16.07589149 -1.09557176 2 20 2709 18.84400000 3179857406 3179857406 -3.33300000
8.66402626 18.01056099 1.16394317 22 21 2709 20.02000000 3179857406 3179857406 3.33300000
9.60391903 17.68821907 0.82000744 21 22 2710 20.14400000 3179857408 3179857408 2.33300000
7.94642544 16.51145363 -0.85356694 21 23 2710 18.34400000 3179857408 3179857408 -2.66700000
8.82374573 20.86840630 -0.92307830 2 27 2712 22.67600000 3179857413 3179857413 -2.33300000
9.71329212 15.95673180 -0.65234137 2 28 2713 18.69200000 3179857415 3179857415 -2.00000000
8.10563278 16.81971931 -0.43446240 22 31 2713 18.67600000 3179857418 3179857418 -1.33300000
2.81733656 5.16950703 -2.74532819 14 0 2719 6.49600000 3179857438 3179857438 -25.00000000
8.66639805 15.89529800 -0.52688777 24 2 2720 18.11200000 3179857441 3179857441 -1.66700000
3.53903699 7.32084942 -2.27629447 14 3 2720 8.44400000 3179857441 3179857441 -15.63900000
5.88998652 10.79851532 -2.46009541 4 4 2721 12.54400000 3179857443 3179857443 -11.31000000
8.44304848 17.45750809 0.00000000 1 5 2721 19.39200000 3179857443 3179857443 0.00000000
21.12216949 34.59009171 -0.47183639 19 6 2721 40.53200000 3179857445 3179857445 -0.66700000
6.43770552 13.31110477 -2.30037761 3 7 2721 14.96400000 3179857445 3179857445 -8.84300000
8.19753742 15.02286720 -2.17837930 2 8 2722 17.25200000 3179857448 3179857448 -7.25400000
7.67857552 18.07204819 0.11412274 1 9 2722 19.63600000 3179857448 3179857448 0.33300000
9.20530319 16.86270714 -0.11165848 5 10 2723 19.21200000 3179857450 3179857450 -0.33300000
8.18221569 16.90313530 -2.02284908 1 11 2723 18.88800000 3179857450 3179857450 -6.14800000
10.22491455 16.72483253 -1.82988286 2 12 2724 19.68800000 3179857452 3179857452 -5.33300000
40.11183929 65.58497620 0.89501303 28 14 2725 76.88400000 3179857454 3179857454 0.66700000
8.03100014 16.57599068 -1.28798354 1 15 2725 18.46400000 3179857454 3179857454 -4.00000000
8.62540817 15.78077412 -1.46814060 4 16 2726 18.04400000 3179857457 3179857457 -4.66700000
7.90575552 18.57069969 0.58739609 8 17 2726 20.19200000 3179857457 3179857457 1.66700000
10.35418415 18.94368935 0.37683237 2 18 2726 21.59200000 3179857459 3179857459 1.00000000
8.13682652 19.11348915 -1.33134019 6 19 2726 20.81600000 3179857459 3179857459 -3.66700000
9.71042061 15.86460590 -1.08324623 8 20 2727 18.63200000 3179857461 3179857461 -3.33300000
8.73276138 18.00840378 1.16557109 22 21 2727 20.04800000 3179857461 3179857461 3.33300000
9.67670345 17.68951607 0.82147294 14 22 2728 20.18000000 3179857464 3179857464 2.33300000
7.95116901 16.38934326 -0.84854156 22 23 2728 18.23600000 3179857464 3179857464 -2.66700000
8.65051842 15.80704498 -0.94435000 2 24 2729 18.04400000 3179857466 3179857466 -3.00000000
9.74874783 15.90228081 -0.65136421 6 28 2731 18.66400000 3179857471 3179857471 -2.00000000
8.11999226 16.71503830 -0.43241525 20 31 2731 18.58800000 3179857473 3179857473 -1.33300000
2.77252531 5.04112053 -2.68278074 14 0 2741 6.34800000 3179857494 3179857494 -25.00000000
7.94389296 18.52556038 -0.35184053 12 1 2741 20.16000000 3179857494 3179857494 -1.00000000
8.73314953 15.87241268 -0.52723682 30 2 2742 18.12400000 3179857496 3179857496 -1.66700000
3.57894921 7.33143711 -2.28384256 22 3 2742 8.47200000 3179857496 3179857496 -15.63900000
5.92762375 10.76894665 -2.45852637 4 4 2743 12.53600000 3179857498 3179857498 -11.31000000
8.53283787 17.47168541 0.00000000 1 5 2743 19.44400000 3179857498 3179857498 0.00000000
21.13946152 34.32142639 -0.46927536 19 6 2743 40.31200000 3179857501 3179857501 -0.66700000
6.48009682 13.26852989 -2.29730296 3 7 2743 14.94400000 3179857501 3179857501 -8.84300000
8.25324631 14.98780441 -2.17787433 2 8 2744 17.24800000 3179857503 3179857503 -7.25400000
7.67846489 17.88071632 0.11309984 4 9 2744 19.46000000 3179857503 3179857503 0.33300000
9.27963352 16.84475327 -0.11177473 3 10 2745 19.23200000 3179857505 3179857505 -0.33300000
8.30993366 17.00021935 -2.03827095 1 11 2745 19.03200000 3179857505 3179857505 -6.14800000
10.30996132 16.71934700 -1.83360052 2 12 2746 19.72800000 3179857507 3179857507 -5.33300000
40.13237381 65.05602264 0.88989097 28 14 2747 76.44400000 3179857510 3179857510 0.66700000
8.07705212 16.50918770 -1.28519332 1 15 2747 18.42400000 3179857510 3179857510 -4.00000000
8.69749069 15.76848412 -1.47009325 2 16 2748 18.06800000 3179857512 3179857512 -4.66700000
9.75028706 15.79322529 -1.08092070 24 20 2749 18.59200000 3179857517 3179857517 -3.33300000
8.81238174 17.99625778 1.16696644 20 21 2749 20.07200000 3179857517 3179857517 3.33300000
9.78125381 17.71870995 0.82456666 14 22 2750 20.25600000 3179857519 3179857519 2.33300000
7.98064184 16.29051590 -0.84500521 12 23 2750 18.16000000 3179857519 3179857519 -2.66700000
8.83667088 16.00099945 -0.95795733 3 24 2751 18.30400000 3179857521 3179857521 -3.00000000
7.98037386 18.51243019 -0.82131010 10 27 2752 20.17600000 3179857524 3179857524 -2.33300000
9.98633671 16.15033722 -0.66309041 4 28 2753 19.00000000 3179857526 3179857526 -2.00000000
2.80767560 5.06726646 -2.70137596 13 0 2759 6.39200000 3179857549 3179857549 -25.00000000
7.93536949 18.34634209 -0.34890851 15 1 2759 19.99200000 3179857549 3179857549 -1.00000000
8.79266262 15.86238384 -0.52781862 35 2 2760 18.14400000 3179857551 3179857551 -1.66700000
3.60026336 7.31670094 -2.28276420 23 3 2760 8.46800000 3179857551 3179857551 -15.63900000
5.95571947 10.73998165 -2.45617294 4 4 2761 12.52400000 3179857553 3179857553 -11.31000000
8.58238506 17.43402672 0.00000000 1 5 2761 19.43200000 3179857553 3179857553 0.00000000
21.13717270 34.06421280 -0.46671429 9 6 2762 40.09200000 3179857556 3179857556 -0.66700000
6.52056837 13.23987675 -2.29607320 3 7 2762 14.93600000 3179857556 3179857556 -8.84300000
8.29451656 14.95139313 -2.17635918 2 8 2762 17.23600000 3179857558 3179857558 -7.25400000
7.69167519 17.75740433 0.11247215 1 9 2762 19.35200000 3179857558 3179857558 0.33300000
9.34997654 16.84699440 -0.11198395 3 10 2763 19.26800000 3179857560 3179857560 -0.33300000
8.38439274 17.01683998 -2.04341173 1 11 2763 19.08000000 3179857560 3179857560 -6.14800000
10.35823441 16.68010902 -1.83285701 2 12 2764 19.72000000 3179857563 3179857563 -5.33300000
40.23946762 64.77333069 0.88774902 28 14 2765 76.26000000 3179857565 3179857565 0.66700000
8.07063675 16.36563301 -1.27598536 1 15 2765 18.29200000 3179857565 3179857565 -4.00000000
8.80895233 15.85259819 -1.48050797 2 16 2766 18.19600000 3179857567 3179857567 -4.66700000
7.95243788 18.32432938 0.58134526 1 17 2766 19.98400000 3179857567 3179857567 1.66700000
8.02374268 18.48863220 -1.29168642 2 19 2766 20.19600000 3179857570 3179857570 -3.66700000
9.84413147 15.83373260 -1.08580434 23 20 2767 18.67600000 3179857572 3179857572 -3.33300000
8.87947941 17.98996925 1.16836178 20 21 2767 20.09600000 3179857572 3179857572 3.33300000
9.86406517 17.73679543 0.82684630 16 22 2768 20.31200000 3179857574 3179857574 2.33300000
8.93738937 16.06391525 -0.96340030 3 24 2769 18.40800000 3179857577 3179857577 -3.00000000
7.96359015 18.31500244 -0.81365710 10 27 2770 19.98800000 3179857579 3179857579 -2.33300000
10.08562565 16.19693375 -0.66630119 6 28 2771 19.09200000 3179857581 3179857581 -2.00000000
8.00712299 16.18695450 -0.42022535 1 31 2772 18.06400000 3179857583 3179857583 -1.33300000
2.76169682 4.94350052 -2.64051890 15 0 2779 6.24800000 3179857604 3179857604 -25.00000000
7.93374062 18.16825867 -0.34604633 14 1 2779 19.82800000 3179857604 3179857604 -1.00000000
8.85773277 15.84904575 -0.52840048 33 2 2780 18.16400000 3179857606 3179857606 -1.66700000
3.63777041 7.32824087 -2.29031229 28 3 2780 8.49600000 3179857606 3179857606 -15.63900000
5.98743010 10.70885563 -2.45381951 3 4 2781 12.51200000 3179857609 3179857609 -11.31000000
8.65742207 17.43262291 0.00000000 1 5 2781 19.46400000 3179857609 3179857609 0.00000000
10.30456543 16.47794914 -0.22625609 2 6 2782 19.43600000 3179857611 3179857611 -0.66700000
6.55971003 13.20287609 -2.29361367 3 7 2782 14.92000000 3179857611 3179857611 -8.84300000
8.34278202 14.91542244 -2.17534900 2 8 2782 17.22800000 3179857613 3179857613 -7.25400000
9.43216515 16.85614204 -0.11226293 3 10 2783 19.31600000 3179857616 3179857616 -0.33300000
8.43843174 16.97678375 -2.04212642 3 11 2783 19.06800000 3179857616 3179857616 -6.14800000
10.89812756 17.41358566 -1.91762197 2 12 2784 20.63200000 3179857618 3179857618 -5.33300000
40.17242050 64.16464233 0.88132310 28 14 2785 75.70800000 3179857620 3179857620 0.66700000
8.11171913 16.30520821 -1.27347422 1 15 2785 18.25600000 3179857620 3179857620 -4.00000000
8.86618328 15.82523060 -1.48083341 2 16 2786 18.20000000 3179857623 3179857623 -4.66700000
7.92168474 18.08038712 0.57447988 3 17 2786 19.74800000 3179857623 3179857623 1.66700000
8.06900787 18.41663551 -1.28861654 2 19 2786 20.14800000 3179857625 3179857625 -3.66700000
9.92478466 15.83987999 -1.08859503 8 20 2787 18.72400000 3179857627 3179857627 -3.33300000
8.95468140 17.98388672 1.16998971 22 21 2787 20.12400000 3179857627 3179857627 3.33300000
8.07069206 16.20146370 -0.84314394 2 23 2788 18.12000000 3179857630 3179857630 -2.66700000
9.00904179 16.06049156 -0.96507502 6 24 2789 18.44000000 3179857632 3179857632 -3.00000000
7.94554329 18.10045242 -0.80535287 11 27 2790 19.78400000 3179857634 3179857634 -2.33300000
10.18247509 16.22596359 -0.66895354 4 28 2791 19.16800000 3179857636 3179857636 -2.00000000
2.79138947 4.95594072 -2.65235209 14 0 2799 6.27600000 3179857659 3179857659 -25.00000000
7.93580627 18.00139046 -0.34339353 16 1 2799 19.67600000 3179857659 3179857659 -1.00000000
8.92674160 15.84241390 -0.52921498 13 2 2800 18.19200000 3179857662 3179857662 -1.66700000
3.67022729 7.32927465 -2.29462552 23 3 2800 8.51200000 3179857662 3179857662 -15.63900000
6.01707029 10.67422295 -2.45068169 4 4 2801 12.49600000 3179857664 3179857664 -11.31000000
8.65551186 17.27712631 0.00000000 1 5 2801 19.32400000 3179857664 3179857664 0.00000000
10.24829006 16.26771164 -0.22383475 2 6 2801 19.22800000 3179857666 3179857666 -0.66700000
6.59637499 13.16691589 -2.29115391 3 7 2801 14.90400000 3179857666 3179857666 -8.84300000
8.39089775 14.87929726 -2.17433882 2 8 2802 17.22000000 3179857669 3179857669 -7.25400000
9.50863552 16.85446930 -0.11247215 5 10 2803 19.35200000 3179857671 3179857671 -0.33300000
8.48516178 16.92234039 -2.03912783 1 11 2803 19.04000000 3179857671 3179857671 -6.14800000
10.95884609 17.37543869 -1.91762197 2 12 2804 20.63200000 3179857673 3179857673 -5.33300000
40.13362885 63.60795212 0.87559569 28 14 2805 75.21600000 3179857676 3179857676 0.66700000
8.15963650 16.25896263 -1.27207911 2 15 2805 18.23600000 3179857676 3179857676 -4.00000000
8.92725182 15.80459881 -1.48180974 2 16 2806 18.21200000 3179857678 3179857678 -4.66700000
8.03636265 18.16931915 -1.27326667 4 19 2806 19.90800000 3179857680 3179857680 -3.66700000
10.11859703 16.02460861 -1.10371113 2 20 2807 18.98400000 3179857683 3179857683 -3.33300000
9.03174114 17.98106575 1.17185009 22 21 2807 20.15600000 3179857683 3179857683 3.33300000
40.40690994 71.47717285 3.34516144 28 22 2808 82.17600000 3179857685 3179857685 2.33300000
9.06898117 16.03590012 -0.96549374 6 24 2809 18.44800000 3179857687 3179857687 -3.00000000
7.93743134 17.91183281 -0.79818833 11 27 2810 19.60800000 3179857689 3179857689 -2.33300000
17.45895195 27.60666084 -1.14065516 5 28 2811 32.68400000 3179857692 3179857692 -2.00000000
8.23500729 16.35926056 -0.42618072 25 31 2812 18.32000000 3179857694 3179857694 -1.33300000
2.83281374 4.98665380 -2.67432833 14 0 2820 6.32800000 3179857715 3179857715 -25.00000000
7.93829012 17.82969093 -0.34067097 17 1 2820 19.52000000 3179857715 3179857715 -1.00000000
3.67621779 7.27451897 -2.28168583 27 3 2821 8.46400000 3179857717 3179857717 -15.63900000
6.05615282 10.65209770 -2.45068169 4 4 2822 12.49600000 3179857719 3179857719 -11.31000000
8.78013992 17.36665535 0.00000000 1 5 2822 19.46000000 3179857719 3179857719 0.00000000
10.41291809 16.39548111 -0.22611640 2 6 2822 19.42400000 3179857722 3179857722 -0.66700000
6.64280653 13.13912296 -2.29053903 3 7 2822 14.90000000 3179857722 3179857722 -8.84300000
8.44733810 14.85189247 -2.17484379 2 8 2823 17.22400000 3179857724 3179857724 -7.25400000
7.92263985 17.76949501 0.11307659 4 9 2823 19.45600000 3179857724 3179857724 0.33300000
9.58617115 16.84731674 -0.11265814 5 10 2824 19.38400000 3179857726 3179857726 -0.33300000
8.53635502 16.86983490 -2.03655744 1 11 2824 19.01600000 3179857726 3179857726 -6.14800000
11.01177120 17.31835175 -1.91576314 2 12 2825 20.61200000 3179857729 3179857729 -5.33300000
40.35361481 63.44018173 0.87531632 28 14 2826 75.19200000 3179857731 3179857731 0.66700000
8.99301243 15.78562927 -1.48311162 2 16 2827 18.22800000 3179857733 3179857733 -4.66700000
7.93181896 17.75674057 0.56598544 22 17 2827 19.45600000 3179857733 3179857733 1.66700000
10.17572784 17.86167526 0.35882148 2 18 2827 20.56000000 3179857736 3179857736 1.00000000
8.03777981 17.99395370 -1.26303351 4 19 2827 19.74800000 3179857736 3179857736 -3.66700000
10.32951355 16.22658539 -1.12022269 2 20 2828 19.26800000 3179857738 3179857738 -3.33300000
9.11202812 17.97633743 1.17371058 22 21 2828 20.18800000 3179857738 3179857738 3.33300000
40.83885956 71.62718964 3.35916471 28 22 2829 82.52000000 3179857740 3179857740 2.33300000
8.16473389 16.10053253 -0.84091049 36 23 2829 18.07200000 3179857740 3179857740 -2.66700000
9.07425880 15.90886974 -0.95984143 6 24 2830 18.34000000 3179857742 3179857742 -3.00000000
49.95192337 87.53953552 8.22790146 28 26 2831 101.12400000 3179857745 3179857745 4.66700000
7.93119383 17.72210693 -0.79102385 13 27 2831 19.43200000 3179857745 3179857745 -2.33300000
17.60085106 27.60653114 -1.14330757 5 28 2832 32.76000000 3179857747 3179857747 -2.00000000
8.26593399 16.27192307 -0.42469189 29 31 2833 18.25600000 3179857749 3179857749 -1.33300000
2.84479833 4.96729755 -2.66925693 16 0 2840 6.31600000 3179857770 3179857770 -25.00000000
7.94637728 17.68149185 -0.33836725 21 1 2840 19.38800000 3179857770 3179857770 -1.00000000
9.07963085 15.84751511 -0.53154224 1 2 2841 18.27200000 3179857772 3179857772 -1.66700000
3.72258019 7.30282354 -2.29462552 15 3 2841 8.51200000 3179857772 3179857772 -15.63900000
6.08744717 10.62068367 -2.44832826 3 4 2842 12.48400000 3179857775 3179857775 -11.31000000
8.91339493 17.47843742 0.00000000 1 5 2842 19.62000000 3179857775 3179857775 0.00000000
21.23771477 33.18296432 -0.45865867 18 6 2842 39.40000000 3179857777 3179857777 -0.66700000
6.68503857 13.10881329 -2.28930926 2 7 2842 14.89200000 3179857777 3179857777 -8.84300000
8.48926067 14.80510426 -2.17231846 2 8 2843 17.20400000 3179857779 3179857779 -7.25400000
7.92223883 17.60312462 0.11219318 44 9 2843 19.30400000 3179857779 3179857779 0.33300000
9.65885353 16.83803940 -0.11282087 3 10 2844 19.41200000 3179857782 3179857782 -0.33300000
8.59338093 16.83639336 -2.03612900 3 11 2844 19.01200000 3179857782 3179857782 -6.14800000
11.07645416 17.28651428 -1.91650665 2 12 2845 20.62000000 3179857784 3179857784 -5.33300000
40.58345032 63.31240082 0.87550259 28 14 2846 75.20800000 3179857786 3179857786 0.66700000
8.16504192 15.98339748 -1.25505853 2 15 2846 17.99200000 3179857786 3179857786 -4.00000000
7.99539661 17.73258972 0.56610179 16 17 2847 19.46000000 3179857789 3179857789 1.66700000
14.31025410 22.30763626 -1.54347467 4 20 2848 26.54800000 3179857793 3179857793 -3.33300000
9.18744659 17.96930885 1.17533851 22 21 2848 20.21600000 3179857793 3179857793 3.33300000
40.93527603 71.21738434 3.34662700 28 22 2849 82.21200000 3179857795 3179857795 2.33300000
8.21178722 16.05414772 -0.83997983 28 23 2849 18.05200000 3179857795 3179857795 -2.66700000
9.16358662 15.93596554 -0.96340030 6 24 2850 18.40800000 3179857798 3179857798 -3.00000000
49.19165039 85.51235962 8.05345535 28 26 2851 98.98000000 3179857800 3179857800 4.66700000
7.92554855 17.54497910 -0.78434789 13 27 2851 19.26800000 3179857800 3179857800 -2.33300000
17.65605164 27.48102188 -1.14065516 5 28 2852 32.68400000 3179857802 3179857802 -2.00000000
8.30627155 16.21094131 -0.42385441 22 31 2853 18.22000000 3179857805 3179857805 -1.33300000
2.89837241 5.02012825 -2.70306635 14 0 2860 6.39600000 3179857825 3179857825 -25.00000000
7.95683146 17.54073715 -0.33620316 24 1 2860 19.26400000 3179857825 3179857825 -1.00000000
9.21288490 15.95075417 -0.53608036 1 2 2861 18.42800000 3179857828 3179857828 -1.66700000
3.76390076 7.32061577 -2.30433011 14 3 2861 8.54800000 3179857828 3179857828 -15.63900000
6.11859655 10.58918190 -2.44597483 4 4 2862 12.47200000 3179857830 3179857830 -11.31000000
8.99447823 17.48634529 0.00000000 1 5 2862 19.66400000 3179857830 3179857830 0.00000000
21.24068642 32.93384171 -0.45623735 18 6 2862 39.19200000 3179857832 3179857832 -0.66700000
6.72352457 13.07133961 -2.28684950 2 7 2862 14.87600000 3179857832 3179857832 -8.84300000
8.53493118 14.76507473 -2.17080331 2 8 2863 17.19200000 3179857835 3179857835 -7.25400000
7.96543932 17.53530312 0.11193746 26 9 2863 19.26000000 3179857835 3179857835 0.33300000
9.72958469 16.82499695 -0.11296035 3 10 2864 19.43600000 3179857837 3179857837 -0.33300000
8.65209866 16.80629349 -2.03612900 1 11 2864 19.01200000 3179857837 3179857837 -6.14800000
11.11512375 17.21428680 -1.91278887 2 12 2865 20.58000000 3179857839 3179857839 -5.33300000
40.46565247 62.64622879 0.86823857 28 14 2866 74.58400000 3179857841 3179857841 0.66700000
8.22443962 15.96189213 -1.25561655 2 15 2866 18.00000000 3179857841 3179857841 -4.00000000
9.10699272 15.72936249 -1.48376250 70 16 2867 18.23600000 3179857844 3179857844 -4.66700000
8.02927303 17.64310646 -1.24231124 4 19 2867 19.42400000 3179857846 3179857846 -3.66700000
14.39237118 22.26425552 -1.54393983 4 20 2868 26.55600000 3179857848 3179857848 -3.33300000
9.26475716 17.96552277 1.17719889 22 21 2868 20.24800000 3179857848 3179857848 3.33300000
40.86702347 70.52768707 3.32089996 28 22 2869 81.58000000 3179857851 3179857851 2.33300000
8.26594448 16.02183533 -0.83979374 32 23 2869 18.04800000 3179857851 3179857851 -2.66700000
9.22917461 15.92116070 -0.96444702 6 24 2870 18.42800000 3179857853 3179857853 -3.00000000
49.43784332 85.25045776 8.04499340 28 26 2871 98.87600000 3179857855 3179857855 4.66700000
7.91876459 17.36810875 -0.77767187 18 27 2871 19.10400000 3179857855 3179857855 -2.33300000
17.69321251 27.32862091 -1.13688600 5 28 2872 32.57600000 3179857858 3179857858 -2.00000000
8.35546303 16.16763687 -0.42348221 19 31 2873 18.20400000 3179857860 3179857860 -1.33300000
2.89764261 4.97864819 -2.68616176 12 0 2880 6.35600000 3179857881 3179857881 -25.00000000
7.99303865 17.45831108 -0.33515602 34 1 2880 19.20400000 3179857881 3179857881 -1.00000000
9.27655411 15.93231964 -0.53654581 1 2 2881 18.44400000 3179857883 3179857883 -1.66700000
3.80007100 7.32794952 -2.31080008 15 3 2881 8.57200000 3179857883 3179857883 -15.63900000
6.14565134 10.55081272 -2.44205260 4 4 2882 12.45200000 3179857885 3179857885 -11.31000000
8.98730659 17.32346916 0.00000000 1 5 2882 19.51600000 3179857885 3179857885 0.00000000
21.08525085 32.44363785 -0.45046335 18 6 2882 38.69600000 3179857888 3179857888 -0.66700000
6.76547098 13.04077339 -2.28561974 3 7 2882 14.86800000 3179857888 3179857888 -8.84300000
8.58841610 14.73862076 -2.17130828 2 8 2883 17.19600000 3179857890 3179857890 -7.25400000
9.82250118 16.84967804 -0.11335556 3 10 2884 19.50400000 3179857892 3179857892 -0.33300000
8.69971561 16.75481224 -2.03355885 1 11 2884 18.98800000 3179857892 3179857892 -6.14800000
11.16645718 17.16202927 -1.91130185 2 12 2885 20.56400000 3179857894 3179857894 -5.33300000
40.48334503 62.19619751 0.86395460 28 14 2886 74.21600000 3179857897 3179857897 0.66700000
8.27642727 15.92600536 -1.25505853 2 15 2886 17.99200000 3179857897 3179857897 -4.00000000
9.16787148 15.70780659 -1.48473895 112 16 2887 18.24800000 3179857899 3179857899 -4.66700000
40.80373383 69.91123199 1.41294682 28 18 2887 80.96000000 3179857901 3179857901 1.00000000
7.91753101 17.23771477 -1.21570492 1 19 2887 19.00800000 3179857901 3179857901 -3.66700000
14.33050919 21.99973869 -1.52905631 4 20 2888 26.30000000 3179857904 3179857904 -3.33300000
9.34031010 17.95787048 1.17882681 22 21 2888 20.27600000 3179857904 3179857904 3.33300000
40.74205017 69.74960327 3.29093933 28 22 2889 80.84400000 3179857906 3179857906 2.33300000
8.31997681 15.98933983 -0.83960760 38 23 2889 18.04400000 3179857906 3179857906 -2.66700000
9.30283165 15.91988754 -0.96633112 6 24 2890 18.46400000 3179857908 3179857908 -3.00000000
49.83371353 85.24601746 8.06094074 28 26 2891 99.07200000 3179857911 3179857911 4.66700000
7.91251373 17.19513321 -0.77115870 15 27 2891 18.94400000 3179857911 3179857911 -2.33300000
17.79068375 27.27004051 -1.13702559 5 28 2892 32.58000000 3179857913 3179857913 -2.00000000
8.39979267 16.12210846 -0.42301694 20 31 2892 18.18400000 3179857915 3179857915 -1.33300000
2.85813451 4.87157202 -2.63375711 14 0 2900 6.23200000 3179857936 3179857936 -25.00000000
8.02205753 17.36132240 -0.33382964 11 1 2900 19.12800000 3179857936 3179857936 -1.00000000
9.40699577 16.02742577 -0.54085124 1 2 2901 18.59200000 3179857938 3179857938 -1.66700000
3.83455324 7.33170652 -2.31619143 21 3 2901 8.59200000 3179857938 3179857938 -15.63900000
6.18244314 10.52929592 -2.44205260 4 4 2902 12.45200000 3179857941 3179857941 -11.31000000
9.09779167 17.38768387 0.00000000 1 5 2902 19.62400000 3179857941 3179857941 0.00000000
21.08346748 32.18212891 -0.44790232 17 6 2903 38.47600000 3179857943 3179857943 -0.66700000
6.80405760 12.99838066 -2.28254509 3 7 2903 14.84800000 3179857943 3179857943 -8.84300000
8.63579178 14.70170879 -2.17029834 2 8 2903 17.18800000 3179857945 3179857945 -7.25400000
9.93799973 16.91184807 -0.11400650 3 10 2904 19.61600000 3179857947 3179857947 -0.33300000
8.75261211 16.71377373 -2.03227353 1 11 2904 18.97600000 3179857947 3179857947 -6.14800000
11.21974468 17.11295509 -1.91018653 2 12 2905 20.55200000 3179857950 3179857950 -5.33300000
40.59052277 61.88727951 0.86162639 28 14 2906 74.01600000 3179857952 3179857952 0.66700000
8.33937836 15.91115475 -1.25617456 2 15 2906 18.00800000 3179857952 3179857952 -4.00000000
9.23073292 15.68945408 -1.48604071 135 16 2907 18.26400000 3179857954 3179857954 -4.66700000
8.23614025 17.76760101 0.56994176 1 17 2907 19.59200000 3179857954 3179857954 1.66700000
10.52256203 17.87803268 0.36210254 2 18 2908 20.74800000 3179857957 3179857957 1.00000000
7.94706821 17.13615417 -1.21058834 3 19 2908 18.92800000 3179857957 3179857957 -3.66700000
14.40721512 21.94958115 -1.52905631 4 20 2908 26.30000000 3179857959 3179857959 -3.33300000
9.42148781 17.96051979 1.18115234 17 21 2908 20.31600000 3179857959 3179857959 3.33300000
40.80479431 69.30044556 3.27644753 28 22 2909 80.48800000 3179857961 3179857961 2.33300000
8.37016869 15.94958591 -0.83904922 41 23 2909 18.03200000 3179857961 3179857961 -2.66700000
9.36645508 15.90108490 -0.96716845 6 24 2910 18.48000000 3179857964 3179857964 -3.00000000
50.38195038 85.49745178 8.10129833 28 26 2911 99.56800000 3179857966 3179857966 4.66700000
7.90515232 17.02241325 -0.76464558 18 27 2911 18.78400000 3179857966 3179857966 -2.33300000
17.84843445 27.15098763 -1.13465250 5 28 2912 32.51200000 3179857968 3179857968 -2.00000000
8.45415783 16.08914948 -0.42292389 18 31 2912 18.18000000 3179857971 3179857971 -1.33300000
2.87696743 4.86468601 -2.63544750 17 0 2920 6.23600000 3179857991 3179857991 -25.00000000
9.46492004 15.99793243 -0.54096758 1 2 2921 18.59600000 3179857994 3179857994 -1.66700000
3.86371636 7.32509089 -2.31834817 31 3 2921 8.60000000 3179857994 3179857994 -15.63900000
6.21516371 10.50090027 -2.44048357 4 4 2922 12.44400000 3179857996 3179857996 -11.31000000
9.17896461 17.39473534 0.00000000 1 5 2922 19.66800000 3179857996 3179857996 0.00000000
21.08550072 31.94143486 -0.44557410 17 6 2923 38.27600000 3179857998 3179857998 -0.66700000
6.84569836 12.96755981 -2.28131533 3 7 2923 14.84000000 3179857998 3179857998 -8.84300000
8.68301487 14.66464615 -2.16928816 1 8 2923 17.18000000 3179858000 3179858000 -7.25400000
8.17401409 17.50529289 0.11228617 1 9 2923 19.32000000 3179858000 3179858000 0.33300000
21.14163971 35.69166946 -0.24110143 15 10 2924 41.48400000 3179858003 3179858003 -0.33300000
8.80904388 16.67960167 -2.03184509 1 11 2924 18.97200000 3179858003 3179858003 -6.14800000
11.27282619 17.06371689 -1.90907121 2 12 2925 20.54000000 3179858005 3179858005 -5.33300000
40.59459686 61.42487717 0.85715622 28 14 2926 73.63200000 3179858007 3179858007 0.66700000
8.39486790 15.88194847 -1.25617456 2 15 2926 18.00800000 3179858007 3179858007 -4.00000000
9.30577850 15.69142723 -1.48929536 103 16 2927 18.30400000 3179858010 3179858010 -4.66700000
8.34046555 17.82928276 0.57285082 1 17 2927 19.69200000 3179858010 3179858010 1.66700000
10.57567024 17.83272171 0.36189309 2 18 2927 20.73600000 3179858012 3179858012 1.00000000
7.94126749 16.97592354 -1.20112264 3 19 2927 18.78000000 3179858012 3179858012 -3.66700000
14.48374557 21.89915848 -1.52905631 4 20 2928 26.30000000 3179858014 3179858014 -3.33300000
9.52707291 18.00870705 1.18650115 16 21 2928 20.40800000 3179858014 3179858014 3.33300000
40.75066376 68.65923309 3.25283742 28 22 2929 79.90800000 3179858017 3179858017 2.33300000
8.41457844 15.89908218 -0.83793247 43 23 2929 18.00800000 3179858017 3179858017 -2.66700000
9.51367474 16.02285385 -0.97658896 3 24 2930 18.66000000 3179858019 3179858019 -3.00000000
50.35432434 84.77264404 8.04922485 28 26 2931 98.92800000 3179858021 3179858021 4.66700000
7.91025066 16.87890816 -0.75943500 22 27 2931 18.65600000 3179858021 3179858021 -2.33300000
17.90336418 27.02853012 -1.13213968 5 28 2932 32.44000000 3179858024 3179858024 -2.00000000
8.50465107 16.04894066 -0.42264473 18 31 2932 18.16800000 3179858026 3179858026 -1.33300000
2.90792918 4.88003302 -2.64897132 17 0 2939 6.26800000 3179858047 3179858047 -25.00000000
8.07876492 17.17603111 -0.33131647 1 1 2939 18.98400000 3179858047 3179858047 -1.00000000
9.53020287 15.98706436 -0.54166573 1 2 2940 18.62000000 3179858049 3179858049 -1.66700000
3.88256097 7.30203485 -2.31511331 21 3 2940 8.58800000 3179858049 3179858049 -15.63900000
6.24794292 10.47686386 -2.43969917 4 4 2941 12.44000000 3179858052 3179858052 -11.31000000
9.22720528 17.34654427 0.00000000 1 5 2941 19.64800000 3179858052 3179858052 0.00000000
21.06175995 31.68849564 -0.44296649 17 6 2941 38.05200000 3179858054 3179858054 -0.66700000
6.87341022 12.92156315 -2.27701092 2 7 2941 14.81200000 3179858054 3179858054 -8.84300000
8.73159695 14.63577175 -2.16928816 1 8 2942 17.18000000 3179858056 3179858056 -7.25400000
21.14303589 35.42558670 -0.23977631 15 10 2943 41.25600000 3179858059 3179858059 -0.33300000
8.82132149 16.56955719 -2.02199221 1 11 2943 18.88000000 3179858059 3179858059 -6.14800000
11.32493687 17.01960945 -1.90832758 2 12 2944 20.53200000 3179858061 3179858061 -5.33300000
40.68503571 61.12011719 0.85478145 28 14 2945 73.42800000 3179858063 3179858063 0.66700000
8.45311737 15.86458683 -1.25701165 4 15 2945 18.02000000 3179858063 3179858063 -4.00000000
8.32276535 17.63880730 0.56761450 1 17 2946 19.51200000 3179858065 3179858065 1.66700000
40.40957642 67.62657928 1.37511003 28 18 2946 78.79200000 3179858068 3179858068 1.00000000
7.95833921 16.86646271 -1.19523847 1 19 2946 18.68800000 3179858068 3179858068 -3.66700000
14.63377190 21.96732521 -1.53719568 4 20 2947 26.44000000 3179858070 3179858070 -3.33300000
9.62807751 18.05453300 1.19161737 13 21 2947 20.49600000 3179858070 3179858070 3.33300000
40.83658600 68.28704834 3.24160218 28 22 2948 79.63200000 3179858072 3179858072 2.33300000
8.45220852 15.84288788 -0.83644348 37 23 2948 17.97600000 3179858072 3179858072 -2.66700000
9.57085800 15.99807358 -0.97700763 6 24 2949 18.66800000 3179858075 3179858075 -3.00000000
50.45090485 84.29731750 8.01993370 28 26 2950 98.56800000 3179858077 3179858077 4.66700000
7.91323137 16.74057007 -0.75438732 25 27 2950 18.53200000 3179858077 3179858077 -2.33300000
17.97292900 26.93908310 -1.13088334 5 28 2951 32.40400000 3179858079 3179858079 -2.00000000
8.55593967 16.01712227 -0.42255169 16 31 2951 18.16400000 3179858082 3179858082 -1.33300000
2.93801212 4.89160681 -2.66080451 13 0 2959 6.29600000 3179858102 3179858102 -25.00000000
8.17982769 17.23443985 -0.33299193 1 1 2959 19.08000000 3179858102 3179858102 -1.00000000
9.57359505 15.93313694 -0.54096758 1 2 2960 18.59600000 3179858105 3179858105 -1.66700000
3.89710474 7.26806974 -2.30864334 21 3 2960 8.56400000 3179858105 3179858105 -15.63900000
6.27841377 10.44490528 -2.43734574 3 4 2961 12.42800000 3179858107 3179858107 -11.31000000
9.28769970 17.31422997 0.00000000 1 5 2961 19.64800000 3179858107 3179858107 0.00000000
21.06541443 31.45526314 -0.44073141 17 6 2961 37.86000000 3179858109 3179858109 -0.66700000
6.91473627 12.89052582 -2.27578115 2 7 2961 14.80400000 3179858109 3179858109 -8.84300000
8.77854252 14.59840202 -2.16827798 1 8 2962 17.17200000 3179858112 3179858112 -7.25400000
21.13666534 35.13563156 -0.23831171 15 10 2963 41.00400000 3179858114 3179858114 -0.33300000
8.87722492 16.53516006 -2.02156401 1 11 2963 18.87600000 3179858114 3179858114 -6.14800000
11.38205910 16.97666740 -1.90795588 2 12 2964 20.52800000 3179858116 3179858116 -5.33300000
40.77782822 60.79835129 0.85226697 28 14 2965 73.21200000 3179858118 3179858118 0.66700000
8.51222134 15.84201336 -1.25756967 4 15 2965 18.02800000 3179858118 3179858118 -4.00000000
8.39459801 17.63130760 0.56831264 1 17 2966 19.53600000 3179858121 3179858121 1.66700000
