# .PCD v0.7 - Point Cloud Data file format
VERSION 0.7
FIELDS x y z intensity laser_id azimuth distance_m adjustedtime timestamp vertical_angle
SIZE 4 4 4 1 1 2 8 8 4 8
TYPE F F F U U U F U U F
COUNT 1 1 1 1 1 1 1 1 1 1
WIDTH 522
HEIGHT 1
VIEWPOINT 0 0 0 1 0 0 0
POINTS 522
DATA ascii
9.07747746 7.49354458 -2.35419202 1 4 4906 12.00400000 3186563465 3186563465 -11.31000000
40.26949310 36.69384384 0.00000000 43 5 4906 54.48000000 3186563465 3186563465 0.00000000
35.22349930 26.28348732 -0.51164889 11 6 4907 43.95200000 3186563468 3186563468 -0.66700000
10.22687435 9.31553268 -2.15218425 2 7 4907 14.00000000 3186563468 3186563468 -8.84300000
12.37655067 10.21332932 -2.04251480 2 8 4907 16.17600000 3186563470 3186563470 -7.25400000
40.47529602 40.65938568 0.33344111 69 9 4907 57.37200000 3186563470 3186563470 0.33300000
39.62473297 32.68734741 -0.29854637 35 10 4908 51.36800000 3186563472 3186563472 -0.33300000
13.08555508 11.91529083 -1.90632749 1 11 4908 17.80000000 3186563472 3186563472 -6.14800000
15.57769394 11.61548519 -1.81389642 2 12 4909 19.51600000 3186563475 3186563475 -5.33300000
40.21865463 36.60899353 1.26551485 25 13 4909 54.40000000 3186563475 3186563475 1.33300000
40.75630569 30.37881279 0.59178609 18 14 4910 50.83600000 3186563477 3186563477 0.66700000
16.86382866 15.34490299 -1.59435391 2 15 4910 22.85600000 3186563477 3186563477 -4.00000000
16.14040756 13.30039406 -1.70735216 2 16 4911 20.98400000 3186563479 3186563479 -4.66700000
39.88031387 40.00579834 1.64396429 44 17 4911 56.51200000 3186563479 3186563479 1.66700000
40.41426849 33.30310440 0.91408724 34 18 4911 52.37600000 3186563482 3186563482 1.00000000
16.85001183 16.90303040 -1.52960849 3 19 4911 23.91600000 3186563482 3186563482 -3.66700000
19.59296036 14.59350586 -1.42277813 3 20 4912 24.47200000 3186563484 3186563484 -3.33300000
39.95018005 36.32638550 3.14462328 24 21 4912 54.08800000 3186563484 3186563484 3.33300000
40.25969696 33.15214539 2.12475729 29 22 4913 52.19600000 3186563486 3186563486 2.33300000
19.78937721 17.98801613 -1.24573123 7 23 4913 26.77200000 3186563486 3186563486 -2.66700000
20.21897507 16.64354324 -1.37245810 9 24 4914 26.22400000 3186563489 3186563489 -3.00000000
43.39629364 39.43224335 7.19955349 52 25 4914 59.07600000 3186563489 3186563489 7.00000000
42.92012024 35.31775665 4.53753376 42 26 4915 55.76800000 3186563491 3186563491 4.66700000
20.33003044 20.36554527 -1.17236972 8 27 4915 28.80000000 3186563491 3186563491 -2.33300000
20.81122589 15.47833443 -0.90571171 10 28 4916 25.95200000 3186563493 3186563493 -2.00000000
20.91361046 18.98326683 -0.65723026 24 31 4917 28.25200000 3186563495 3186563495 -1.33300000
4.01324034 3.29299521 -2.42075729 7 0 4923 5.72800000 3186563516 3186563516 -25.00000000
20.92115021 20.89925385 -0.51617235 12 1 4923 29.57600000 3186563516 3186563516 -1.00000000
20.85456467 17.10576439 -0.78497899 23 2 4924 26.98400000 3186563518 3186563518 -1.66700000
6.67574644 6.04471016 -2.52106881 6 3 4924 9.35200000 3186563518 3186563518 -15.63900000
9.10227680 7.46340132 -2.35419202 1 4 4925 12.00400000 3186563521 3186563521 -11.31000000
40.24267578 36.42588806 0.00000000 28 5 4925 54.28000000 3186563521 3186563521 0.00000000
35.51934433 26.32132721 -0.51467556 11 6 4926 44.21200000 3186563523 3186563523 -0.66700000
10.26064014 9.28421974 -2.15279913 2 7 4926 14.00400000 3186563523 3186563523 -8.84300000
12.42262650 10.18229294 -2.04453516 4 8 4926 16.19200000 3186563525 3186563525 -7.25400000
40.48249435 40.39779663 0.33239496 45 9 4926 57.19200000 3186563525 3186563525 0.33300000
39.59058762 32.43915176 -0.29747698 23 10 4927 51.18400000 3186563528 3186563528 -0.33300000
13.12204647 11.86916447 -1.90589905 1 11 4927 17.79600000 3186563528 3186563528 -6.14800000
15.61612606 11.56376362 -1.81389642 2 12 4928 19.51600000 3186563530 3186563530 -5.33300000
40.17076111 36.32254791 1.26021087 37 13 4928 54.17200000 3186563530 3186563530 1.33300000
40.71537018 30.13878632 0.58973730 17 14 4929 50.66000000 3186563532 3186563532 0.66700000
16.92646217 15.29959965 -1.59547007 2 15 4929 22.87200000 3186563532 3186563532 -4.00000000
16.16591263 13.23164654 -1.70539939 2 16 4930 20.96000000 3186563535 3186563535 -4.66700000
39.97877502 39.83946609 1.64256787 21 17 4930 56.46400000 3186563535 3186563535 1.66700000
40.24594116 32.94092178 0.90780437 33 18 4930 52.01600000 3186563537 3186563537 1.00000000
16.91445351 16.85551453 -1.53037596 3 19 4930 23.92800000 3186563537 3186563537 -3.66700000
19.62198257 14.51420498 -1.42138278 3 20 4931 24.44800000 3186563539 3186563539 -3.33300000
40.01115799 36.14017105 3.13997221 24 21 4931 54.00800000 3186563539 3186563539 3.33300000
40.22710419 32.90206146 2.11726713 42 22 4932 52.01200000 3186563542 3186563542 2.33300000
19.84002113 17.91425896 -1.24517286 7 23 4932 26.76000000 3186563542 3186563542 -2.66700000
20.27405739 16.57640457 -1.37245810 9 24 4933 26.22400000 3186563544 3186563544 -3.00000000
42.49235916 38.35439682 7.02844858 24 25 4933 57.67200000 3186563544 3186563544 7.00000000
43.03700256 35.17523193 4.53753376 42 26 4934 55.76800000 3186563546 3186563546 4.66700000
20.38328934 20.28392029 -1.17155552 8 27 4934 28.78000000 3186563546 3186563546 -2.33300000
20.81099129 15.37123680 -0.90347815 10 28 4935 25.88800000 3186563548 3186563548 -2.00000000
20.91375732 18.86390305 -0.65536916 24 31 4935 28.17200000 3186563551 3186563551 -1.33300000
4.01908970 3.27438688 -2.41737652 7 0 4943 5.72000000 3186563571 3186563571 -25.00000000
20.91731262 20.75004959 -0.51428753 12 1 4943 29.46800000 3186563571 3186563571 -1.00000000
20.85524368 16.98489189 -0.78276807 15 2 4944 26.90800000 3186563574 3186563574 -1.66700000
6.69680595 6.02137089 -2.52106881 6 3 4944 9.35200000 3186563574 3186563574 -15.63900000
9.13131523 7.43405914 -2.35497642 1 4 4945 12.00800000 3186563576 3186563576 -11.31000000
40.28033447 36.20497513 0.00000000 42 5 4945 54.16000000 3186563576 3186563576 0.00000000
35.60643387 26.20339584 -0.51467556 11 6 4945 44.21200000 3186563578 3186563578 -0.66700000
10.28843212 9.24750137 -2.15218425 2 7 4945 14.00000000 3186563578 3186563578 -8.84300000
12.41500759 10.10380268 -2.03746414 2 8 4946 16.13600000 3186563581 3186563581 -7.25400000
40.52382278 40.15769577 0.33158129 45 9 4946 57.05200000 3186563581 3186563581 0.33300000
39.56395340 32.18716431 -0.29643086 22 10 4947 51.00400000 3186563583 3186563583 -0.33300000
13.14564514 11.80734253 -1.90332878 1 11 4947 17.77200000 3186563583 3186563583 -6.14800000
15.65318775 11.50682354 -1.81352460 2 12 4948 19.51200000 3186563585 3186563585 -5.33300000
40.17530823 36.07256699 1.25639570 25 13 4948 54.00800000 3186563585 3186563585 1.33300000
40.68173218 29.89463615 0.58773500 35 14 4949 50.48800000 3186563588 3186563588 0.66700000
16.95600891 15.21909904 -1.59323788 2 15 4949 22.84000000 3186563588 3186563588 -4.00000000
16.21509552 13.17765045 -1.70572484 2 16 4950 20.96400000 3186563590 3186563590 -4.66700000
39.97833633 39.56186295 1.63686621 43 17 4950 56.26800000 3186563590 3186563590 1.66700000
39.97582245 32.48746872 0.89914799 32 18 4950 51.52000000 3186563592 3186563592 1.00000000
16.96183777 16.78513718 -1.52935266 3 19 4950 23.91200000 3186563592 3186563592 -3.66700000
19.67252731 14.44562244 -1.42138278 3 20 4951 24.44800000 3186563595 3186563595 -3.33300000
39.86952591 35.76031876 3.11904216 36 21 4951 53.64800000 3186563595 3186563595 3.33300000
39.93838501 32.43390274 2.09609938 26 22 4952 51.49200000 3186563597 3186563597 2.33300000
19.87863350 17.82355690 -1.24368382 7 23 4952 26.72800000 3186563597 3186563597 -2.66700000
20.32559395 16.50049782 -1.37203944 9 24 4953 26.21600000 3186563599 3186563599 -3.00000000
43.19953156 38.71991348 7.12301922 25 25 4953 58.44800000 3186563599 3186563599 7.00000000
42.93044662 34.83889008 4.51345015 41 26 4954 55.47200000 3186563601 3186563601 4.66700000
20.39426994 20.15365028 -1.16813612 8 27 4954 28.69600000 3186563601 3186563601 -2.33300000
20.80004311 15.25122356 -0.90068620 10 28 4955 25.80800000 3186563604 3186563604 -2.00000000
20.91423225 18.72577286 -0.65322900 23 31 4956 28.08000000 3186563606 3186563606 -1.33300000
4.02767658 3.25805783 -2.41568589 8 0 4963 5.71600000 3186563627 3186563627 -25.00000000
20.92408752 20.61235428 -0.51268190 12 1 4963 29.37600000 3186563627 3186563627 -1.00000000
20.85844231 16.86673737 -0.78067356 11 2 4964 26.83600000 3186563629 3186563629 -1.66700000
6.71778345 5.99795771 -2.52106881 6 3 4964 9.35200000 3186563629 3186563629 -15.63900000
9.14805794 7.39474249 -2.35262299 1 4 4965 11.99600000 3186563631 3186563631 -11.31000000
40.24531937 35.92032242 0.00000000 28 5 4965 53.94400000 3186563631 3186563631 0.00000000
35.89146423 26.22051239 -0.51746941 11 6 4965 44.45200000 3186563634 3186563634 -0.66700000
10.30590534 9.19837189 -2.14910984 2 7 4965 13.98000000 3186563634 3186563634 -8.84300000
12.45020103 10.06040478 -2.03746414 2 8 4966 16.13600000 3186563636 3186563636 -7.25400000
40.62668610 39.97952652 0.33127907 45 9 4966 57.00000000 3186563636 3186563636 0.33300000
39.57338333 31.96592140 -0.29566368 22 10 4967 50.87200000 3186563638 3186563638 -0.33300000
13.19271660 11.76667786 -1.90418553 1 11 4967 17.78000000 3186563638 3186563638 -6.14800000
15.69325829 11.45211411 -1.81352460 2 12 4968 19.51200000 3186563641 3186563641 -5.33300000
40.34276962 35.96936417 1.25769842 12 13 4968 54.06400000 3186563641 3186563641 1.33300000
40.52733231 29.56387329 0.58400989 17 14 4969 50.16800000 3186563643 3186563643 0.66700000
17.01498795 15.16512871 -1.59379590 2 15 4969 22.84800000 3186563643 3186563643 -4.00000000
16.25789261 13.11846542 -1.70539939 2 16 4970 20.96000000 3186563645 3186563645 -4.66700000
40.00497055 39.31277466 1.63232803 42 17 4970 56.11200000 3186563645 3186563645 1.66700000
39.97381973 32.25480652 0.89656502 32 18 4970 51.37200000 3186563648 3186563648 1.00000000
16.96338272 16.66987038 -1.52423608 3 19 4970 23.83200000 3186563648 3186563648 -3.66700000
19.72928619 14.38156986 -1.42184794 3 20 4971 24.45600000 3186563650 3186563650 -3.33300000
39.95236206 35.58374786 3.11578631 36 21 4971 53.59200000 3186563650 3186563650 3.33300000
39.93623734 32.20147324 2.09007454 26 22 4972 51.34400000 3186563652 3186563652 2.33300000
19.93774414 17.75140190 -1.24349773 7 23 4972 26.72400000 3186563652 3186563652 -2.66700000
20.37373734 16.42192650 -1.37141144 9 24 4973 26.20400000 3186563654 3186563654 -3.00000000
43.47974396 38.69821930 7.14690590 51 25 4973 58.64400000 3186563654 3186563654 7.00000000
42.77550507 34.46620178 4.48448420 60 26 4974 55.11600000 3186563657 3186563657 4.66700000
20.45308495 20.07114220 -1.16748476 8 27 4974 28.68000000 3186563657 3186563657 -2.33300000
20.80467224 15.14323616 -0.89859223 13 28 4975 25.74800000 3186563659 3186563659 -2.00000000
20.91372299 18.59419823 -0.65118182 23 31 4976 27.99200000 3186563661 3186563661 -1.33300000
4.03054523 3.23716831 -2.41061449 8 0 4983 5.70400000 3186563682 3186563682 -25.00000000
20.92157745 20.46647453 -0.51086682 12 1 4983 29.27200000 3186563682 3186563682 -1.00000000
20.84860039 16.73875427 -0.77811360 15 2 4984 26.74800000 3186563684 3186563684 -1.66700000
6.73579741 5.97191668 -2.51999044 6 3 4984 9.34800000 3186563684 3186563684 -15.63900000
9.17687321 7.36521959 -2.35340738 1 4 4985 12.00000000 3186563687 3186563687 -11.31000000
40.22976303 35.65492249 0.00000000 27 5 4985 53.75600000 3186563687 3186563687 0.00000000
35.95039368 26.07158661 -0.51700377 11 6 4985 44.41200000 3186563689 3186563689 -0.66700000
10.33203506 9.15709877 -2.14787984 2 7 4985 13.97200000 3186563689 3186563689 -8.84300000
12.47286224 10.00695133 -2.03544378 2 8 4986 16.12000000 3186563691 3186563691 -7.25400000
40.63726044 39.71166611 0.33023295 66 9 4986 56.82000000 3186563691 3186563691 0.33300000
39.61295700 31.77003098 -0.29512897 21 10 4987 50.78000000 3186563694 3186563694 -0.33300000
13.22775459 11.71528149 -1.90332878 1 11 4987 17.77200000 3186563694 3186563694 -6.14800000
15.73313808 11.39726448 -1.81352460 2 12 4988 19.51200000 3186563696 3186563696 -5.33300000
40.30939484 35.68783188 1.25276661 37 13 4988 53.85200000 3186563696 3186563696 1.33300000
40.52337646 29.34481239 0.58247322 34 14 4989 50.03600000 3186563698 3186563698 0.66700000
16.95726204 15.00779438 -1.58347201 2 15 4989 22.70000000 3186563698 3186563698 -4.00000000
16.30669785 13.06412792 -1.70572484 2 16 4990 20.96400000 3186563701 3186563701 -4.66700000
40.24497223 39.27342224 1.63651705 64 17 4990 56.25600000 3186563701 3186563701 1.66700000
40.12049866 32.14258194 0.89733291 32 18 4990 51.41600000 3186563703 3186563703 1.00000000
17.01289749 16.60219193 -1.52346861 3 19 4990 23.82000000 3186563703 3186563703 -3.66700000
19.77289772 14.30793190 -1.42138278 3 20 4991 24.44800000 3186563705 3186563705 -3.33300000
40.03445053 35.40703583 3.11253071 24 21 4991 53.53600000 3186563705 3186563705 3.33300000
39.83935928 31.89451981 2.07916498 37 22 4992 51.07600000 3186563707 3186563707 2.33300000
19.98162460 17.66581917 -1.24238098 7 23 4992 26.70000000 3186563707 3186563707 -2.66700000
20.43405533 16.35320473 -1.37162077 9 24 4993 26.20800000 3186563710 3186563710 -3.00000000
42.26992035 37.35783005 6.92656612 22 25 4993 56.83600000 3186563710 3186563710 7.00000000
42.82083893 34.25690460 4.47667313 40 26 4994 55.02000000 3186563712 3186563712 4.66700000
20.51729584 19.99404526 -1.16715920 8 27 4994 28.67200000 3186563712 3186563712 -2.33300000
20.81204224 15.03774548 -0.89663786 13 28 4995 25.69200000 3186563714 3186563714 -2.00000000
20.92154312 18.47079659 -0.64941382 23 31 4996 27.91600000 3186563717 3186563717 -1.33300000
4.03331757 3.21629882 -2.40554309 8 0 5003 5.69200000 3186563737 3186563737 -25.00000000
20.92404366 20.32643890 -0.50919139 12 1 5003 29.17600000 3186563737 3186563737 -1.00000000
20.86000443 16.62849236 -0.77636820 18 2 5004 26.68800000 3186563740 3186563740 -1.66700000
6.75371075 5.94582272 -2.51891208 6 3 5004 9.34400000 3186563740 3186563740 -15.63900000
9.19946003 7.33069706 -2.35262299 1 4 5005 11.99600000 3186563742 3186563742 -11.31000000
40.23386765 35.40857315 0.00000000 40 5 5005 53.59600000 3186563742 3186563742 0.00000000
36.22620773 26.07913780 -0.51965797 11 6 5005 44.64000000 3186563744 3186563744 -0.66700000
10.36096859 9.11836624 -2.14726496 2 7 5005 13.96800000 3186563744 3186563744 -8.84300000
12.50150967 9.95840740 -2.03443360 2 8 5006 16.11200000 3186563747 3186563747 -7.25400000
40.59479141 39.39408112 0.32876834 65 9 5006 56.56800000 3186563747 3186563747 0.33300000
39.58280563 31.51943779 -0.29408282 31 10 5007 50.60000000 3186563749 3186563749 -0.33300000
13.27454090 11.67428970 -1.90418553 1 11 5007 17.78000000 3186563749 3186563749 -6.14800000
15.71139050 11.29809761 -1.80646086 2 12 5008 19.43600000 3186563751 3186563751 -5.33300000
40.00424576 35.16933823 1.23946011 23 13 5008 53.28000000 3186563751 3186563751 1.33300000
40.53462601 29.13781166 0.58116943 33 14 5009 49.92400000 3186563753 3186563753 0.66700000
17.10845566 15.03543663 -1.59267986 2 15 5009 22.83200000 3186563753 3186563753 -4.00000000
16.34284019 12.99968147 -1.70474839 2 16 5010 20.95200000 3186563756 3186563756 -4.66700000
40.28706360 39.04087830 1.63267708 42 17 5010 56.12400000 3186563756 3186563756 1.66700000
39.81303787 31.66872025 0.88797843 30 18 5010 50.88000000 3186563758 3186563758 1.00000000
17.06214714 16.53437042 -1.52270114 3 19 5010 23.80800000 3186563758 3186563758 -3.66700000
19.82596397 14.24115372 -1.42161536 3 20 5011 24.45200000 3186563760 3186563760 -3.33300000
39.65072632 34.82175446 3.07322860 23 21 5011 52.86000000 3186563760 3186563760 3.33300000
39.77211380 31.61350632 2.06988382 24 22 5012 50.84800000 3186563763 3186563763 2.33300000
20.03115845 17.58541679 -1.24163651 7 23 5012 26.68400000 3186563763 3186563763 -2.66700000
20.38780785 16.19977188 -1.36471236 9 24 5013 26.07600000 3186563765 3186563765 -3.00000000
42.37321091 37.18648148 6.92217875 45 25 5013 56.80000000 3186563765 3186563765 7.00000000
43.04941940 34.19401169 4.48806429 40 26 5014 55.16000000 3186563767 3186563767 4.66700000
20.57834816 19.91396713 -1.16667068 8 27 5014 28.66000000 3186563767 3186563767 -2.33300000
20.79944038 14.91840744 -0.89384592 10 28 5015 25.61200000 3186563770 3186563770 -2.00000000
20.90770912 18.32911491 -0.64699447 23 31 5016 27.81200000 3186563772 3186563772 -1.33300000
4.03030872 3.19094872 -2.39709067 6 0 5023 5.67200000 3186563793 3186563793 -25.00000000
20.92003059 20.18108177 -0.50737637 12 1 5023 29.07200000 3186563793 3186563793 -1.00000000
20.84894753 16.50098610 -0.77380818 18 2 5024 26.60000000 3186563795 3186563795 -1.66700000
6.76862478 5.91714096 -2.51675558 6 3 5024 9.33600000 3186563795 3186563795 -15.63900000
9.23729706 7.30827522 -2.35576081 1 4 5025 12.01200000 3186563797 3186563797 -11.31000000
40.26987457 35.19158554 0.00000000 40 5 5025 53.48000000 3186563797 3186563797 0.00000000
36.37559509 25.99438477 -0.52049613 11 6 5025 44.71200000 3186563800 3186563800 -0.66700000
10.38975906 9.07954311 -2.14665008 2 7 5025 13.96400000 3186563800 3186563800 -8.84300000
12.53308296 9.91224670 -2.03392863 2 8 5026 16.10800000 3186563802 3186563802 -7.25400000
40.65140915 39.17442322 0.32811740 21 9 5026 56.45600000 3186563802 3186563802 0.33300000
39.53883743 31.25952148 -0.29294369 20 10 5027 50.40400000 3186563804 3186563804 -0.33300000
13.30322838 11.61741829 -1.90247202 2 11 5027 17.76400000 3186563804 3186563804 -6.14800000
15.74100780 11.23624420 -1.80534554 2 12 5028 19.42400000 3186563806 3186563806 -5.33300000
40.10869217 35.01370621 1.23890173 23 13 5028 53.25600000 3186563806 3186563806 1.33300000
40.56446075 28.94503212 0.58014500 33 14 5029 49.83600000 3186563809 3186563809 0.66700000
17.06162071 14.88904572 -1.58347201 2 15 5029 22.70000000 3186563809 3186563809 -4.00000000
16.38186073 12.93761349 -1.70409751 2 16 5030 20.94400000 3186563811 3186563811 -4.66700000
40.24735641 38.73089600 1.62557900 41 17 5030 55.88000000 3186563811 3186563811 1.66700000
39.96100235 31.55929947 0.88881618 30 18 5030 50.92800000 3186563813 3186563813 1.00000000
17.10250092 16.45810318 -1.52116609 3 19 5030 23.78400000 3186563813 3186563813 -3.66700000
19.76825905 14.09535694 -1.41394103 3 20 5031 24.32000000 3186563816 3186563816 -3.33300000
39.63660431 34.56503296 3.06276369 22 21 5031 52.68000000 3186563816 3186563816 3.33300000
39.84143448 31.44229507 2.06776690 24 22 5032 50.79600000 3186563818 3186563818 2.33300000
20.07434845 17.49963570 -1.24051976 4 23 5032 26.66000000 3186563818 3186563818 -2.66700000
20.45050430 16.13345528 -1.36513114 9 24 5033 26.08400000 3186563820 3186563820 -3.00000000
42.47282410 37.01226425 6.91730404 44 25 5033 56.76000000 3186563820 3186563820 7.00000000
43.17477798 34.04846954 4.48871517 40 26 5034 55.16800000 3186563823 3186563823 4.66700000
20.63620758 19.83093643 -1.16601932 8 27 5034 28.64400000 3186563823 3186563823 -2.33300000
20.80253983 14.81093502 -0.89175195 10 28 5035 25.55200000 3186563825 3186563825 -2.00000000
20.91710854 18.21503639 -0.64541256 27 31 5035 27.74400000 3186563827 3186563827 -1.33300000
4.03572226 3.17237997 -2.39370990 4 0 5043 5.66400000 3186563848 3186563848 -25.00000000
20.92392349 20.04430199 -0.50577074 12 1 5043 28.98000000 3186563848 3186563848 -1.00000000
20.84983253 16.38364220 -0.77171367 18 2 5044 26.52800000 3186563850 3186563850 -1.66700000
6.78923798 5.89347792 -2.51675558 6 3 5044 9.33600000 3186563850 3186563850 -15.63900000
9.25966644 7.27356339 -2.35497642 1 4 5045 12.00800000 3186563853 3186563853 -11.31000000
40.29277420 34.96428680 0.00000000 39 5 5045 53.34800000 3186563853 3186563853 0.00000000
36.55219269 25.91872597 -0.52166021 11 6 5046 44.81200000 3186563855 3186563855 -0.66700000
10.42296696 9.04140186 -2.14665008 2 7 5046 13.96400000 3186563855 3186563855 -8.84300000
12.56760597 9.86843777 -2.03392863 2 8 5046 16.10800000 3186563857 3186563857 -7.25400000
40.75900650 39.00462723 0.32788491 64 9 5046 56.41600000 3186563857 3186563857 0.33300000
39.56905365 31.05957031 -0.29236251 19 10 5047 50.30400000 3186563859 3186563859 -0.33300000
13.34670448 11.57351589 -1.90290034 2 11 5047 17.76800000 3186563859 3186563859 -6.14800000
15.85487461 11.23418808 -1.81389642 2 12 5048 19.51600000 3186563862 3186563862 -5.33300000
40.33038330 34.95992279 1.24197257 24 13 5048 53.38800000 3186563862 3186563862 1.33300000
40.55101395 28.72234535 0.57851529 33 14 5049 49.69600000 3186563864 3186563864 0.66700000
17.11047363 14.82678604 -1.58319294 2 15 5049 22.69600000 3186563864 3186563864 -4.00000000
16.43005753 12.88281155 -1.70442295 2 16 5050 20.94800000 3186563866 3186563866 -4.66700000
40.08745956 38.30841064 1.61371005 60 17 5050 55.47200000 3186563866 3186563866 1.66700000
40.00400925 31.35587692 0.88721055 30 18 5051 50.83600000 3186563869 3186563869 1.00000000
17.17713928 16.40909576 -1.52244532 3 19 5051 23.80400000 3186563869 3186563869 -3.66700000
19.83689690 14.04010868 -1.41533637 3 20 5051 24.34400000 3186563871 3186563871 -3.33300000
39.74795914 34.41862106 3.06206584 22 21 5051 52.66800000 3186563871 3186563871 3.33300000
39.79050064 31.17731667 2.05946279 35 22 5052 50.59200000 3186563873 3186563873 2.33300000
20.12020683 17.41637993 -1.23958910 4 23 5052 26.64000000 3186563873 3186563873 -2.66700000
20.50040627 16.05704498 -1.36471236 9 24 5053 26.07600000 3186563876 3186563876 -3.00000000
42.77889633 37.01705551 6.94606495 45 25 5053 56.99600000 3186563876 3186563876 7.00000000
43.01399231 33.67881393 4.45974970 39 26 5054 54.81200000 3186563878 3186563878 4.66700000
20.68217468 19.73670769 -1.16471672 8 27 5054 28.61200000 3186563878 3186563878 -2.33300000
20.81167412 14.70823669 -0.88993716 10 28 5055 25.50000000 3186563880 3186563880 -2.00000000
20.91099167 18.08175278 -0.64327234 26 31 5055 27.65200000 3186563883 3186563883 -1.33300000
3.99818730 3.12035632 -2.36497188 2 0 5063 5.59600000 3186563903 3186563903 -25.00000000
20.92132187 19.90222740 -0.50402552 12 1 5063 28.88000000 3186563903 3186563903 -1.00000000
20.85015106 16.26649475 -0.76961917 18 2 5064 26.45600000 3186563906 3186563906 -1.66700000
6.80685091 5.86722851 -2.51567721 6 3 5064 9.33200000 3186563906 3186563906 -15.63900000
9.26953506 7.22913647 -2.35105419 1 4 5065 11.98800000 3186563908 3186563908 -11.31000000
40.30548859 34.72943115 0.00000000 39 5 5065 53.20400000 3186563908 3186563908 0.00000000
36.80598450 25.90608406 -0.52398843 12 6 5066 45.01200000 3186563910 3186563910 -0.66700000
10.45146942 9.00238419 -2.14603519 2 7 5066 13.96000000 3186563910 3186563910 -8.84300000
12.59571838 9.81962967 -2.03291845 2 8 5066 16.10000000 3186563912 3186563912 -7.25400000
40.86011505 38.82905197 0.32760596 43 9 5066 56.36800000 3186563912 3186563912 0.33300000
39.57942581 30.84503937 -0.29164183 19 10 5067 50.18000000 3186563915 3186563915 -0.33300000
13.38099480 11.52166653 -1.90204358 1 11 5067 17.76000000 3186563915 3186563915 -6.14800000
15.81580925 11.12378693 -1.80497384 2 12 5068 19.42000000 3186563917 3186563917 -5.33300000
40.23698425 34.63370895 1.23536575 23 13 5068 53.10400000 3186563917 3186563917 1.33300000
40.52341843 28.49090385 0.57669926 33 14 5069 49.54000000 3186563919 3186563919 0.66700000
17.15910149 14.76436615 -1.58291388 2 15 5069 22.69200000 3186563919 3186563919 -4.00000000
16.48436546 12.83272839 -1.70539939 2 16 5070 20.96000000 3186563922 3186563922 -4.66700000
40.13103104 38.08292389 1.61010289 39 17 5070 55.34800000 3186563922 3186563922 1.66700000
40.11408234 31.22796059 0.88735014 15 18 5070 50.84400000 3186563924 3186563924 1.00000000
17.20540047 16.32731438 -1.52014279 3 19 5070 23.76800000 3186563924 3186563924 -3.66700000
19.86291313 13.95471096 -1.41370845 3 20 5071 24.31600000 3186563926 3186563926 -3.33300000
39.66196823 34.10263062 3.04625225 33 21 5071 52.39600000 3186563926 3186563926 3.33300000
39.77921295 30.94497871 2.05327535 34 22 5072 50.44000000 3186563929 3186563929 2.33300000
20.17481804 17.34083176 -1.23921692 4 23 5072 26.63200000 3186563929 3186563929 -2.66700000
20.43650436 15.89220715 -1.35675728 9 24 5073 25.92400000 3186563931 3186563931 -3.00000000
43.01324463 36.95806122 6.96312666 46 25 5073 57.13600000 3186563931 3186563931 7.00000000
43.28866959 33.65079880 4.47602224 40 26 5074 55.01200000 3186563933 3186563933 4.66700000
20.74804115 19.66164398 -1.16455388 8 27 5074 28.60800000 3186563933 3186563933 -2.33300000
20.80070877 14.59188175 -0.88728482 10 28 5075 25.42400000 3186563936 3186563936 -2.00000000
20.91330147 17.95654869 -0.64141130 22 31 5075 27.57200000 3186563938 3186563938 -1.33300000
3.96320438 3.07085419 -2.33792424 3 0 5083 5.53200000 3186563959 3186563959 -25.00000000
20.92089081 19.76316261 -0.50235009 12 1 5083 28.78400000 3186563959 3186563959 -1.00000000
20.84042358 16.14219856 -0.76717556 18 2 5084 26.37200000 3186563961 3186563961 -1.66700000
6.83021641 5.84593725 -2.51675558 6 3 5084 9.33600000 3186563961 3186563961 -15.63900000
9.30711842 7.20634079 -2.35419202 1 4 5085 12.00400000 3186563964 3186563964 -11.31000000
40.26842499 34.45330429 0.00000000 25 5 5085 52.99600000 3186563964 3186563964 0.00000000
36.97364807 25.84117126 -0.52515256 12 6 5085 45.11200000 3186563966 3186563966 -0.66700000
10.46925163 8.95739841 -2.14357567 2 7 5085 13.94400000 3186563966 3186563966 -8.84300000
12.65815926 9.79746056 -2.03746414 2 8 5086 16.13600000 3186563968 3186563968 -7.25400000
40.74812698 38.45283890 0.32562989 41 9 5086 56.02800000 3186563968 3186563968 0.33300000
39.63940048 30.66997719 -0.29129311 19 10 5087 50.12000000 3186563971 3186563971 -0.33300000
13.41810894 11.47230339 -1.90161514 2 11 5087 17.75600000 3186563971 3186563971 -6.14800000
15.85454273 11.06851196 -1.80497384 2 12 5088 19.42000000 3186563973 3186563973 -5.33300000
40.20259857 34.36053848 1.23062015 23 13 5088 52.90000000 3186563973 3186563973 1.33300000
40.23886490 28.08146286 0.57125121 48 14 5089 49.07200000 3186563975 3186563975 0.66700000
17.20143127 14.69660378 -1.58207679 2 15 5089 22.68000000 3186563975 3186563975 -4.00000000
16.51644135 12.76535702 -1.70409751 2 16 5090 20.94400000 3186563977 3186563977 -4.66700000
40.02801895 37.72049713 1.60067749 38 17 5090 55.02400000 3186563977 3186563977 1.66700000
40.53928375 31.33231926 0.89433110 15 18 5090 51.24400000 3186563980 3186563980 1.00000000
17.25647736 16.26168251 -1.51963115 3 19 5090 23.76000000 3186563980 3186563980 -3.66700000
19.88857460 13.86930275 -1.41208053 3 20 5091 24.28800000 3186563982 3186563982 -3.33300000
39.67143631 33.87063599 3.03788018 22 21 5091 52.25200000 3186563982 3186563982 3.33300000
39.79842377 30.73753166 2.04871607 22 22 5092 50.32800000 3186563984 3186563984 2.33300000
20.22002983 17.25733376 -1.23828626 4 23 5092 26.61200000 3186563984 3186563984 -2.66700000
20.48236847 15.81344986 -1.35612929 9 24 5093 25.91200000 3186563987 3186563987 -3.00000000
43.45006180 37.07052994 7.01284933 47 25 5093 57.54400000 3186563987 3186563987 7.00000000
43.49423981 33.56769180 4.48513508 40 26 5094 55.12400000 3186563989 3186563989 4.66700000
20.81945610 19.59184074 -1.16471672 12 27 5094 28.61200000 3186563989 3186563989 -2.33300000
20.80230904 14.48491955 -0.88519084 10 28 5095 25.36400000 3186563991 3186563991 -2.00000000
20.91803551 17.83414268 -0.63964331 16 31 5095 27.49600000 3186563994 3186563994 -1.33300000
3.95378590 3.04152846 -2.32609081 4 0 5103 5.50400000 3186564014 3186564014 -25.00000000
20.91682816 19.62160873 -0.50060481 12 1 5103 28.68400000 3186564014 3186564014 -1.00000000
20.85227013 16.03523064 -0.76554650 15 2 5104 26.31600000 3186564017 3186564017 -1.66700000
6.84471083 5.81707048 -2.51459908 6 3 5104 9.32800000 3186564017 3186564017 -15.63900000
9.33221626 7.17380905 -2.35419202 3 4 5105 12.00400000 3186564019 3186564019 -11.31000000
40.22687531 34.17527008 0.00000000 25 5 5105 52.78400000 3186564019 3186564019 0.00000000
37.12277985 25.75298882 -0.52599072 12 6 5105 45.18400000 3186564021 3186564021 -0.66700000
10.50346756 8.92335796 -2.14419055 2 7 5105 13.94800000 3186564021 3186564021 -8.84300000
12.69542789 9.75563335 -2.03796911 2 8 5106 16.14000000 3186564024 3186564024 -7.25400000
40.84999847 38.28028107 0.32537419 41 9 5106 55.98400000 3186564024 3186564024 0.33300000
39.64471054 30.45344925 -0.29054919 18 10 5107 49.99200000 3186564026 3186564026 -0.33300000
13.47323227 11.43826485 -1.90375710 2 11 5107 17.77600000 3186564026 3186564026 -6.14800000
15.90617657 11.02217484 -1.80646086 2 12 5108 19.43600000 3186564028 3186564028 -5.33300000
40.27350998 34.17859650 1.22913122 23 13 5108 52.83600000 3186564028 3186564028 1.33300000
40.43527985 28.00915909 0.57264817 32 14 5109 49.19200000 3186564030 3186564030 0.66700000
17.24958611 14.63388920 -1.58179784 2 15 5109 22.67600000 3186564030 3186564030 -4.00000000
16.47233963 12.63967037 -1.69498467 2 16 5110 20.83200000 3186564033 3186564033 -4.66700000
40.16236496 37.58327484 1.60079396 38 17 5110 55.02800000 3186564033 3186564033 1.66700000
40.48658752 31.06645012 0.89077085 15 18 5110 51.04000000 3186564035 3186564035 1.00000000
17.31313705 16.20134735 -1.51963115 3 19 5110 23.76000000 3186564035 3186564035 -3.66700000
19.97626877 13.82706642 -1.41487122 3 20 5111 24.33600000 3186564037 3186564037 -3.33300000
39.78028870 33.72420120 3.03718257 33 21 5111 52.24000000 3186564037 3186564037 3.33300000
39.78812408 30.50844193 2.04269123 22 22 5112 50.18000000 3186564040 3186564040 2.33300000
20.27404976 17.18148041 -1.23791397 7 23 5112 26.60400000 3186564040 3186564040 -2.66700000
20.52159119 15.72970676 -1.35508263 9 24 5113 25.89200000 3186564042 3186564042 -3.00000000
43.39138031 36.75952530 6.98262596 46 25 5113 57.29600000 3186564042 3186564042 7.00000000
43.49406052 33.32594681 4.47309351 40 26 5114 54.97600000 3186564044 3186564044 4.66700000
20.81471443 19.45082664 -1.16064596 12 27 5114 28.51200000 3186564044 3186564044 -2.33300000
20.80341530 14.37812519 -0.88309687 9 28 5115 25.30400000 3186564047 3186564047 -2.00000000
20.90996170 17.70158958 -0.63750309 19 31 5115 27.40400000 3186564049 3186564049 -1.33300000
3.95285439 3.01890707 -2.31932902 5 0 5123 5.48800000 3186564070 3186564070 -25.00000000
20.91203308 19.48032570 -0.49885958 15 1 5123 28.58400000 3186564070 3186564070 -1.00000000
20.84773445 15.91624641 -0.76333559 10 2 5124 26.24000000 3186564072 3186564072 -1.66700000
6.86203051 5.79065847 -2.51352072 6 3 5124 9.32400000 3186564072 3186564072 -15.63900000
9.34161091 7.12929201 -2.35026956 3 4 5125 11.98400000 3186564074 3186564074 -11.31000000
40.25114441 33.95468903 0.00000000 25 5 5125 52.66000000 3186564074 3186564074 0.00000000
37.31127548 25.69129944 -0.52738762 12 6 5125 45.30400000 3186564077 3186564077 -0.66700000
10.53153038 8.88409138 -2.14357567 2 7 5125 13.94400000 3186564077 3186564077 -8.84300000
12.72940445 9.71125889 -2.03796911 2 8 5126 16.14000000 3186564079 3186564079 -7.25400000
40.82524872 37.99031067 0.32411879 41 9 5126 55.76800000 3186564079 3186564079 0.33300000
39.69988251 30.27606964 -0.29017723 27 10 5127 49.92800000 3186564081 3186564081 -0.33300000
13.50699520 11.38603878 -1.90290034 2 11 5127 17.76800000 3186564081 3186564081 -6.14800000
15.91830254 10.94852924 -1.80348670 2 12 5128 19.40400000 3186564083 3186564083 -5.33300000
40.26413727 33.92958069 1.22522306 23 13 5128 52.66800000 3186564083 3186564083 1.33300000
40.56576538 27.89050293 0.57311380 32 14 5129 49.23200000 3186564086 3186564086 0.66700000
17.30056190 14.57358742 -1.58179784 2 15 5129 22.67600000 3186564086 3186564086 -4.00000000
16.50050354 12.57001495 -1.69335747 2 16 5130 20.81200000 3186564088 3186564088 -4.66700000
40.00334549 37.17340469 1.58927405 37 17 5130 54.63200000 3186564088 3186564088 1.66700000
40.32017899 30.70462418 0.88462758 15 18 5131 50.68800000 3186564090 3186564090 1.00000000
17.36362648 16.12963104 -1.51886368 3 19 5131 23.74800000 3186564090 3186564090 -3.66700000
19.98162460 13.72785568 -1.41184795 3 20 5131 24.28400000 3186564093 3186564093 -3.33300000
39.91609573 33.60056686 3.03857780 33 21 5131 52.26400000 3186564093 3186564093 3.33300000
39.92299652 30.39115715 2.04415679 22 22 5132 50.21600000 3186564095 3186564095 2.33300000
20.31861496 17.09774399 -1.23698342 7 23 5132 26.58400000 3186564095 3186564095 -2.66700000
20.57955360 15.66039562 -1.35529196 9 24 5133 25.89600000 3186564097 3186564097 -3.00000000
42.61708069 35.84879303 6.83784533 42 25 5133 56.10800000 3186564097 3186564097 7.00000000
43.63550949 33.19323349 4.47569704 40 26 5134 55.00800000 3186564100 3186564100 4.66700000
20.81217384 19.31280518 -1.15673804 12 27 5134 28.41600000 3186564100 3186564100 -2.33300000
20.80073357 14.26923847 -0.88086331 9 28 5135 25.24000000 3186564102 3186564102 -2.00000000
20.91040230 17.57703018 -0.63564205 19 31 5135 27.32400000 3186564104 3186564104 -1.33300000
3.95470190 2.99851966 -2.31425762 5 0 5143 5.47600000 3186564125 3186564125 -25.00000000
20.91237831 19.34474564 -0.49725395 11 1 5143 28.49200000 3186564125 3186564125 -1.00000000
20.83943558 15.79507446 -0.76100838 14 2 5144 26.16000000 3186564127 3186564127 -1.66700000
6.88220215 5.76667023 -2.51352072 6 3 5144 9.32400000 3186564127 3186564127 -15.63900000
9.37269211 7.10137749 -2.35183859 3 4 5145 11.99200000 3186564129 3186564129 -11.31000000
40.13944244 33.62134552 0.00000000 24 5 5145 52.36000000 3186564129 3186564129 0.00000000
37.49436188 25.61529350 -0.52864486 12 6 5146 45.41200000 3186564132 3186564132 -0.66700000
10.56099129 8.84289455 -2.14296055 2 7 5146 13.94000000 3186564132 3186564132 -8.84300000
12.75689888 9.66197395 -2.03695893 1 8 5146 16.13200000 3186564134 3186564134 -7.25400000
40.71965790 37.62768555 0.32223573 19 9 5146 55.44400000 3186564134 3186564134 0.33300000
39.77343369 30.11316109 -0.28994474 18 10 5147 49.88800000 3186564136 3186564136 -0.33300000
13.54360771 11.33626842 -1.90247202 2 11 5147 17.76400000 3186564136 3186564136 -6.14800000
15.95971203 10.89514256 -1.80385852 2 12 5148 19.40800000 3186564139 3186564139 -5.33300000
40.26271820 33.68874359 1.22159398 22 13 5148 52.51200000 3186564139 3186564139 1.33300000
40.53733063 27.66305923 0.57134438 16 14 5149 49.08000000 3186564141 3186564141 0.66700000
17.35438919 14.51566792 -1.58207679 2 15 5149 22.68000000 3186564141 3186564141 -4.00000000
16.56971741 12.53157997 -1.69596112 2 16 5150 20.84400000 3186564143 3186564143 -4.66700000
40.18575287 37.08234787 1.59136856 18 17 5150 54.70400000 3186564143 3186564143 1.66700000
40.26866531 30.45495224 0.88127673 29 18 5150 50.49600000 3186564146 3186564146 1.00000000
17.40821838 16.06384087 -1.51809621 3 19 5150 23.73600000 3186564146 3186564146 -3.66700000
20.05581474 13.67602062 -1.41370845 3 20 5151 24.31600000 3186564148 3186564148 -3.33300000
39.83704758 33.29713058 3.02369428 32 21 5151 52.00800000 3186564148 3186564148 3.33300000
39.69404221 29.99859428 2.02705979 31 22 5152 49.79600000 3186564150 3186564150 2.33300000
20.36284256 17.01390457 -1.23605275 7 23 5152 26.56400000 3186564150 3186564150 -2.66700000
20.61496925 15.57401752 -1.35403585 9 24 5153 25.87200000 3186564153 3186564153 -3.00000000
43.69570541 36.49642181 6.99042559 46 25 5153 57.36000000 3186564153 3186564153 7.00000000
42.86985016 32.37519073 4.38554525 36 26 5154 53.90000000 3186564155 3186564155 4.66700000
20.82655716 19.19128990 -1.15380716 12 27 5154 28.34400000 3186564155 3186564155 -2.33300000
20.80084991 14.16279507 -0.87876934 9 28 5155 25.18000000 3186564157 3186564157 -2.00000000
20.90713501 17.44391060 -0.63359487 22 31 5156 27.23600000 3186564159 3186564159 -1.33300000
3.95355916 2.97597623 -2.30749559 4 0 5163 5.46000000 3186564180 3186564180 -25.00000000
20.90908813 19.20669746 -0.49557853 11 1 5163 28.39600000 3186564180 3186564180 -1.00000000
20.85291100 15.69098282 -0.75949568 18 2 5164 26.10800000 3186564182 3186564182 -1.66700000
6.90525055 5.74507523 -2.51459908 5 3 5164 9.32800000 3186564182 3186564182 -15.63900000
9.38801956 7.06154394 -2.34948516 3 4 5165 11.98000000 3186564185 3186564185 -11.31000000
40.17967224 33.41708374 0.00000000 36 5 5165 52.26000000 3186564185 3186564185 0.00000000
37.72920609 25.58302498 -0.53069371 12 6 5166 45.58800000 3186564187 3186564187 -0.66700000
10.57963753 8.79586792 -2.14050102 2 7 5166 13.92400000 3186564187 3186564187 -8.84300000
12.79371929 9.61977005 -2.03746414 2 8 5166 16.13600000 3186564189 3186564189 -7.25400000
40.83012390 37.46638870 0.32207301 19 9 5166 55.41600000 3186564189 3186564189 0.33300000
39.84313202 29.94770622 -0.28968903 18 10 5167 49.84400000 3186564192 3186564192 -0.33300000
13.58003807 11.28638172 -1.90204358 2 11 5167 17.76000000 3186564192 3186564192 -6.14800000
15.98116112 10.82819653 -1.80199957 2 12 5168 19.38800000 3186564194 3186564194 -5.33300000
40.30932236 33.48921967 1.21945381 33 13 5168 52.42000000 3186564194 3186564194 1.33300000
40.53098297 27.45185661 0.56990087 16 14 5169 48.95600000 3186564196 3186564196 0.66700000
17.39267349 14.44480419 -1.58096075 2 15 5169 22.66400000 3186564196 3186564196 -4.00000000
16.58466721 12.45212078 -1.69303191 2 16 5170 20.80800000 3186564199 3186564199 -4.66700000
40.30610657 36.93374252 1.59101951 18 17 5170 54.69200000 3186564199 3186564199 1.66700000
40.62738800 30.50390625 0.88679165 15 18 5170 50.81200000 3186564201 3186564201 1.00000000
17.45535660 15.99488735 -1.51732862 3 19 5170 23.72400000 3186564201 3186564201 -3.66700000
20.11335182 13.61264420 -1.41440606 3 20 5171 24.32800000 3186564203 3186564203 -3.33300000
39.88850403 33.10431671 3.01881051 32 21 5171 51.92400000 3186564203 3186564203 3.33300000
39.79531860 29.85745430 2.02689695 31 22 5172 49.79200000 3186564206 3186564206 2.33300000
20.41903114 16.94017029 -1.23586667 4 23 5172 26.56000000 3186564206 3186564206 -2.66700000
20.65962029 15.49477291 -1.35340786 9 24 5173 25.86000000 3186564208 3186564208 -3.00000000
43.67614746 36.22202301 6.96702671 46 25 5173 57.16800000 3186564208 3186564208 7.00000000
42.85819626 32.13208008 4.37285233 18 26 5174 53.74400000 3186564210 3186564210 4.66700000
20.81380844 19.04562759 -1.14941072 11 27 5174 28.23600000 3186564210 3186564210 -2.33300000
20.80710411 14.06100273 -0.87695456 9 28 5175 25.12800000 3186564212 3186564212 -2.00000000
20.90328598 17.32345009 -0.63173383 25 31 5175 27.15600000 3186564215 3186564215 -1.33300000
3.95811510 2.95781732 -2.30411482 5 0 5183 5.45200000 3186564235 3186564235 -25.00000000
20.90804482 19.07160378 -0.49397290 11 1 5183 28.30400000 3186564235 3186564235 -1.00000000
20.83708382 15.56545448 -0.75693572 18 2 5184 26.02000000 3186564238 3186564238 -1.66700000
6.92526245 5.72093678 -2.51459908 5 3 5184 9.32800000 3186564238 3186564238 -15.63900000
9.41575432 7.03107738 -2.35026956 1 4 5185 11.98400000 3186564240 3186564240 -11.31000000
40.21897125 33.21295166 0.00000000 35 5 5185 52.16000000 3186564240 3186564240 0.00000000
38.82910538 26.14128876 -0.54494238 12 6 5185 46.81200000 3186564242 3186564242 -0.66700000
10.60265255 8.75570297 -2.13927126 2 7 5185 13.91600000 3186564242 3186564242 -8.84300000
12.82086086 9.57030582 -2.03645396 2 8 5186 16.12800000 3186564245 3186564245 -7.25400000
40.77734756 37.15660477 0.32063165 19 9 5186 55.16800000 3186564245 3186564245 0.33300000
39.82240295 29.71515274 -0.28878236 18 10 5187 49.68800000 3186564247 3186564247 -0.33300000
13.62548637 11.24397182 -1.90290034 2 11 5187 17.76800000 3186564247 3186564247 -6.14800000
16.03869057 10.78568077 -1.80423021 2 12 5188 19.41200000 3186564249 3186564249 -5.33300000
40.32417679 33.26433563 1.21638310 22 13 5188 52.28800000 3186564249 3186564249 1.33300000
40.52033997 27.23880577 0.56841081 32 14 5189 48.82800000 3186564252 3186564252 0.66700000
17.45222473 14.39162064 -1.58179784 2 15 5189 22.67600000 3186564252 3186564252 -4.00000000
16.62483597 12.39177132 -1.69270647 2 16 5190 20.80400000 3186564254 3186564254 -4.66700000
40.26326370 36.63674927 1.58427048 36 17 5190 54.46000000 3186564254 3186564254 1.66700000
40.57970047 30.24717712 0.88344079 14 18 5190 50.62000000 3186564256 3186564256 1.00000000
17.50813103 15.93117237 -1.51707280 3 19 5190 23.72000000 3186564256 3186564256 -3.66700000
20.13422775 13.52453995 -1.41254568 3 20 5191 24.29600000 3186564259 3186564259 -3.33300000
39.99457169 32.95726013 3.01811290 21 21 5191 51.91200000 3186564259 3186564259 3.33300000
39.75506210 29.61092758 2.01956964 21 22 5192 49.61200000 3186564261 3186564261 2.33300000
20.45645142 16.85100746 -1.23456383 4 23 5192 26.53200000 3186564261 3186564261 -2.66700000
20.70717239 15.41779137 -1.35298920 9 24 5193 25.85200000 3186564263 3186564263 -3.00000000
43.95862579 36.19805527 6.99188805 47 25 5193 57.37200000 3186564263 3186564263 7.00000000
43.21635437 32.16556931 4.39791250 18 26 5194 54.05200000 3186564265 3186564265 4.66700000
20.81508827 18.91372681 -1.14582849 11 27 5194 28.14800000 3186564265 3186564265 -2.33300000
20.79629898 13.94820499 -0.87444180 9 28 5195 25.05600000 3186564268 3186564268 -2.00000000
20.90487289 17.19591141 -0.62987280 21 31 5196 27.07600000 3186564270 3186564270 -1.33300000
3.95385814 2.93318343 -2.29566240 5 0 5203 5.43200000 3186564291 3186564291 -25.00000000
20.90927887 18.93943596 -0.49243709 15 1 5203 28.21600000 3186564291 3186564291 -1.00000000
20.83990669 15.45451832 -0.75507390 18 2 5204 25.95600000 3186564293 3186564293 -1.66700000
6.94221210 5.69428539 -2.51352072 6 3 5204 9.32400000 3186564293 3186564293 -15.63900000
9.44654274 7.00283909 -2.35183859 3 4 5205 11.99200000 3186564295 3186564295 -11.31000000
40.18928146 32.95315552 0.00000000 23 5 5205 51.97200000 3186564295 3186564295 0.00000000
38.80371857 25.92781639 -0.54331261 12 6 5205 46.67200000 3186564298 3186564298 -0.66700000
10.63009453 8.71613407 -2.13865638 2 7 5205 13.91200000 3186564298 3186564298 -8.84300000
12.84143734 9.51604462 -2.03443360 1 8 5206 16.11200000 3186564300 3186564300 -7.25400000
40.66952133 36.79933929 0.31877184 37 9 5206 54.84800000 3186564300 3186564300 0.33300000
39.87445831 29.53787041 -0.28841040 18 10 5207 49.62400000 3186564302 3186564302 -0.33300000
13.65849972 11.19130039 -1.90204358 2 11 5207 17.76000000 3186564302 3186564302 -6.14800000
16.06299019 10.72078609 -1.80274320 2 12 5208 19.39600000 3186564305 3186564305 -5.33300000
39.93578339 32.71034622 1.20121551 31 13 5208 51.63600000 3186564305 3186564305 1.33300000
17.46530533 14.30027866 -1.57844949 2 15 5209 22.62800000 3186564307 3186564307 -4.00000000
16.68080902 12.34314919 -1.69400835 2 16 5210 20.82000000 3186564309 3186564309 -4.66700000
40.23663712 36.35659027 1.57821965 54 17 5210 54.25200000 3186564309 3186564309 1.66700000
40.50821686 29.97450256 0.87960130 14 18 5210 50.40000000 3186564312 3186564312 1.00000000
17.56067276 15.86728477 -1.51681697 3 19 5210 23.71600000 3186564312 3186564312 -3.66700000
20.17799187 13.45196056 -1.41231310 3 20 5211 24.29200000 3186564314 3186564314 -3.33300000
40.11864090 32.82503891 3.01881051 21 21 5211 51.92400000 3186564314 3186564314 3.33300000
39.73927689 29.38405609 2.01354504 21 22 5212 49.46400000 3186564316 3186564316 2.33300000
20.50586891 16.77190971 -1.23400545 4 23 5212 26.52000000 3186564316 3186564316 -2.66700000
20.76086426 15.34541607 -1.35298920 13 24 5213 25.85200000 3186564318 3186564318 -3.00000000
44.06319809 36.02679825 6.98847580 46 25 5213 57.34400000 3186564318 3186564318 7.00000000
43.05261612 31.81077194 4.36992311 54 26 5214 53.70800000 3186564321 3186564321 4.66700000
20.81570244 18.78205109 -1.14224625 11 27 5214 28.06000000 3186564321 3186564321 -2.33300000
20.78829002 13.83787060 -0.87206864 13 28 5215 24.98800000 3186564323 3186564323 -2.00000000
20.90282631 17.07224274 -0.62801170 25 31 5216 26.99600000 3186564325 3186564325 -1.33300000
3.94363928 2.90431571 -2.28382897 6 0 5223 5.40400000 3186564346 3186564346 -25.00000000
20.89795113 18.79679489 -0.49062204 11 1 5223 28.11200000 3186564346 3186564346 -1.00000000
20.84220695 15.34375191 -0.75321209 18 2 5224 25.89200000 3186564348 3186564348 -1.66700000
6.95009947 5.66028786 -2.50920749 5 3 5224 9.30800000 3186564348 3186564348 -15.63900000
9.45829296 6.96052265 -2.34870076 3 4 5225 11.97600000 3186564351 3186564351 -11.31000000
40.26684189 32.78236389 0.00000000 34 5 5225 51.92400000 3186564351 3186564351 0.00000000
38.88065338 25.78336716 -0.54312640 12 6 5225 46.65600000 3186564353 3186564353 -0.66700000
10.65432453 8.67398357 -2.13742638 2 7 5225 13.90400000 3186564353 3186564353 -8.84300000
12.93850136 9.51818848 -2.04453516 2 8 5226 16.19200000 3186564355 3186564355 -7.25400000
40.47937012 36.37110138 0.31628433 36 9 5226 54.42000000 3186564355 3186564355 0.33300000
39.91287231 29.35110855 -0.28794545 27 10 5227 49.54400000 3186564358 3186564358 -0.33300000
13.70365143 11.14857483 -1.90290034 2 11 5227 17.76800000 3186564358 3186564358 -6.14800000
16.10363579 10.66685009 -1.80311489 2 12 5228 19.40000000 3186564360 3186564360 -5.33300000
40.05592728 32.57579041 1.20140159 21 13 5228 51.64400000 3186564360 3186564360 1.33300000
40.42937851 26.76977158 0.56449938 15 14 5229 48.49200000 3186564362 3186564362 0.66700000
17.54917526 14.26691437 -1.58151877 2 15 5229 22.67200000 3186564362 3186564362 -4.00000000
16.70130157 12.26832581 -1.69173014 2 16 5230 20.79200000 3186564365 3186564365 -4.66700000
39.95261383 35.84743118 1.56216168 34 17 5230 53.70000000 3186564365 3186564365 1.66700000
40.61259842 29.83292007 0.87960130 14 18 5230 50.40000000 3186564367 3186564367 1.00000000
17.61298180 15.80322361 -1.51656115 3 19 5230 23.71200000 3186564367 3186564367 -3.66700000
20.24480820 13.39466476 -1.41370845 3 20 5231 24.31600000 3186564369 3186564369 -3.33300000
40.20818329 32.66465378 3.01695013 32 21 5231 51.89200000 3186564369 3186564369 3.33300000
39.65795898 29.11035919 2.00426364 31 22 5232 49.23600000 3186564371 3186564371 2.33300000
20.55188179 16.69015312 -1.23326087 4 23 5232 26.50400000 3186564371 3186564371 -2.66700000
20.78532028 15.25158596 -1.35110509 13 24 5233 25.81600000 3186564374 3186564374 -3.00000000
43.14068604 35.02199173 6.82273340 21 25 5233 55.98400000 3186564374 3186564374 7.00000000
20.82160378 18.65593529 -1.13898969 11 27 5234 27.98000000 3186564376 3186564376 -2.33300000
20.79644012 13.73878002 -0.87039346 16 28 5235 24.94000000 3186564378 3186564378 -2.00000000
20.90638351 16.95383644 -0.62633681 21 31 5236 26.92400000 3186564381 3186564381 -1.33300000
3.94790030 2.88625288 -2.28044820 5 0 5243 5.39600000 3186564401 3186564401 -25.00000000
20.90079689 18.66778564 -0.48915604 15 1 5243 28.02800000 3186564401 3186564401 -1.00000000
20.83430481 15.22608185 -0.75100124 14 2 5244 25.81600000 3186564404 3186564404 -1.66700000
6.97281027 5.63841486 -2.51028585 6 3 5244 9.31200000 3186564404 3186564404 -15.63900000
9.48253250 6.92746449 -2.34870076 3 4 5245 11.97600000 3186564406 3186564406 -11.31000000
40.19126892 32.48821640 0.00000000 22 5 5245 51.68000000 3186564406 3186564406 0.00000000
38.94369125 25.62989998 -0.54275388 12 6 5245 46.62400000 3186564408 3186564408 -0.66700000
10.68761158 8.63922501 -2.13804150 2 7 5245 13.90800000 3186564408 3186564408 -8.84300000
12.97805691 9.47764683 -2.04554534 1 8 5246 16.20000000 3186564411 3186564411 -7.25400000
40.60906601 36.23224640 0.31630760 36 9 5246 54.42400000 3186564411 3186564411 0.33300000
39.92462540 29.14557076 -0.28729451 18 10 5247 49.43200000 3186564413 3186564413 -0.33300000
13.73629665 11.09567451 -1.90204358 2 11 5247 17.76000000 3186564413 3186564413 -6.14800000
16.12080383 10.59744644 -1.80088425 2 12 5248 19.37600000 3186564415 3186564415 -5.33300000
40.01382828 32.31015778 1.19674897 31 13 5248 51.44400000 3186564415 3186564415 1.33300000
40.02452850 26.30120087 0.55756134 30 14 5249 47.89600000 3186564417 3186564417 0.66700000
17.58334351 14.19303799 -1.58012366 2 15 5249 22.65200000 3186564417 3186564417 -4.00000000
16.72469711 12.19585896 -1.68977737 2 16 5250 20.76800000 3186564420 3186564420 -4.66700000
39.95510483 35.59870148 1.55739081 33 17 5250 53.53600000 3186564420 3186564420 1.66700000
