# .PCD v0.7 - Point Cloud Data file format
VERSION 0.7
FIELDS x y z intensity laser_id azimuth distance_m adjustedtime timestamp vertical_angle
SIZE 4 4 4 1 1 2 8 8 4 8
TYPE F F F U U U F U U F
COUNT 1 1 1 1 1 1 1 1 1 1
WIDTH 508
HEIGHT 1
VIEWPOINT 0 0 0 1 0 0 0
POINTS 508
DATA ascii
7.42307568 -13.08292198 -3.00843930 3 4 14903 15.34000000 3178391159 3178391159 -11.31000000
38.25644302 -60.35233688 0.00000000 25 5 14903 71.45600000 3178391159 3178391159 0.00000000
37.79405594 -74.91695404 -0.97687316 29 6 14903 83.91600000 3178391161 3178391161 -0.66700000
9.83343601 -15.51296425 -2.85748577 3 7 14903 18.58800000 3178391161 3178391161 -8.84300000
11.46533871 -20.21549416 -2.95821190 2 8 14904 23.42800000 3178391164 3178391164 -7.25400000
38.48073196 -54.63084793 0.38837531 56 9 14904 66.82400000 3178391164 3178391164 0.33300000
37.28005219 -65.75830841 -0.43933418 56 10 14905 75.59200000 3178391166 3178391166 -0.33300000
13.80678177 -21.79803085 -2.77938271 3 11 14905 25.95200000 3178391166 3178391166 -6.14800000
14.60821819 -28.99476433 -3.03072023 4 12 14906 32.60800000 3178391168 3178391168 -5.33300000
40.54621124 -64.03873444 1.76371825 52 13 14906 75.81600000 3178391168 3178391168 1.33300000
37.10488892 -73.67872620 0.96038938 28 14 14907 82.50000000 3178391171 3178391171 0.66700000
19.74987793 -31.20503235 -2.58238459 10 15 14907 37.02000000 3178391171 3178391171 -4.00000000
17.25310326 -30.46993446 -2.85849667 6 16 14908 35.13200000 3178391173 3178391173 -4.66700000
43.14464951 -61.34310150 2.18260455 56 17 14908 75.02800000 3178391173 3178391173 1.66700000
38.07217026 -67.23755646 1.34872198 28 18 14908 77.28000000 3178391175 3178391175 1.00000000
19.92401695 -28.32798386 -2.21958256 12 19 14908 34.70400000 3178391175 3178391175 -3.66700000
19.75959778 -39.27051163 -2.56020999 20 20 14909 44.03600000 3178391178 3178391178 -3.33300000
41.16584396 -65.09277344 4.48530912 38 21 14909 77.14800000 3178391178 3178391178 3.33300000
37.58210373 -66.42614746 3.10938501 28 22 14910 76.38400000 3178391180 3178391180 2.33300000
19.87559319 -31.44007874 -1.73263288 12 23 14910 37.23600000 3178391180 3178391180 -2.66700000
19.77006531 -34.95770645 -2.10474277 19 24 14911 40.21600000 3178391182 3178391182 -3.00000000
66.35910797 -117.38491821 11.00796223 28 26 14912 135.29200000 3178391184 3178391184 4.66700000
38.32269669 -54.56816101 -2.71664119 28 27 14912 66.73600000 3178391184 3178391184 -2.33300000
38.53103256 -76.71046448 -2.99772716 28 28 14913 85.89600000 3178391187 3178391187 -2.00000000
38.31374741 -60.70013809 -1.67029345 21 31 14914 71.80000000 3178391189 3178391189 -1.33300000
3.15076542 -5.59399033 -2.99382782 17 0 14921 7.08400000 3178391210 3178391210 -25.00000000
37.99679565 -54.28520966 -1.15660584 28 1 14921 66.27200000 3178391210 3178391210 -1.00000000
38.76646805 -68.85558319 -2.29966497 28 2 14922 79.05200000 3178391212 3178391212 -1.66700000
5.70100021 -9.06004620 -2.99659967 6 3 14922 11.11600000 3178391212 3178391212 -15.63900000
7.39082861 -13.13268089 -3.01393056 1 4 14923 15.36800000 3178391214 3178391214 -11.31000000
38.25851440 -60.82409668 0.00000000 50 5 14923 71.85600000 3178391214 3178391214 0.00000000
37.48043442 -74.94467926 -0.97552276 29 6 14923 83.80000000 3178391217 3178391217 -0.66700000
9.80447865 -15.58734226 -2.86486483 3 7 14923 18.63600000 3178391217 3178391217 -8.84300000
11.40053940 -20.26576614 -2.95972705 2 8 14924 23.44000000 3178391219 3178391219 -7.25400000
38.43419647 -54.97135925 0.38983992 56 9 14924 67.07600000 3178391219 3178391219 0.33300000
37.04832458 -65.88455200 -0.43931094 56 10 14925 75.58800000 3178391221 3178391221 -0.33300000
13.75812054 -21.88986397 -2.78495169 3 11 14925 26.00400000 3178391221 3178391221 -6.14800000
14.54606915 -29.12396622 -3.03889918 4 12 14926 32.69600000 3178391224 3178391224 -5.33300000
40.32455444 -64.18326569 1.76381123 52 13 14926 75.82000000 3178391224 3178391224 1.33300000
36.92787170 -73.96883392 0.96248478 28 14 14927 82.68000000 3178391226 3178391226 0.66700000
19.74481964 -31.43935776 -2.59605694 10 15 14927 37.21600000 3178391226 3178391226 -4.00000000
17.17787361 -30.58558846 -2.86370397 6 16 14928 35.19600000 3178391228 3178391228 -4.66700000
43.61231232 -62.47029877 2.21728039 28 17 14928 76.22000000 3178391228 3178391228 1.66700000
37.79414749 -67.29332733 1.34718621 28 18 14928 77.19200000 3178391231 3178391231 1.00000000
19.91641426 -28.52828217 -2.22981572 12 19 14928 34.86400000 3178391231 3178391231 -3.66700000
19.72042847 -39.53577805 -2.57300043 10 20 14929 44.25600000 3178391233 3178391233 -3.33300000
40.28462219 -64.19429779 4.41368198 37 21 14929 75.91600000 3178391233 3178391233 3.33300000
39.63254929 -70.62437439 3.29940653 28 22 14930 81.05200000 3178391235 3178391235 2.33300000
19.86339569 -31.66496658 -1.74119461 12 23 14930 37.42000000 3178391235 3178391235 -2.66700000
19.76321983 -35.23205185 -2.11709404 19 24 14931 40.45200000 3178391237 3178391237 -3.00000000
65.69158173 -117.15682220 10.96500206 28 26 14932 134.76400000 3178391240 3178391240 4.66700000
38.28511810 -54.92127228 -2.72755051 28 27 14932 67.00400000 3178391240 3178391240 -2.33300000
38.58019638 -77.48146820 -3.02257562 28 28 14933 86.60800000 3178391242 3178391242 -2.00000000
38.09313965 -60.81995392 -1.66992128 21 31 14934 71.78400000 3178391244 3178391244 -1.33300000
3.13494492 -5.60702562 -2.99551821 16 0 14939 7.08800000 3178391265 3178391265 -25.00000000
38.15711212 -54.88044739 -1.16672826 28 1 14939 66.85200000 3178391265 3178391265 -1.00000000
38.81134033 -69.44471741 -2.31525731 28 2 14940 79.58800000 3178391267 3178391267 -1.66700000
5.67863274 -9.08771229 -2.99983454 6 3 14940 11.12800000 3178391267 3178391267 -15.63900000
7.38014174 -13.21062183 -3.02648211 1 4 14941 15.43200000 3178391270 3178391270 -11.31000000
38.16260147 -61.09665298 0.00000000 50 5 14941 72.03600000 3178391270 3178391270 0.00000000
37.44391632 -75.46334839 -0.98073798 29 6 14941 84.24800000 3178391272 3178391272 -0.66700000
9.76593113 -15.63482857 -2.86793923 2 7 14941 18.65600000 3178391272 3178391272 -8.84300000
11.34455490 -20.31534004 -2.96174741 5 8 14942 23.45600000 3178391274 3178391274 -7.25400000
38.55107880 -55.50907135 0.39279237 56 9 14942 67.58400000 3178391274 3178391274 0.33300000
36.85090637 -66.01808167 -0.43942717 56 10 14943 75.60800000 3178391277 3178391277 -0.33300000
13.69560051 -21.94309998 -2.78623676 3 11 14943 26.01600000 3178391277 3178391277 -6.14800000
14.48102760 -29.22304916 -3.04447579 4 12 14944 32.75600000 3178391279 3178391279 -5.33300000
40.13965225 -64.33677673 1.76455569 52 13 14944 75.85200000 3178391279 3178391279 1.33300000
38.62860107 -77.98762512 1.01319337 28 14 14945 87.03600000 3178391281 3178391281 0.66700000
19.75364113 -31.67390823 -2.61028719 15 15 14945 37.42000000 3178391281 3178391281 -4.00000000
17.15741348 -30.77520752 -2.87639689 6 16 14946 35.35200000 3178391284 3178391284 -4.66700000
43.33381653 -62.48872375 2.21309137 28 17 14946 76.07600000 3178391284 3178391284 1.66700000
37.60787201 -67.45714569 1.34809363 28 18 14946 77.24400000 3178391286 3178391286 1.00000000
19.91995621 -28.72520065 -2.24030471 13 19 14946 35.02800000 3178391286 3178391286 -3.66700000
19.76792908 -39.94469833 -2.59555840 10 20 14947 44.64400000 3178391288 3178391288 -3.33300000
39.95392227 -64.11380768 4.39949608 73 21 14947 75.67200000 3178391288 3178391288 3.33300000
39.41631317 -70.75900269 3.29989505 28 22 14948 81.06400000 3178391290 3178391290 2.33300000
19.87578964 -31.90696144 -1.75105929 12 23 14948 37.63200000 3178391290 3178391290 -2.66700000
19.77680779 -35.51732254 -2.13049221 19 24 14949 40.70800000 3178391293 3178391293 -3.00000000
64.64846039 -116.15036011 10.85174274 28 26 14950 133.37200000 3178391295 3178391295 4.66700000
38.41499329 -55.47829819 -2.74920678 28 27 14950 67.53600000 3178391295 3178391295 -2.33300000
38.54020691 -78.01445770 -3.03862929 28 28 14951 87.06800000 3178391297 3178391297 -2.00000000
38.20600891 -61.42830658 -1.68332088 22 31 14952 72.36000000 3178391300 3178391300 -1.33300000
3.13293481 -5.64963818 -3.01242304 15 0 14959 7.12800000 3178391320 3178391320 -25.00000000
38.18792725 -55.33588791 -1.17356956 28 1 14959 67.24400000 3178391320 3178391320 -1.00000000
38.83620071 -70.06236267 -2.33131552 28 2 14960 80.14000000 3178391323 3178391323 -1.66700000
5.64890575 -9.11075211 -3.00091290 6 3 14960 11.13200000 3178391323 3178391323 -15.63900000
7.34348774 -13.25345802 -3.03040433 1 4 14961 15.45200000 3178391325 3178391325 -11.31000000
38.06289291 -61.41308975 0.00000000 51 5 14961 72.25200000 3178391325 3178391325 0.00000000
37.80871201 -76.87130737 -0.99731487 29 6 14961 85.67200000 3178391327 3178391327 -0.66700000
9.72795296 -15.69569874 -2.87285852 3 7 14961 18.68800000 3178391327 3178391327 -8.84300000
11.32548046 -20.44853783 -2.97538447 5 8 14962 23.56400000 3178391330 3178391330 -7.25400000
38.56140137 -55.93969727 0.39488468 28 9 14962 67.94400000 3178391330 3178391330 0.33300000
36.71323013 -66.31428528 -0.44054306 28 10 14963 75.80000000 3178391332 3178391332 -0.33300000
13.63776684 -22.02120399 -2.79009223 3 11 14963 26.05200000 3178391332 3178391332 -6.14800000
14.43336391 -29.38423538 -3.05600095 4 12 14964 32.88000000 3178391334 3178391334 -5.33300000
39.26863098 -63.43265915 1.73598862 25 13 14964 74.62400000 3178391334 3178391334 1.33300000
38.30501938 -78.01786804 1.01184297 28 14 14965 86.92000000 3178391336 3178391336 0.66700000
19.73954582 -31.89875221 -2.62312245 10 15 14965 37.60400000 3178391336 3178391336 -4.00000000
17.07303238 -30.87677765 -2.88030243 6 16 14966 35.40000000 3178391339 3178391339 -4.66700000
43.11315918 -62.63631058 2.21297503 28 17 14966 76.07200000 3178391339 3178391339 1.66700000
38.50237656 -69.63199615 1.38886249 28 18 14966 79.58000000 3178391341 3178391341 1.00000000
19.90783310 -28.92279816 -2.25028205 19 19 14966 35.18400000 3178391341 3178391341 -3.66700000
19.72861862 -40.21780777 -2.60881424 10 20 14967 44.87200000 3178391343 3178391343 -3.33300000
40.02809525 -64.73516846 4.43251896 37 21 14967 76.24000000 3178391343 3178391343 3.33300000
39.25798798 -71.05708313 3.30738521 28 22 14968 81.24800000 3178391346 3178391346 2.33300000
19.86723137 -32.14268875 -1.76017940 12 23 14968 37.82800000 3178391346 3178391346 -2.66700000
19.76857376 -35.79594421 -2.14305282 19 24 14969 40.94800000 3178391348 3178391348 -3.00000000
64.06151581 -116.04723358 10.82114983 28 26 14970 132.99600000 3178391350 3178391350 4.66700000
38.39994049 -55.87226105 -2.76207042 57 27 14970 67.85200000 3178391350 3178391350 -2.33300000
38.54014969 -78.70500183 -3.06026697 28 28 14971 87.68800000 3178391353 3178391353 -2.00000000
38.20136642 -61.90160370 -1.69262612 44 31 14972 72.76000000 3178391355 3178391355 -1.33300000
3.10598087 -5.65209484 -3.00735164 15 0 14981 7.11600000 3178391376 3178391376 -25.00000000
38.32305145 -55.99036407 -1.18432033 28 1 14981 67.86000000 3178391376 3178391376 -1.00000000
38.70934296 -70.47029114 -2.33992624 28 2 14982 80.43600000 3178391378 3178391378 -1.66700000
3.62693453 -5.90011168 -1.93878603 15 3 14982 7.19200000 3178391378 3178391378 -15.63900000
7.29631996 -13.28843307 -3.03197336 1 4 14983 15.46000000 3178391380 3178391380 -11.31000000
37.90847397 -61.69169998 0.00000000 51 5 14983 72.40800000 3178391380 3178391380 0.00000000
37.39416504 -76.77140045 -0.99414849 29 6 14983 85.40000000 3178391383 3178391383 -0.66700000
9.68209934 -15.75650787 -2.87716293 3 7 14983 18.71600000 3178391383 3178391383 -8.84300000
11.25642586 -20.50926590 -2.97790980 5 8 14984 23.58400000 3178391385 3178391385 -7.25400000
38.61722565 -56.48358536 0.39767438 56 9 14984 68.42400000 3178391385 3178391385 0.33300000
36.54106140 -66.60556030 -0.44154271 28 10 14985 75.97200000 3178391387 3178391387 -0.33300000
13.60721588 -22.16152382 -2.80123043 3 11 14985 26.15600000 3178391387 3178391387 -6.14800000
14.34482002 -29.48957825 -3.06120586 4 12 14986 32.93600000 3178391389 3178391389 -5.33300000
38.90136337 -63.38188934 1.73049843 50 13 14986 74.38800000 3178391389 3178391389 1.33300000
37.54169464 -77.21115112 0.99950337 28 14 14987 85.86000000 3178391392 3178391392 0.66700000
19.72751236 -32.15457153 -2.63791084 10 15 14987 37.81600000 3178391392 3178391392 -4.00000000
16.98883247 -31.00503922 -2.88616061 6 16 14988 35.47200000 3178391394 3178391394 -4.66700000
42.95574570 -62.92357254 2.21728039 28 17 14988 76.22000000 3178391394 3178391394 1.66700000
37.56400681 -68.55524445 1.36449897 28 18 14988 78.18400000 3178391396 3178391396 1.00000000
19.89115715 -29.13749313 -2.26102686 19 19 14988 35.35200000 3178391396 3178391396 -3.66700000
19.72410774 -40.60216141 -2.62881398 10 20 14989 45.21600000 3178391399 3178391399 -3.33300000
39.77506256 -64.88157654 4.43205404 37 21 14989 76.23200000 3178391399 3178391399 3.33300000
40.40322113 -73.79799652 3.42771578 28 22 14990 84.20400000 3178391401 3178391401 2.33300000
19.84596634 -32.38567352 -1.76929939 12 23 14990 38.02400000 3178391401 3178391401 -2.66700000
19.74604034 -36.08183289 -2.15561342 20 24 14991 41.18800000 3178391403 3178391403 -3.00000000
63.58675385 -116.23989105 10.81626797 28 26 14992 132.93600000 3178391406 3178391406 4.66700000
38.49352264 -56.47172546 -2.78437805 28 27 14992 68.40000000 3178391406 3178391406 -2.33300000
38.65105057 -79.70487976 -3.09335184 28 28 14993 88.63600000 3178391408 3178391408 -2.00000000
38.19343185 -62.39932632 -1.70239663 22 31 14993 73.18000000 3178391410 3178391410 -1.33300000
3.05847549 -5.61197090 -2.98030400 16 0 15001 7.05200000 3178391431 3178391431 -25.00000000
38.20828247 -56.24288940 -1.18683350 28 1 15001 68.00400000 3178391431 3178391431 -1.00000000
38.33687973 -70.37324524 -2.33224630 28 2 15002 80.17200000 3178391433 3178391433 -1.66700000
7.26114464 -13.33448887 -3.03668022 1 4 15003 15.48400000 3178391436 3178391436 -11.31000000
37.76994324 -61.95001602 0.00000000 51 5 15003 72.55600000 3178391436 3178391436 0.00000000
37.17337418 -77.03401947 -0.99577826 29 6 15004 85.54000000 3178391438 3178391438 -0.66700000
9.63251114 -15.80538845 -2.87962270 3 7 15004 18.73200000 3178391438 3178391438 -8.84300000
11.19235420 -20.56237411 -2.97993016 5 8 15004 23.60000000 3178391440 3178391440 -7.25400000
38.61073303 -56.89937592 0.39965042 56 9 15004 68.76400000 3178391440 3178391440 0.33300000
37.54710388 -69.00948334 -0.45660719 28 10 15005 78.56400000 3178391442 3178391442 -0.33300000
13.55253410 -22.24624634 -2.80594277 3 11 15005 26.20000000 3178391442 3178391442 -6.14800000
14.26601028 -29.58969688 -3.06641078 4 12 15006 32.99200000 3178391445 3178391445 -5.33300000
38.82547379 -63.75637436 1.73701215 25 13 15006 74.66800000 3178391445 3178391445 1.33300000
39.00314331 -80.93407440 1.04592800 28 14 15007 89.84800000 3178391447 3178391447 0.66700000
19.72304153 -32.40047455 -2.65242004 10 15 15007 38.02400000 3178391447 3178391447 -4.00000000
16.94141388 -31.17624664 -2.89657521 6 16 15008 35.60000000 3178391449 3178391449 -4.66700000
42.57884598 -62.84143066 2.20913506 28 17 15008 75.94000000 3178391449 3178391449 1.66700000
37.24758530 -68.57297516 1.36212540 28 18 15009 78.04800000 3178391452 3178391452 1.00000000
19.88048744 -29.35231972 -2.27202773 19 19 15009 35.52400000 3178391452 3178391452 -3.66700000
19.68446732 -40.88304138 -2.64253473 10 20 15009 45.45200000 3178391454 3178391454 -3.33300000
39.56494141 -65.04731750 4.43391418 37 21 15009 76.26400000 3178391454 3178391454 3.33300000
40.07862473 -73.81564331 3.42201686 28 22 15010 84.06400000 3178391456 3178391456 2.33300000
19.84074020 -32.63228607 -1.77897787 12 23 15010 38.23200000 3178391456 3178391456 -2.66700000
19.74191856 -36.37522888 -2.16901135 30 24 15011 41.44400000 3178391459 3178391459 -3.00000000
63.37832642 -116.82559204 10.85011482 28 26 15012 133.35200000 3178391461 3178391461 4.66700000
38.49772263 -56.90367508 -2.79903269 28 27 15012 68.76000000 3178391461 3178391461 -2.33300000
38.63927460 -80.39418030 -3.11484981 28 28 15013 89.25200000 3178391463 3178391463 -2.00000000
38.27221298 -63.02104187 -1.71570313 23 31 15013 73.75200000 3178391466 3178391466 -1.33300000
2.99081063 -5.52908182 -2.93128037 15 0 15019 6.93600000 3178391486 3178391486 -25.00000000
38.24168015 -56.67428207 -1.19339550 28 1 15019 68.38000000 3178391486 3178391486 -1.00000000
38.79831314 -71.75598145 -2.37402034 28 2 15020 81.60800000 3178391489 3178391489 -1.66700000
3.56777000 -5.89108849 -1.92800295 220 3 15020 7.15200000 3178391489 3178391489 -15.63900000
7.25651646 -13.42624664 -3.05236959 1 4 15021 15.56400000 3178391491 3178391491 -11.31000000
37.53577805 -62.00335312 0.00000000 51 5 15021 72.48000000 3178391491 3178391491 0.00000000
36.95708847 -77.20453644 -0.99647671 29 6 15022 85.60000000 3178391493 3178391493 -0.66700000
9.58894920 -15.84571648 -2.88146734 2 7 15022 18.74400000 3178391493 3178391493 -8.84300000
11.13524532 -20.61139870 -2.98195028 5 8 15022 23.61600000 3178391495 3178391495 -7.25400000
38.68888092 -57.40183640 0.40232390 56 9 15022 69.22400000 3178391495 3178391495 0.33300000
36.94239426 -68.40911102 -0.45186466 28 10 15023 77.74800000 3178391498 3178391498 -0.33300000
13.50728035 -22.32954788 -2.81108332 3 11 15023 26.24800000 3178391498 3178391498 -6.14800000
14.21593952 -29.72419167 -3.07570505 4 12 15024 33.09200000 3178391500 3178391500 -5.33300000
38.80086517 -64.16889954 1.74492157 51 13 15024 75.00800000 3178391500 3178391500 1.33300000
38.83321762 -81.23302460 1.04820967 28 14 15025 90.04400000 3178391502 3178391502 0.66700000
19.72642326 -32.63644028 -2.66665053 10 15 15025 38.22800000 3178391502 3178391502 -4.00000000
16.87934494 -31.29598427 -2.90275884 6 16 15026 35.67600000 3178391505 3178391505 -4.66700000
42.23164368 -62.75263977 2.20133901 56 17 15026 75.67200000 3178391505 3178391505 1.66700000
37.22621918 -69.02111053 1.36882710 28 18 15026 78.43200000 3178391507 3178391507 1.00000000
19.88691521 -29.55026817 -2.28277254 20 19 15026 35.69200000 3178391507 3178391507 -3.66700000
19.72631454 -41.30141068 -2.66555786 20 20 15027 45.84800000 3178391509 3178391509 -3.33300000
40.59905243 -67.22221375 4.57344818 40 21 15027 78.66400000 3178391509 3178391509 3.33300000
40.00010681 -74.22617340 3.43520594 28 22 15028 84.38800000 3178391512 3178391512 2.33300000
19.84551048 -32.87232971 -1.78865635 12 23 15028 38.44000000 3178391512 3178391512 -2.66700000
19.75067902 -36.66565704 -2.18261862 30 24 15029 41.70400000 3178391514 3178391514 -3.00000000
63.64416885 -118.20005035 10.95914364 28 26 15030 134.69200000 3178391516 3178391516 4.66700000
38.44136810 -57.20679092 -2.80798817 28 27 15030 68.98000000 3178391516 3178391516 -2.33300000
38.64629364 -81.06004333 -3.13592911 28 28 15031 89.85600000 3178391519 3178391519 -2.00000000
38.11326981 -63.20603180 -1.71747112 23 31 15031 73.82800000 3178391521 3178391521 -1.33300000
2.99108267 -5.57834578 -2.95156598 14 0 15040 6.98400000 3178391541 3178391541 -25.00000000
38.28955841 -57.19625854 -1.20142365 28 1 15040 68.84000000 3178391541 3178391541 -1.00000000
38.80892944 -72.40869141 -2.39089274 28 2 15041 82.18800000 3178391543 3178391543 -1.66700000
3.55012083 -5.91072989 -1.93015957 134 3 15041 7.16000000 3178391543 3178391543 -15.63900000
7.21281481 -13.46312523 -3.05472302 3 4 15042 15.57600000 3178391546 3178391546 -11.31000000
37.62946701 -62.67549896 0.00000000 51 5 15042 73.10400000 3178391546 3178391546 0.00000000
36.77136993 -77.51014709 -0.99875838 29 6 15042 85.79600000 3178391548 3178391548 -0.66700000
9.55595779 -15.91636658 -2.88823128 3 7 15042 18.78800000 3178391548 3178391548 -8.84300000
11.07273865 -20.67655945 -2.98548579 5 8 15043 23.64400000 3178391550 3178391550 -7.25400000
38.69168091 -57.86245728 0.40455568 56 9 15043 69.60800000 3178391550 3178391550 0.33300000
37.00288391 -69.12592316 -0.45570052 28 10 15044 78.40800000 3178391553 3178391553 -0.33300000
13.43762302 -22.39936638 -2.81365371 3 11 15044 26.27200000 3178391553 3178391553 -6.14800000
14.12054157 -29.80488968 -3.07867932 4 12 15045 33.12400000 3178391555 3178391555 -5.33300000
38.45641327 -64.12892151 1.73998988 51 13 15045 74.79600000 3178391555 3178391555 1.33300000
38.62424088 -81.56278229 1.05063105 28 14 15046 90.25200000 3178391557 3178391557 0.66700000
19.71950912 -32.89675522 -2.68199682 10 15 15046 38.44800000 3178391557 3178391557 -4.00000000
16.81903648 -31.45959854 -2.91219711 6 16 15047 35.79200000 3178391559 3178391559 -4.66700000
41.97694016 -62.87042618 2.20005894 56 17 15047 75.62800000 3178391559 3178391559 1.66700000
37.73477936 -70.58198547 1.39703023 28 18 15047 80.04800000 3178391562 3178391562 1.00000000
19.87822151 -29.77235222 -2.29428482 20 19 15047 35.87200000 3178391562 3178391562 -3.66700000
19.66190147 -41.55752182 -2.67741823 10 20 15048 46.05200000 3178391564 3178391564 -3.33300000
40.37496567 -67.40824127 4.57600594 40 21 15048 78.70800000 3178391564 3178391564 3.33300000
39.93492508 -74.76006317 3.45311713 28 22 15049 84.82800000 3178391566 3178391566 2.33300000
19.82752037 -33.11625671 -1.79796267 13 23 15049 38.64000000 3178391566 3178391566 -2.66700000
19.72716522 -36.94569778 -2.19496989 20 24 15050 41.94000000 3178391569 3178391569 -3.00000000
63.02279663 -118.08081055 10.92659760 28 26 15051 134.29200000 3178391571 3178391571 4.66700000
38.34671783 -57.52022552 -2.81645536 28 27 15051 69.18800000 3178391571 3178391571 -2.33300000
38.60841751 -81.75057983 -3.15714812 28 28 15052 90.46400000 3178391573 3178391573 -2.00000000
37.96345139 -63.48258209 -1.72119319 23 31 15052 73.98800000 3178391576 3178391576 -1.33300000
2.99371767 -5.63036394 -2.97354198 13 0 15060 7.03600000 3178391596 3178391596 -25.00000000
38.22025299 -57.52610397 -1.20554245 28 1 15060 69.07600000 3178391596 3178391596 -1.00000000
38.57658005 -72.58255005 -2.39217281 28 2 15061 82.23200000 3178391599 3178391599 -1.66700000
7.16393566 -13.48475647 -3.05393839 5 4 15062 15.57200000 3178391601 3178391601 -11.31000000
37.54965591 -63.04015350 0.00000000 51 5 15062 73.37600000 3178391601 3178391601 0.00000000
37.67988968 -80.14644623 -1.03102744 29 6 15062 88.56800000 3178391603 3178391603 -0.66700000
9.51247692 -15.97000027 -2.89192080 2 7 15062 18.81200000 3178391603 3178391603 -8.84300000
11.00980186 -20.73260689 -2.98801136 5 8 15063 23.66400000 3178391606 3178391606 -7.25400000
38.68410492 -58.29044724 0.40660149 56 9 15063 69.96000000 3178391606 3178391606 0.33300000
37.90535355 -71.40982056 -0.46988159 28 10 15064 80.84800000 3178391608 3178391608 -0.33300000
13.41223717 -22.53499222 -2.82479167 3 11 15064 26.37600000 3178391608 3178391608 -6.14800000
14.06380939 -29.95494080 -3.08908916 4 12 15065 33.23600000 3178391610 3178391610 -5.33300000
38.16281128 -64.14591980 1.73682606 50 13 15065 74.66000000 3178391610 3178391610 1.33300000
38.57548523 -82.20040894 1.05710351 28 14 15066 90.80800000 3178391612 3178391612 0.66700000
19.78812027 -33.27405548 -2.70710921 16 15 15066 38.80800000 3178391612 3178391612 -4.00000000
16.77634430 -31.64492226 -2.92391372 6 16 15067 35.93600000 3178391615 3178391615 -4.66700000
41.81464767 -63.10322952 2.20308423 28 17 15067 75.73200000 3178391615 3178391615 1.66700000
37.50315857 -70.74154663 1.39758873 28 18 15067 80.08000000 3178391617 3178391617 1.00000000
19.86898804 -29.98464394 -2.30528545 13 19 15067 36.04400000 3178391617 3178391617 -3.66700000
19.68454361 -41.98384476 -2.70044136 10 20 15068 46.44800000 3178391619 3178391619 -3.33300000
40.65348053 -68.41385651 4.63461018 41 21 15068 79.71600000 3178391619 3178391619 3.33300000
40.05723190 -75.62303162 3.48649716 28 22 15069 85.64800000 3178391622 3178391622 2.33300000
19.82403374 -33.37420654 -1.80819952 13 23 15069 38.86000000 3178391622 3178391622 -2.66700000
19.73079109 -37.26498032 -2.20983338 21 24 15070 42.22400000 3178391624 3178391624 -3.00000000
62.61023712 -118.30007935 10.92659760 28 26 15071 134.29200000 3178391626 3178391626 4.66700000
38.34638596 -57.95704651 -2.83127284 28 27 15071 69.55200000 3178391626 3178391626 -2.33300000
38.56513214 -82.40261078 -3.17711067 28 28 15072 91.03600000 3178391629 3178391629 -2.00000000
38.15990829 -64.31974792 -1.74026895 23 31 15072 74.80800000 3178391631 3178391631 -1.33300000
2.99194336 -5.67232561 -2.99044681 21 0 15079 7.07600000 3178391652 3178391652 -25.00000000
38.23628235 -57.96635056 -1.21210456 28 1 15079 69.45200000 3178391652 3178391652 -1.00000000
38.22565460 -72.50140381 -2.38530731 28 2 15080 81.99600000 3178391654 3178391654 -1.66700000
5.48627758 -9.27678871 -3.01708746 6 3 15080 11.19200000 3178391654 3178391654 -15.63900000
7.07163286 -13.41822147 -3.03354216 5 4 15081 15.46800000 3178391656 3178391656 -11.31000000
37.65184021 -63.69115448 0.00000000 26 5 15081 73.98800000 3178391656 3178391656 0.00000000
37.31252670 -80.05344391 -1.02823365 29 6 15081 88.32800000 3178391659 3178391659 -0.66700000
9.47957993 -16.03548050 -2.89806986 2 7 15081 18.85200000 3178391659 3178391659 -8.84300000
10.98907375 -20.86027908 -3.00114322 5 8 15082 23.76800000 3178391661 3178391661 -7.25400000
38.61383438 -58.60545349 0.40790334 56 9 15082 70.18400000 3178391661 3178391661 0.33300000
37.64225006 -71.48558044 -0.46955612 28 10 15083 80.79200000 3178391663 3178391663 -0.33300000
13.35766125 -22.61358643 -2.82907557 3 11 15083 26.41600000 3178391663 3178391663 -6.14800000
14.01313591 -30.10612488 -3.09987068 4 12 15084 33.35200000 3178391665 3178391665 -5.33300000
37.90108871 -64.18947601 1.73459280 50 13 15084 74.56400000 3178391665 3178391665 1.33300000
38.33811951 -82.40402985 1.05808139 28 14 15085 90.89200000 3178391668 3178391668 0.66700000
19.79125023 -33.53192902 -2.72273469 16 15 15085 39.03200000 3178391668 3178391668 -4.00000000
16.71028328 -31.77448082 -2.93074822 6 16 15086 36.02000000 3178391670 3178391670 -4.66700000
43.43567276 -66.02399445 2.30001402 28 17 15086 79.06400000 3178391670 3178391670 1.66700000
37.23366547 -70.82954407 1.39675105 28 18 15087 80.03200000 3178391672 3178391672 1.00000000
19.86070824 -30.20056725 -2.31654215 14 19 15087 36.22000000 3178391672 3178391672 -3.66700000
19.68828201 -42.35668564 -2.72020841 10 20 15087 46.78800000 3178391675 3178391675 -3.33300000
40.60084152 -68.84410095 4.65461016 42 21 15087 80.06000000 3178391675 3178391675 3.33300000
39.87688065 -75.88989258 3.49268460 28 22 15088 85.80000000 3178391677 3178391677 2.33300000
19.82079697 -33.62219238 -1.81806409 13 23 15088 39.07200000 3178391677 3178391677 -2.66700000
19.72041130 -37.54592514 -2.22260332 21 24 15089 42.46800000 3178391679 3178391679 -3.00000000
62.83100510 -119.67543030 11.03432465 28 26 15090 135.61600000 3178391682 3178391682 4.66700000
38.26808548 -58.25759125 -2.83973980 28 27 15090 69.76000000 3178391682 3178391682 -2.33300000
38.39597702 -82.75486755 -3.18576574 28 28 15091 91.28400000 3178391684 3178391684 -2.00000000
37.83684158 -64.25985718 -1.73524415 23 31 15091 74.59200000 3178391686 3178391686 -1.33300000
2.97617173 -5.69289160 -2.99551821 15 0 15100 7.08800000 3178391707 3178391707 -25.00000000
38.22285080 -58.41064072 -1.21845722 28 1 15100 69.81600000 3178391707 3178391707 -1.00000000
38.24298859 -73.18319702 -2.40311074 28 2 15101 82.60800000 3178391709 3178391709 -1.66700000
5.45418835 -9.30015755 -3.01816583 6 3 15101 11.19600000 3178391709 3178391709 -15.63900000
7.02966881 -13.45795631 -3.03668022 20 4 15102 15.48400000 3178391711 3178391711 -11.31000000
37.53952408 -64.03577423 0.00000000 26 5 15102 74.22800000 3178391711 3178391711 0.00000000
37.09033203 -80.38134003 -1.03060842 29 6 15103 88.53200000 3178391714 3178391714 -0.66700000
9.42792988 -16.08881187 -2.90114450 2 7 15103 18.87200000 3178391714 3178391714 -8.84300000
10.92172527 -20.91800308 -3.00366855 2 8 15103 23.78800000 3178391716 3178391716 -7.25400000
38.49944305 -58.90060425 0.40897274 56 9 15103 70.36800000 3178391716 3178391716 0.33300000
37.39479446 -71.65143585 -0.46974212 28 10 15104 80.82400000 3178391718 3178391718 -0.33300000
13.29076862 -22.68984604 -2.83250284 3 11 15104 26.44800000 3178391718 3178391718 -6.14800000
13.92270660 -30.20068550 -3.10433197 4 12 15105 33.40000000 3178391721 3178391721 -5.33300000
37.71608353 -64.41423035 1.73691905 25 13 15105 74.66400000 3178391721 3178391721 1.33300000
38.07935715 -82.63844299 1.05929196 28 14 15106 90.99600000 3178391723 3178391723 0.66700000
19.76899719 -33.77642822 -2.73668599 16 15 15106 39.23200000 3178391723 3178391723 -4.00000000
16.65083504 -31.94510841 -2.94083762 6 16 15107 36.14400000 3178391725 3178391725 -4.66700000
41.45612717 -63.52084732 2.20750618 28 17 15107 75.88400000 3178391725 3178391725 1.66700000
37.03980255 -71.06193542 1.39877546 28 18 15107 80.14800000 3178391728 3178391728 1.00000000
19.85770798 -30.42682457 -2.32856607 14 19 15107 36.40800000 3178391728 3178391728 -3.66700000
19.65146828 -42.68610382 -2.73672009 10 20 15108 47.07200000 3178391730 3178391730 -3.33300000
40.48330688 -69.22339630 4.67019129 42 21 15108 80.32800000 3178391730 3178391730 3.33300000
42.33805084 -81.29598999 3.73432302 28 22 15109 91.73600000 3178391732 3178391732 2.33300000
19.81439018 -33.89468384 -1.82885933 13 23 15109 39.30400000 3178391732 3178391732 -2.66700000
19.70255661 -37.84825897 -2.23621082 21 24 15110 42.72800000 3178391735 3178391735 -3.00000000
60.46888351 -116.20915985 10.69422054 28 26 15111 131.43600000 3178391737 3178391737 4.66700000
38.17649841 -58.58497620 -2.84885836 28 27 15111 69.98400000 3178391737 3178391737 -2.33300000
38.32275391 -83.39631653 -3.20503020 28 28 15112 91.83600000 3178391739 3178391739 -2.00000000
38.05344772 -65.19901276 -1.75664628 24 31 15113 75.51200000 3178391741 3178391741 -1.33300000
2.94225717 -5.67376566 -2.98030400 14 0 15119 7.05200000 3178391762 3178391762 -25.00000000
38.23810959 -58.85903549 -1.22515893 28 1 15119 70.20000000 3178391762 3178391762 -1.00000000
37.89153290 -73.10018158 -2.39624548 28 2 15120 82.37200000 3178391764 3178391764 -1.66700000
5.43106794 -9.33150959 -3.02247906 6 3 15120 11.21200000 3178391764 3178391764 -15.63900000
6.99763298 -13.50557137 -3.04217148 20 4 15121 15.51200000 3178391767 3178391767 -11.31000000
37.80770874 -64.98623657 0.00000000 26 5 15121 75.18400000 3178391767 3178391767 0.00000000
36.84520340 -80.55117798 -1.03121376 29 6 15122 88.58400000 3178391769 3178391769 -0.66700000
9.38644695 -16.14048767 -2.90483379 2 7 15122 18.89600000 3178391769 3178391769 -8.84300000
10.85777283 -20.96467590 -3.00518370 5 8 15122 23.80000000 3178391771 3178391771 -7.25400000
38.43672943 -59.23262787 0.41039085 56 9 15122 70.61200000 3178391771 3178391771 0.33300000
37.15514374 -71.77149200 -0.46971887 28 10 15123 80.82000000 3178391774 3178391774 -0.33300000
13.26941872 -22.82662773 -2.84406924 3 11 15123 26.55600000 3178391774 3178391774 -6.14800000
13.87710857 -30.36622620 -3.11660051 4 12 15124 33.53200000 3178391776 3178391776 -5.33300000
37.87194824 -65.17514038 1.75404072 25 13 15124 75.40000000 3178391776 3178391776 1.33300000
37.72534180 -82.58963776 1.05705690 28 14 15125 90.80400000 3178391778 3178391778 0.66700000
19.75708961 -34.01432037 -2.75063729 16 15 15125 39.43200000 3178391778 3178391778 -4.00000000
16.57410622 -32.05681229 -2.94604492 7 16 15126 36.20800000 3178391781 3178391781 -4.66700000
41.21916962 -63.61770248 2.20610976 28 17 15126 75.83600000 3178391781 3178391781 1.66700000
39.58853912 -76.57018280 1.50460684 28 18 15126 86.21200000 3178391783 3178391783 1.00000000
19.85437584 -30.64326286 -2.34007835 14 19 15126 36.58800000 3178391783 3178391783 -3.66700000
19.66730690 -43.09615326 -2.75881290 10 20 15127 47.45200000 3178391785 3178391785 -3.33300000
40.43794250 -69.67500305 4.69158649 42 21 15127 80.69600000 3178391785 3178391785 3.33300000
39.92024231 -77.27785492 3.54365015 28 22 15128 87.05200000 3178391788 3178391788 2.33300000
19.80815125 -34.14337921 -1.83872390 13 23 15128 39.51600000 3178391788 3178391788 -2.66700000
19.70156288 -38.15473557 -2.25044608 21 24 15129 43.00000000 3178391790 3178391790 -3.00000000
59.94970703 -116.15042877 10.67046261 28 26 15130 131.14400000 3178391792 3178391792 4.66700000
38.18173599 -59.01997375 -2.86383867 28 27 15130 70.35200000 3178391792 3178391792 -2.33300000
38.35421753 -84.19959259 -3.23099542 28 28 15131 92.58000000 3178391794 3178391794 -2.00000000
38.46994781 -66.39084625 -1.78549254 25 31 15131 76.75200000 3178391797 3178391797 -1.33300000
2.91812778 -5.67806244 -2.97692299 15 0 15140 7.04400000 3178391817 3178391817 -25.00000000
38.11528397 -59.14334488 -1.22816074 28 1 15140 70.37200000 3178391817 3178391817 -1.00000000
37.94307709 -73.86095428 -2.41660881 28 2 15141 83.07200000 3178391820 3178391820 -1.66700000
5.40453148 -9.36469746 -3.02679205 6 3 15141 11.22800000 3178391820 3178391820 -15.63900000
6.95166922 -13.53810692 -3.04374027 5 4 15142 15.52000000 3178391822 3178391822 -11.31000000
37.52329636 -65.04468536 0.00000000 26 5 15142 75.09200000 3178391822 3178391822 0.00000000
38.01836395 -83.88883972 -1.07223690 29 6 15142 92.10800000 3178391824 3178391824 -0.66700000
9.33794975 -16.18684959 -2.90729356 2 7 15142 18.91200000 3178391824 3178391824 -8.84300000
10.79173183 -21.02551079 -3.00821424 5 8 15143 23.82400000 3178391827 3178391827 -7.25400000
38.65237808 -60.04577637 0.41504037 56 9 15143 71.41200000 3178391827 3178391827 0.33300000
36.95574570 -72.03175354 -0.47053254 28 10 15144 80.96000000 3178391829 3178391829 -0.33300000
13.19758224 -22.89578247 -2.84663963 3 11 15144 26.58000000 3178391829 3178391829 -6.14800000
13.78870678 -30.46768188 -3.12180543 4 12 15145 33.58800000 3178391831 3178391831 -5.33300000
37.85841370 -65.70504761 1.76455569 26 13 15145 75.85200000 3178391831 3178391831 1.33300000
44.30318069 -97.93830872 1.25141644 28 14 15146 107.50000000 3178391834 3178391834 0.66700000
19.73783875 -34.26976776 -2.76542568 11 15 15146 39.64400000 3178391834 3178391834 -4.00000000
16.51285744 -32.22733307 -2.95613408 7 16 15147 36.33200000 3178391836 3178391836 -4.66700000
41.09164810 -63.93316269 2.21181154 28 17 15147 76.03200000 3178391836 3178391836 1.66700000
39.24015045 -76.58306885 1.50202394 28 18 15147 86.06400000 3178391838 3178391838 1.00000000
19.84121132 -30.87029648 -2.35184669 21 19 15147 36.77200000 3178391838 3178391838 -3.66700000
19.66216087 -43.50636292 -2.78044057 10 20 15148 47.82400000 3178391841 3178391841 -3.33300000
39.47919846 -68.60100555 4.60949421 41 21 15148 79.28400000 3178391841 3178391841 3.33300000
39.80065536 -77.74383545 3.55830479 28 22 15149 87.41200000 3178391843 3178391843 2.33300000
19.79644394 -34.41316986 -1.84933293 13 23 15149 39.74400000 3178391843 3178391843 -2.66700000
19.69078255 -38.47916412 -2.26530957 22 24 15150 43.28400000 3178391845 3178391845 -3.00000000
59.63796997 -116.59298706 10.69096661 28 26 15151 131.39600000 3178391847 3178391847 4.66700000
38.31053162 -59.69770432 -2.88989115 28 27 15151 70.99200000 3178391847 3178391847 -2.33300000
38.29191971 -84.88619232 -3.25193501 28 28 15152 93.18000000 3178391850 3178391850 -2.00000000
38.57123947 -67.15879059 -1.80214894 26 31 15153 77.46800000 3178391852 3178391852 -1.33300000
2.90356922 -5.69366121 -2.98030400 20 0 15158 7.05200000 3178391873 3178391873 -25.00000000
38.37125778 -59.95334625 -1.24247169 28 1 15158 71.19200000 3178391873 3178391873 -1.00000000
37.74171829 -74.04034424 -2.41858697 28 2 15159 83.14000000 3178391875 3178391875 -1.66700000
5.37508488 -9.38162994 -3.02679205 6 3 15159 11.22800000 3178391875 3178391875 -15.63900000
37.21738434 -64.98522186 0.00000000 26 5 15160 74.88800000 3178391877 3178391877 0.00000000
37.88415909 -84.29607391 -1.07591546 29 6 15160 92.42400000 3178391880 3178391880 -0.66700000
9.30865765 -16.25383377 -2.91405749 2 7 15160 18.95600000 3178391880 3178391880 -8.84300000
10.73462963 -21.07699013 -3.01073956 5 8 15161 23.84400000 3178391882 3178391882 -7.25400000
38.56911850 -60.33204651 0.41617951 56 9 15161 71.60800000 3178391882 3178391882 0.33300000
36.74560165 -72.17957306 -0.47074175 28 10 15162 80.99600000 3178391884 3178391884 -0.33300000
13.13743973 -22.95784187 -2.84920979 3 11 15162 26.60400000 3178391884 3178391884 -6.14800000
13.74347305 -30.62348938 -3.13333035 4 12 15163 33.71200000 3178391887 3178391887 -5.33300000
37.55054474 -65.64662933 1.75980997 26 13 15163 75.64800000 3178391887 3178391887 1.33300000
44.10987091 -98.33246613 1.25467598 28 14 15164 107.78000000 3178391889 3178391889 0.66700000
19.79645348 -34.62258148 -2.78886390 11 15 15164 39.98000000 3178391889 3178391889 -4.00000000
16.43682671 -32.32880402 -2.96069050 7 16 15165 36.38800000 3178391891 3178391891 -4.66700000
40.78733444 -63.90016937 2.20622611 56 17 15165 75.84000000 3178391891 3178391891 1.66700000
39.24950027 -77.19794464 1.51165760 28 18 15165 86.61600000 3178391894 3178391894 1.00000000
19.84077835 -31.08389091 -2.36335897 21 19 15165 36.95200000 3178391894 3178391894 -3.66700000
19.62663841 -43.79384613 -2.79485893 10 20 15166 48.07200000 3178391896 3178391896 -3.33300000
39.26943207 -68.73509979 4.61019182 82 21 15166 79.29600000 3178391896 3178391896 3.33300000
39.57612991 -77.90768433 3.56009603 28 22 15167 87.45600000 3178391898 3178391898 2.33300000
19.80514336 -34.67990875 -1.86031437 13 23 15167 39.98000000 3178391898 3178391898 -2.66700000
19.70543861 -38.80796051 -2.28101039 22 24 15168 43.58400000 3178391900 3178391900 -3.00000000
59.15951920 -116.55935669 10.67078781 28 26 15169 131.14800000 3178391903 3178391903 4.66700000
38.24093628 -60.00313568 -2.89884686 28 27 15169 71.21200000 3178391903 3178391903 -2.33300000
38.38416672 -85.80887604 -3.28264666 28 28 15170 94.06000000 3178391905 3178391905 -2.00000000
38.69083786 -67.85977936 -1.81768870 26 31 15171 78.13600000 3178391907 3178391907 -1.33300000
2.89185524 -5.71993828 -2.98875642 16 0 15178 7.07200000 3178391928 3178391928 -25.00000000
38.38045120 -60.43127823 -1.24959230 28 1 15178 71.60000000 3178391928 3178391928 -1.00000000
38.04569244 -75.28501129 -2.45489192 28 2 15179 84.38800000 3178391930 3178391930 -1.66700000
5.34991693 -9.41373062 -3.03110528 6 3 15179 11.24400000 3178391930 3178391930 -15.63900000
6.90770960 -13.67494011 -3.06413651 3 4 15180 15.62400000 3178391933 3178391933 -11.31000000
37.26890182 -65.60513306 0.00000000 26 5 15180 75.45200000 3178391933 3178391933 0.00000000
37.75724411 -84.80416107 -1.08071160 29 6 15180 92.83600000 3178391935 3178391935 -0.66700000
9.26162624 -16.30341148 -2.91713214 2 7 15180 18.97600000 3178391935 3178391935 -8.84300000
10.67708778 -21.14621162 -3.01528525 5 8 15181 23.88000000 3178391937 3178391937 -7.25400000
38.55326843 -60.77367401 0.41829506 56 9 15181 71.97200000 3178391937 3178391937 0.33300000
36.59795380 -72.51451874 -0.47209013 28 10 15182 81.22800000 3178391940 3178391940 -0.33300000
13.08863354 -23.05889893 -2.85606408 3 11 15182 26.66800000 3178391940 3178391940 -6.14800000
13.69474220 -30.80228806 -3.14671445 4 12 15183 33.85600000 3178391942 3178391942 -5.33300000
37.40996933 -65.93381500 1.76399744 26 13 15183 75.82800000 3178391942 3178391942 1.33300000
42.86163330 -96.44996643 1.22873962 28 14 15184 105.55200000 3178391944 3178391944 0.66700000
19.71287918 -34.75741959 -2.79416537 11 15 15184 40.05600000 3178391944 3178391944 -4.00000000
16.39924431 -32.53550339 -2.97435975 7 16 15185 36.55600000 3178391947 3178391947 -4.66700000
40.56831360 -64.04890442 2.20645881 28 17 15185 75.84800000 3178391947 3178391947 1.66700000
41.39194870 -82.12012482 1.60520256 28 18 15185 91.97600000 3178391949 3178391949 1.00000000
19.84108925 -31.32494545 -2.37640643 22 19 15185 37.15600000 3178391949 3178391949 -3.66700000
19.62920570 -44.21245956 -2.81718445 10 20 15186 48.45600000 3178391951 3178391951 -3.33300000
39.10407639 -69.00376892 4.61902905 41 21 15186 79.44800000 3178391951 3178391951 3.33300000
39.99064636 -79.40893555 3.62229657 28 22 15187 88.98400000 3178391953 3178391953 2.33300000
19.79819107 -34.95047379 -1.87110949 13 23 15187 40.21200000 3178391953 3178391953 -2.66700000
19.68839264 -39.11199570 -2.29482698 22 24 15188 43.84800000 3178391956 3178391956 -3.00000000
58.81859207 -116.89691925 10.68282986 28 26 15189 131.29600000 3178391958 3178391958 4.66700000
38.10815811 -60.25785828 -2.90470862 28 27 15189 71.35600000 3178391958 3178391958 -2.33300000
38.39698410 -86.64771271 -3.30958915 28 28 15190 94.83200000 3178391960 3178391960 -2.00000000
38.66633224 -68.37035370 -1.82773840 26 31 15191 78.56800000 3178391963 3178391963 -1.33300000
2.88873291 -5.76615238 -3.00735164 14 0 15199 7.11600000 3178391983 3178391983 -25.00000000
38.18641663 -60.61553574 -1.25049984 28 1 15199 71.65200000 3178391983 3178391983 -1.00000000
37.85901642 -75.60270691 -2.46071005 28 2 15200 84.58800000 3178391986 3178391986 -1.66700000
5.32105064 -9.44334316 -3.03434038 6 3 15200 11.25600000 3178391986 3178391986 -15.63900000
6.85929728 -13.70367432 -3.06492090 3 4 15201 15.62800000 3178391988 3178391988 -11.31000000
37.28142548 -66.19087982 0.00000000 26 5 15201 75.96800000 3178391988 3178391988 0.00000000
37.65430069 -85.41410065 -1.08671844 29 6 15201 93.35200000 3178391990 3178391990 -0.66700000
9.21732616 -16.36479759 -2.92205143 2 7 15201 19.00800000 3178391990 3178391990 -8.84300000
10.64567375 -21.27746582 -3.02841711 5 8 15202 23.98400000 3178391993 3178391993 -7.25400000
38.54116058 -61.24972916 0.42059657 56 9 15202 72.36800000 3178391993 3178391993 0.33300000
37.65588760 -75.29550934 -0.48929340 28 10 15203 84.18800000 3178391995 3178391995 -0.33300000
13.05669403 -23.20029259 -2.86763048 3 11 15203 26.77600000 3178391995 3178391995 -6.14800000
13.61063766 -30.91788673 -3.15340638 4 12 15204 33.92800000 3178391997 3178391997 -5.33300000
39.12282944 -69.54531097 1.85677075 28 13 15204 79.81600000 3178391997 3178391997 1.33300000
42.37252426 -96.29888916 1.22482824 28 14 15205 105.21600000 3178391999 3178391999 0.66700000
19.66749763 -34.97551727 -2.80588436 5 15 15205 40.22400000 3178391999 3178391999 -4.00000000
16.29235458 -32.62035751 -2.97663784 7 16 15206 36.58400000 3178392002 3178392002 -4.66700000
40.35030746 -64.22425079 2.20738983 28 17 15206 75.88000000 3178392002 3178392002 1.66700000
40.05957794 -80.20680237 1.56492233 28 18 15206 89.66800000 3178392004 3178392004 1.00000000
19.83232498 -31.56645966 -2.38919783 22 19 15206 37.35600000 3178392004 3178392004 -3.66700000
19.61486816 -44.62042618 -2.83857965 10 20 15207 48.82400000 3178392006 3178392006 -3.33300000
38.93696594 -69.29981232 4.62926149 83 21 15207 79.62400000 3178392006 3178392006 3.33300000
40.39352036 -80.94609833 3.68563724 28 22 15208 90.54000000 3178392009 3178392009 2.33300000
19.78539848 -35.22834778 -1.88209093 14 23 15208 40.44800000 3178392009 3178392009 -2.66700000
19.67684746 -39.44840622 -2.31031847 22 24 15209 44.14400000 3178392011 3178392011 -3.00000000
58.50537491 -117.34362793 10.70398426 28 26 15210 131.55600000 3178392013 3178392013 4.66700000
38.08243942 -60.70861053 -2.91968894 28 27 15210 71.72400000 3178392013 3178392013 -2.33300000
38.26385498 -87.20884705 -3.32564282 28 28 15211 95.29200000 3178392016 3178392016 -2.00000000
38.64431000 -68.91970825 -1.83862555 27 31 15212 79.03600000 3178392018 3178392018 -1.33300000
2.89540434 -5.82764578 -3.03439903 13 0 15218 7.18000000 3178392039 3178392039 -25.00000000
38.18452835 -61.06058121 -1.25706196 28 1 15218 72.02800000 3178392039 3178392039 -1.00000000
37.95844650 -76.43329620 -2.48363352 28 2 15219 85.37600000 3178392041 3178392041 -1.66700000
5.29534531 -9.47102261 -3.03757524 7 3 15219 11.26800000 3178392041 3178392041 -15.63900000
6.82428074 -13.74742413 -3.06962776 3 4 15220 15.65200000 3178392043 3178392043 -11.31000000
36.89780045 -66.02084351 0.00000000 26 5 15220 75.63200000 3178392043 3178392043 0.00000000
37.47973633 -85.78772736 -1.08988476 29 6 15220 93.62400000 3178392046 3178392046 -0.66700000
9.17264938 -16.41252327 -2.92512584 2 7 15220 19.02800000 3178392046 3178392046 -8.84300000
10.57858372 -21.31976128 -3.02942729 5 8 15221 23.99200000 3178392048 3178392048 -7.25400000
38.47557449 -61.59771347 0.42210767 56 9 15221 72.62800000 3178392048 3178392048 0.33300000
37.75433350 -76.12231445 -0.49384993 28 10 15222 84.97200000 3178392050 3178392050 -0.33300000
12.98744297 -23.25735283 -2.86934423 3 11 15222 26.79200000 3178392050 3178392050 -6.14800000
13.54466438 -31.04681206 -3.16195726 4 12 15223 34.02000000 3178392052 3178392052 -5.33300000
38.24879456 -68.52238464 1.82606339 27 13 15223 78.49600000 3178392052 3178392052 1.33300000
41.41026306 -94.96501160 1.20610940 28 14 15224 103.60800000 3178392055 3178392055 0.66700000
19.63306427 -35.18689346 -2.81760359 5 15 15224 40.39200000 3178392055 3178392055 -4.00000000
16.24248695 -32.79209900 -2.98737788 7 16 15225 36.71600000 3178392057 3178392057 -4.66700000
40.09267807 -64.28646088 2.20494604 28 17 15225 75.79600000 3178392057 3178392057 1.66700000
41.00047684 -82.77622223 1.61239290 28 18 15225 92.38800000 3178392059 3178392059 1.00000000
19.83104515 -31.79801941 -2.40173364 22 19 15225 37.55200000 3178392059 3178392059 -3.66700000
19.62946892 -45.05863953 -2.86230040 10 20 15226 49.23200000 3178392062 3178392062 -3.33300000
38.99667358 -69.94823456 4.66391230 42 21 15226 80.22000000 3178392062 3178392062 3.33300000
39.56293106 -79.94409943 3.63402033 28 22 15227 89.27200000 3178392064 3178392064 2.33300000
19.78517342 -35.50318146 -1.89325833 14 23 15227 40.68800000 3178392064 3178392064 -2.66700000
19.67875671 -39.78197098 -2.32601929 23 24 15228 44.44400000 3178392066 3178392066 -3.00000000
58.38098145 -118.07305908 10.75280285 28 26 15229 132.15600000 3178392069 3178392069 4.66700000
38.20877075 -87.87415314 -3.34616375 28 28 15230 95.88000000 3178392071 3178392071 -2.00000000
38.42760086 -69.04077148 -1.83862555 27 31 15230 79.03600000 3178392073 3178392073 -1.33300000
2.87023950 -5.82796049 -3.02932763 14 0 15238 7.16800000 3178392094 3178392094 -25.00000000
38.06182861 -61.33962250 -1.26006377 28 1 15238 72.20000000 3178392094 3178392094 -1.00000000
37.77794266 -76.74110413 -2.48933530 28 2 15239 85.57200000 3178392096 3178392096 -1.66700000
5.26598930 -9.49618721 -3.03973174 6 3 15239 11.27600000 3178392096 3178392096 -15.63900000
6.78144693 -13.78172016 -3.07198119 3 4 15240 15.66400000 3178392099 3178392099 -11.31000000
36.65160751 -66.12124634 0.00000000 26 5 15240 75.60000000 3178392099 3178392099 0.00000000
37.63664627 -87.01482391 -1.10371435 29 6 15241 94.81200000 3178392101 3178392101 -0.66700000
9.12201118 -16.46331787 -2.92820048 2 7 15241 19.04800000 3178392101 3178392101 -8.84300000
10.52161217 -21.39216232 -3.03447795 5 8 15241 24.03200000 3178392103 3178392103 -7.25400000
38.42468643 -61.99683380 0.42392099 56 9 15241 72.94000000 3178392103 3178392103 0.33300000
37.53073883 -76.33979034 -0.49440786 28 10 15242 85.06800000 3178392105 3178392105 -0.33300000
12.91966915 -23.32689857 -2.87234282 3 11 15242 26.82000000 3178392105 3178392105 -6.14800000
13.47254372 -31.17798996 -3.17050815 4 12 15243 34.11200000 3178392108 3178392108 -5.33300000
37.88735199 -68.43507385 1.82020116 27 13 15243 78.24400000 3178392108 3178392108 1.33300000
41.15623093 -95.28890228 1.20839095 28 14 15244 103.80400000 3178392110 3178392110 0.66700000
19.53716850 -35.30408859 -2.82150984 5 15 15244 40.44800000 3178392110 3178392110 -4.00000000
16.17536354 -32.94522095 -2.99616528 7 16 15245 36.82400000 3178392112 3178392112 -4.66700000
39.68498611 -64.13021851 2.19482255 28 17 15245 75.44800000 3178392112 3178392112 1.66700000
40.86067963 -83.25984192 1.61888528 28 18 15246 92.76000000 3178392115 3178392115 1.00000000
19.81936455 -32.04022980 -2.41452503 22 19 15246 37.75200000 3178392115 3178392115 -3.66700000
19.61128807 -45.44953537 -2.88276529 10 20 15246 49.58400000 3178392117 3178392117 -3.33300000
40.58988953 -73.40728760 4.88507318 39 21 15246 84.02400000 3178392117 3178392117 3.33300000
39.24314880 -79.99918365 3.63027525 28 22 15247 89.18000000 3178392119 3178392119 2.33300000
