# .PCD v0.7 - Point Cloud Data file format
VERSION 0.7
FIELDS x y z intensity laser_id azimuth distance_m adjustedtime timestamp vertical_angle
SIZE 4 4 4 1 1 2 8 8 4 8
TYPE F F F U U U F U U F
COUNT 1 1 1 1 1 1 1 1 1 1
WIDTH 524
HEIGHT 1
VIEWPOINT 0 0 0 1 0 0 0
POINTS 524
DATA ascii
37.28894424 19.29573822 -0.73286146 8 1 6684 41.99200000 3181168451 3181168451 -1.00000000
20.74825096 8.27771282 -0.65011525 15 2 6685 22.34800000 3181168454 3181168454 -1.66700000
8.06902122 3.68577242 -2.48332834 2 3 6685 9.21200000 3181168454 3181168454 -15.63900000
10.69321346 4.26399612 -2.30241704 2 4 6686 11.74000000 3181168456 3181168456 -11.31000000
40.58590698 18.53029251 0.00000000 15 5 6686 44.61600000 3181168456 3181168456 0.00000000
40.38029480 13.84889030 -0.49698111 21 6 6687 42.69200000 3181168458 3181168458 -0.66700000
12.40163994 5.65959692 -2.12082386 2 7 6687 13.79600000 3181168458 3181168458 -8.84300000
14.71088600 5.86309671 -2.01574588 2 8 6687 15.96400000 3181168460 3181168460 -7.25400000
40.72961807 21.04913902 0.26646462 9 9 6687 45.84800000 3181168460 3181168460 0.33300000
40.35151291 16.07413483 -0.25244629 16 10 6688 43.43600000 3181168463 3181168463 -0.33300000
15.68548203 7.15489912 -1.85706282 2 11 6688 17.34000000 3181168463 3181168463 -6.14800000
18.20192719 6.23546219 -1.79605114 4 12 6689 19.32400000 3181168465 3181168465 -5.33300000
40.63191605 18.52559662 1.03911793 15 13 6689 44.66800000 3181168465 3181168465 1.33300000
40.30429077 13.79924297 0.49595672 21 14 6690 42.60400000 3181168467 3181168467 0.66700000
19.93407249 9.08448029 -1.53185213 6 15 6690 21.96000000 3181168467 3181168467 -4.00000000
18.92611122 7.52778864 -1.66276443 5 16 6691 20.43600000 3181168470 3181168470 -4.66700000
40.73840714 21.01765633 1.33409190 18 17 6691 45.86000000 3181168470 3181168470 1.66700000
40.38047028 16.06117821 0.75855142 20 18 6691 43.46400000 3181168472 3181168472 1.00000000
20.28112030 10.46338463 -1.46258104 8 19 6691 22.86800000 3181168472 3181168472 -3.66700000
20.64890862 7.06165028 -1.27091897 23 20 6692 21.86000000 3181168474 3181168474 -3.33300000
40.23859406 18.32082367 2.57486105 21 21 6692 44.28800000 3181168474 3181168474 3.33300000
40.58160019 16.12477112 1.77907097 9 22 6693 43.70400000 3181168477 3181168477 2.33300000
20.70049286 9.42067146 -1.05942059 26 23 6693 22.76800000 3181168477 3181168477 -2.66700000
20.65987968 8.20486164 -1.16499841 26 24 6694 22.26000000 3181168479 3181168479 -3.00000000
42.39083862 16.82652664 3.72323823 21 26 6695 45.76000000 3181168481 3181168481 4.66700000
20.72180176 10.67242908 -0.94961941 26 27 6695 23.32800000 3181168481 3181168481 -2.33300000
20.70649338 7.06520033 -0.76401979 17 28 6696 21.89200000 3181168484 3181168484 -2.00000000
20.90793419 9.50186539 -0.53440088 6 31 6696 22.97200000 3181168486 3181168486 -1.33300000
5.43836737 2.14881134 -2.72673297 6 0 6704 6.45200000 3181168507 3181168507 -25.00000000
37.58736801 19.28412437 -0.73739910 8 1 6704 42.25200000 3181168507 3181168507 -1.00000000
20.74726868 8.19348812 -0.64918435 13 2 6705 22.31600000 3181168509 3181168509 -1.66700000
8.07481956 3.65440726 -2.48117161 2 3 6705 9.20400000 3181168509 3181168509 -15.63900000
10.71168041 4.22808409 -2.30320144 2 4 6706 11.74400000 3181168512 3181168512 -11.31000000
40.45718384 18.30113220 0.00000000 23 5 6706 44.40400000 3181168512 3181168512 0.00000000
40.38433075 13.70077324 -0.49646890 21 6 6706 42.64800000 3181168514 3181168514 -0.66700000
12.43114376 5.62332773 -2.12266874 2 7 6706 13.80800000 3181168514 3181168514 -8.84300000
14.73495293 5.81316662 -2.01625109 3 8 6707 15.96800000 3181168516 3181168516 -7.25400000
40.77792740 20.89406967 0.26630187 19 9 6707 45.82000000 3181168516 3181168516 0.33300000
40.35155869 15.91117477 -0.25209758 16 10 6708 43.37600000 3181168519 3181168519 -0.33300000
15.71760941 7.10337877 -1.85791957 2 11 6708 17.34800000 3181168519 3181168519 -6.14800000
18.22735596 6.17316532 -1.79642296 4 12 6709 19.32800000 3181168521 3181168521 -5.33300000
40.48860931 18.28981590 1.03381395 22 13 6709 44.44000000 3181168521 3181168521 1.33300000
40.29538345 13.63923454 0.49525824 21 14 6710 42.54400000 3181168523 3181168523 0.66700000
19.95838928 9.01155758 -1.53129411 6 15 6710 21.95200000 3181168523 3181168523 -4.00000000
18.95969200 7.46459913 -1.66341531 5 16 6711 20.44400000 3181168525 3181168525 -4.66700000
40.78660583 20.86257935 1.33327734 27 17 6711 45.83200000 3181168525 3181168525 1.66700000
40.39535522 15.90400982 0.75778347 20 18 6711 43.42000000 3181168528 3181168528 1.00000000
20.31396675 10.39070892 -1.46232522 8 19 6711 22.86400000 3181168528 3181168528 -3.66700000
20.65073586 6.98185539 -1.26952362 20 20 6712 21.83600000 3181168530 3181168530 -3.33300000
40.22222137 18.14412880 2.56974483 14 21 6712 44.20000000 3181168530 3181168530 3.33300000
40.39216232 15.88646984 1.76832426 18 22 6713 43.44000000 3181168532 3181168532 2.33300000
20.69318390 9.33028984 -1.05737329 24 23 6713 22.72400000 3181168532 3181168532 -2.66700000
20.66237068 8.12246513 -1.16353297 22 24 6714 22.23200000 3181168535 3181168535 -3.00000000
41.98349762 18.92100143 5.65425014 19 25 6714 46.39600000 3181168535 3181168535 7.00000000
42.53836823 16.71344185 3.73104930 31 26 6715 45.85600000 3181168537 3181168537 4.66700000
20.72689438 10.58367348 -0.94815397 26 27 6715 23.29200000 3181168537 3181168537 -2.33300000
20.70072746 6.98265648 -0.76290298 17 28 6716 21.86000000 3181168539 3181168539 -2.00000000
20.94826889 9.43210888 -0.53458697 6 31 6716 22.98000000 3181168542 3181168542 -1.33300000
5.45258760 2.13245559 -2.73011398 6 0 6724 6.46000000 3181168562 3181168562 -25.00000000
37.61524200 19.13285637 -0.73663116 8 1 6724 42.20800000 3181168562 3181168562 -1.00000000
20.74222755 8.10791588 -0.64813709 15 2 6725 22.28000000 3181168565 3181168565 -1.66700000
8.09455585 3.62935066 -2.48332834 2 3 6725 9.21200000 3181168565 3181168565 -15.63900000
10.72272110 4.18924046 -2.30241704 2 4 6726 11.74000000 3181168567 3181168567 -11.31000000
40.41861343 18.11399460 0.00000000 22 5 6726 44.29200000 3181168567 3181168567 0.00000000
40.36365128 13.53682995 -0.49563077 21 6 6726 42.57600000 3181168569 3181168569 -0.66700000
12.45069695 5.57990074 -2.12266874 2 7 6726 13.80800000 3181168569 3181168569 -8.84300000
14.75145912 5.76025343 -2.01574588 2 8 6727 15.96400000 3181168572 3181168572 -7.25400000
40.82564926 20.73892021 0.26613915 9 9 6727 45.79200000 3181168572 3181168572 0.33300000
40.34350967 15.74550247 -0.25170237 24 10 6728 43.30800000 3181168574 3181168574 -0.33300000
15.73867893 7.04684544 -1.85749125 2 11 6728 17.34400000 3181168574 3181168574 -6.14800000
18.22235680 6.10065174 -1.79382050 6 12 6729 19.30000000 3181168576 3181168576 -5.33300000
40.38065338 18.07159805 1.02944052 15 13 6729 44.25200000 3181168576 3181168576 1.33300000
40.30481720 13.48580360 0.49479261 21 14 6730 42.50400000 3181168578 3181168578 0.66700000
19.99700737 8.94509411 -1.53185213 6 15 6730 21.96000000 3181168578 3181168578 -4.00000000
18.99306297 7.40126705 -1.66406620 5 16 6731 20.45200000 3181168581 3181168581 -4.66700000
40.72724152 20.65317154 1.32897198 18 17 6731 45.68400000 3181168581 3181168581 1.66700000
40.40963364 15.74693298 0.75701559 20 18 6731 43.37600000 3181168583 3181168583 1.00000000
20.33587265 10.31251526 -1.46130180 8 19 6731 22.84800000 3181168583 3181168583 -3.66700000
20.64089584 6.89833641 -1.26743066 20 20 6732 21.80000000 3181168585 3181168585 -3.33300000
39.95354843 17.85535240 2.54858208 21 21 6732 43.83600000 3181168585 3181168585 3.33300000
40.51068497 15.77002525 1.77109241 18 22 6733 43.50800000 3181168588 3181168588 2.33300000
20.68184662 9.23844433 -1.05513978 24 23 6733 22.67600000 3181168588 3181168588 -2.66700000
20.66826248 8.04160023 -1.16227686 26 24 6734 22.20800000 3181168590 3181168590 -3.00000000
41.87890244 18.69826126 5.63133860 18 25 6734 46.20800000 3181168590 3181168590 7.00000000
41.51147461 16.14292908 3.63601565 20 26 6735 44.68800000 3181168592 3181168592 4.66700000
20.72092247 10.48959732 -0.94620001 26 27 6735 23.24400000 3181168592 3181168592 -2.33300000
20.69842911 6.90150356 -0.76192582 17 28 6736 21.83200000 3181168595 3181168595 -2.00000000
20.98106384 9.35892868 -0.53458697 6 31 6736 22.98000000 3181168597 3181168597 -1.33300000
5.46337891 2.11471820 -2.73180437 7 0 6744 6.46400000 3181168618 3181168618 -25.00000000
38.07104492 19.19771957 -0.74424040 9 1 6744 42.64400000 3181168618 3181168618 -1.00000000
20.72938538 8.01959419 -0.64685714 10 2 6745 22.23600000 3181168620 3181168620 -1.66700000
8.10717583 3.60107327 -2.48332834 5 3 6745 9.21200000 3181168620 3181168620 -15.63900000
10.74093723 4.15320015 -2.30320144 2 4 6746 11.74400000 3181168622 3181168622 -11.31000000
40.39751434 17.93546486 0.00000000 22 5 6746 44.20000000 3181168622 3181168622 0.00000000
40.32713318 13.36816406 -0.49460635 21 6 6746 42.48800000 3181168625 3181168625 -0.66700000
12.47371101 5.53800917 -2.12328362 2 7 6746 13.81200000 3181168625 3181168625 -8.84300000
14.77887821 5.71158695 -2.01675606 2 8 6747 15.97200000 3181168627 3181168627 -7.25400000
40.75489426 20.52432060 0.26520926 19 9 6747 45.63200000 3181168627 3181168627 0.33300000
40.33852386 15.58152103 -0.25133041 16 10 6748 43.24400000 3181168629 3181168629 -0.33300000
15.76318169 6.99186468 -1.85749125 2 11 6748 17.34400000 3181168629 3181168629 -6.14800000
18.20573044 6.02449465 -1.79010272 16 12 6749 19.26000000 3181168631 3181168631 -5.33300000
40.34843826 17.88839340 1.02702117 15 13 6749 44.14800000 3181168631 3181168631 1.33300000
40.28709030 13.32368088 0.49400100 21 14 6750 42.43600000 3181168634 3181168634 0.66700000
20.02081490 8.87200356 -1.53129411 6 15 6750 21.95200000 3181168634 3181168634 -4.00000000
19.01134300 7.33205462 -1.66341531 5 16 6751 20.44400000 3181168636 3181168636 -4.66700000
40.75621796 20.48933029 1.32757556 18 17 6751 45.63600000 3181168636 3181168636 1.66700000
40.44095612 15.58864975 0.75652689 20 18 6752 43.34800000 3181168638 3181168638 1.00000000
20.36639977 10.23432636 -1.46079016 8 19 6752 22.84000000 3181168638 3181168638 -3.66700000
20.63830757 6.81747627 -1.26580274 20 20 6752 21.77200000 3181168641 3181168641 -3.33300000
39.87688065 17.65435028 2.53974509 13 21 6752 43.68400000 3181168641 3181168641 3.33300000
40.55056763 15.62277317 1.77044106 18 22 6753 43.49200000 3181168643 3181168643 2.33300000
20.68108368 9.15164280 -1.05346465 21 23 6753 22.64000000 3181168643 3181168643 -2.66700000
20.66638374 7.95792246 -1.16060221 26 24 6754 22.17600000 3181168645 3181168645 -3.00000000
42.05647278 18.60174751 5.64645052 28 25 6754 46.33200000 3181168645 3181168645 7.00000000
42.42333221 16.32728195 3.71087098 21 26 6755 45.60800000 3181168648 3181168648 4.66700000
20.71097374 10.39389896 -0.94408327 25 27 6755 23.19200000 3181168648 3181168648 -2.33300000
20.69961357 6.82170343 -0.76108825 17 28 6756 21.80800000 3181168650 3181168650 -2.00000000
21.02457809 9.29048252 -0.53486609 6 31 6756 22.99200000 3181168652 3181168652 -1.33300000
5.47713184 2.09918404 -2.73518538 7 0 6763 6.47200000 3181168673 3181168673 -25.00000000
38.32407761 19.16617775 -0.74794030 9 1 6763 42.85600000 3181168673 3181168673 -1.00000000
20.73719597 7.94365740 -0.64627528 10 2 6764 22.21600000 3181168675 3181168675 -1.66700000
8.11554718 3.57261705 -2.48224998 2 3 6764 9.20800000 3181168675 3181168675 -15.63900000
10.75465012 4.11755896 -2.30320144 4 4 6765 11.74400000 3181168677 3181168677 -11.31000000
40.40917206 17.78046036 0.00000000 22 5 6765 44.14800000 3181168677 3181168677 0.00000000
40.26712418 13.19244766 -0.49330255 32 6 6766 42.37600000 3181168680 3181168680 -0.66700000
12.49296570 5.49443436 -2.12328362 2 7 6766 13.81200000 3181168680 3181168680 -8.84300000
14.79773808 5.66254711 -2.01675606 4 8 6766 15.97200000 3181168682 3181168682 -7.25400000
40.77621078 20.36582565 0.26490703 9 9 6766 45.58000000 3181168682 3181168682 0.33300000
40.33393478 15.42623425 -0.25098169 16 10 6767 43.18400000 3181168684 3181168684 -0.33300000
15.77899933 6.93635273 -1.85663438 2 11 6767 17.33600000 3181168684 3181168684 -6.14800000
18.21425247 5.96037340 -1.78898740 24 12 6768 19.24800000 3181168687 3181168687 -5.33300000
40.34163666 17.72553825 1.02534616 14 13 6768 44.07600000 3181168687 3181168687 1.33300000
40.29303360 13.17757797 0.49353537 21 14 6769 42.39600000 3181168689 3181168689 0.66700000
20.04647064 8.80395889 -1.53101504 6 15 6769 21.94800000 3181168689 3181168689 -4.00000000
19.03555298 7.26897049 -1.66341531 5 16 6770 20.44400000 3181168691 3181168691 -4.66700000
40.69154739 20.28805542 1.32327020 18 17 6770 45.48800000 3181168691 3181168691 1.66700000
40.35895920 15.41158772 0.75408357 30 18 6770 43.20800000 3181168694 3181168694 1.00000000
20.40202332 10.17207432 -1.46104598 8 19 6770 22.84400000 3181168694 3181168694 -3.66700000
20.63802719 6.74156046 -1.26440740 20 20 6771 21.74800000 3181168696 3181168696 -3.33300000
39.90960693 17.51078606 2.53811717 20 21 6771 43.65600000 3181168696 3181168696 3.33300000
40.60961914 15.49106598 1.77076674 9 22 6772 43.50000000 3181168698 3181168698 2.33300000
20.68570328 9.07177830 -1.05216181 24 23 6772 22.61200000 3181168698 3181168698 -2.66700000
20.66279984 7.87796211 -1.15892744 26 24 6773 22.14400000 3181168701 3181168701 -3.00000000
42.29973602 18.54187584 5.67082405 19 25 6773 46.53200000 3181168701 3181168701 7.00000000
42.34685135 16.13682365 3.69947982 31 26 6774 45.46800000 3181168703 3181168703 4.66700000
20.70954704 10.30735397 -0.94245493 25 27 6774 23.15200000 3181168703 3181168703 -2.33300000
20.69931602 6.74559164 -0.76025063 17 28 6775 21.78400000 3181168705 3181168705 -2.00000000
21.05321693 9.21543312 -0.53477305 4 31 6776 22.98800000 3181168707 3181168707 -1.33300000
5.47425699 2.07619596 -2.73011398 6 0 6783 6.46000000 3181168728 3181168728 -25.00000000
38.44091415 19.05715370 -0.74891764 9 1 6783 42.91200000 3181168728 3181168728 -1.00000000
20.74984360 7.86555386 -0.64580983 10 2 6784 22.20000000 3181168730 3181168730 -1.66700000
8.12796879 3.54426670 -2.48224998 3 3 6784 9.20800000 3181168730 3181168730 -15.63900000
10.76895809 4.07999325 -2.30320144 2 4 6785 11.74400000 3181168733 3181168733 -11.31000000
40.40132141 17.60893250 0.00000000 15 5 6785 44.07200000 3181168733 3181168733 0.00000000
40.33956528 13.06043243 -0.49362850 32 6 6786 42.40400000 3181168735 3181168735 -0.66700000
12.51931667 5.45394945 -2.12451339 2 7 6786 13.82000000 3181168735 3181168735 -8.84300000
14.81741333 5.61085844 -2.01675606 2 8 6786 15.97200000 3181168737 3181168737 -7.25400000
40.69649887 20.14882469 0.26393062 19 9 6786 45.41200000 3181168737 3181168737 0.33300000
40.35012436 15.27119064 -0.25074920 16 10 6787 43.14400000 3181168740 3181168740 -0.33300000
15.81405449 6.88599443 -1.85791957 2 11 6787 17.34800000 3181168740 3181168740 -6.14800000
18.23873711 5.89798260 -1.78935921 26 12 6788 19.25200000 3181168742 3181168742 -5.33300000
40.35559845 17.56386566 1.02413642 14 13 6788 44.02400000 3181168742 3181168742 1.33300000
40.30453491 13.02577877 0.49311629 21 14 6789 42.36000000 3181168744 3181168744 0.66700000
20.08073997 8.73552132 -1.53129411 6 15 6789 21.95200000 3181168744 3181168744 -4.00000000
19.06453896 7.20388889 -1.66374075 5 16 6790 20.44800000 3181168747 3181168747 -4.66700000
40.71910477 20.12463379 1.32187390 18 17 6790 45.44000000 3181168747 3181168747 1.66700000
40.39380264 15.26354694 0.75373453 30 18 6790 43.18800000 3181168749 3181168749 1.00000000
20.43382835 10.09902668 -1.46079016 8 19 6790 22.84000000 3181168749 3181168749 -3.66700000
20.63863182 6.66211891 -1.26301205 20 20 6791 21.72400000 3181168751 3181168751 -3.33300000
39.99978638 17.38410187 2.53997755 20 21 6791 43.68800000 3181168751 3181168751 3.33300000
40.61857605 15.33228016 1.76881278 18 22 6792 43.45200000 3181168754 3181168754 2.33300000
20.68792534 8.98678017 -1.05067277 24 23 6792 22.58000000 3181168754 3181168754 -2.66700000
20.66401291 7.79591751 -1.15746200 26 24 6793 22.11600000 3181168756 3181168756 -3.00000000
42.72837448 18.55222893 5.71957207 28 25 6793 46.93200000 3181168756 3181168756 7.00000000
42.65285492 16.08315086 3.72128558 31 26 6794 45.73600000 3181168758 3181168758 4.66700000
20.70955849 10.21731758 -0.94082665 25 27 6794 23.11200000 3181168758 3181168758 -2.33300000
20.70371056 6.66716957 -0.75955266 17 28 6795 21.76400000 3181168760 3181168760 -2.00000000
21.07632446 9.14238453 -0.53458697 4 31 6795 22.98000000 3181168763 3181168763 -1.33300000
5.47807693 2.05580068 -2.72842360 6 0 6803 6.45600000 3181168783 3181168783 -25.00000000
38.49643326 18.91756248 -0.74870825 9 1 6803 42.90000000 3181168783 3181168783 -1.00000000
20.76594162 7.78886318 -0.64546078 7 2 6804 22.18800000 3181168786 3181168786 -1.66700000
8.14736366 3.51892781 -2.48440647 4 3 6804 9.21600000 3181168786 3181168786 -15.63900000
10.77946186 4.04100084 -2.30241704 4 4 6805 11.74000000 3181168788 3181168788 -11.31000000
40.40010834 17.44084740 0.00000000 22 5 6805 44.00400000 3181168788 3181168788 0.00000000
40.29123306 12.89732456 -0.49251094 21 6 6805 42.30800000 3181168790 3181168790 -0.66700000
12.53007603 5.40927076 -2.12328362 2 7 6805 13.81200000 3181168790 3181168790 -8.84300000
14.83690929 5.55910206 -2.01675606 4 8 6806 15.97200000 3181168793 3181168793 -7.25400000
40.79890060 20.02250481 0.26413986 9 9 6806 45.44800000 3181168793 3181168793 0.33300000
40.36572647 15.11622143 -0.25051674 16 10 6807 43.10400000 3181168795 3181168795 -0.33300000
15.83799458 6.83075142 -1.85791957 2 11 6807 17.34800000 3181168795 3181168795 -6.14800000
18.25541878 5.83306980 -1.78898740 18 12 6808 19.24800000 3181168797 3181168797 -5.33300000
40.35423279 17.39598083 1.02255464 22 13 6808 43.95600000 3181168797 3181168797 1.33300000
40.28879547 12.86554337 0.49237126 20 14 6809 42.29600000 3181168800 3181168800 0.66700000
20.11843872 8.66853142 -1.53185213 6 15 6809 21.96000000 3181168800 3181168800 -4.00000000
19.08956909 7.13729763 -1.66374075 5 16 6810 20.44800000 3181168802 3181168802 -4.66700000
40.67420578 19.92608643 1.31815028 27 17 6810 45.31200000 3181168802 3181168802 1.66700000
40.33070755 15.07903385 0.75157040 20 18 6810 43.06400000 3181168804 3181168804 1.00000000
20.46178627 10.02412605 -1.46027851 8 19 6810 22.83200000 3181168804 3181168804 -3.66700000
20.63513184 6.58154202 -1.26138425 16 20 6811 21.69600000 3181168807 3181168807 -3.33300000
39.95018768 17.19700432 2.53300095 20 21 6811 43.56800000 3181168807 3181168807 3.33300000
40.55204010 15.14565372 1.76360226 18 22 6812 43.32400000 3181168809 3181168809 2.33300000
20.68613625 8.90029907 -1.04899764 24 23 6812 22.54400000 3181168809 3181168809 -2.66700000
20.65741920 7.71116638 -1.15557790 30 24 6813 22.08000000 3181168811 3181168811 -3.00000000
42.91687775 18.45629501 5.73614645 19 25 6813 47.06800000 3181168811 3181168811 7.00000000
42.86188126 15.99130344 3.73462939 31 26 6814 45.90000000 3181168813 3181168813 4.66700000
20.70919418 10.12740803 -0.93919837 27 27 6814 23.07200000 3181168813 3181168813 -2.33300000
20.69638252 6.58516312 -0.75843585 17 28 6815 21.73200000 3181168816 3181168816 -2.00000000
49.50288391 18.44930649 9.63210773 17 30 6816 53.70000000 3181168818 3181168818 10.33300000
21.07662010 9.05087376 -0.53374946 4 31 6816 22.94400000 3181168818 3181168818 -1.33300000
5.49237251 2.03823137 -2.73180437 8 0 6824 6.46400000 3181168839 3181168839 -25.00000000
38.55112457 18.76933670 -0.74842900 9 1 6824 42.88400000 3181168839 3181168839 -1.00000000
20.81309319 7.71965218 -0.64604259 7 2 6825 22.20800000 3181168841 3181168841 -1.66700000
8.15666389 3.48752832 -2.48332834 3 3 6825 9.21200000 3181168841 3181168841 -15.63900000
10.80155563 4.00419188 -2.30398583 4 4 6826 11.74800000 3181168843 3181168843 -11.31000000
40.40123367 17.26593399 0.00000000 22 5 6826 43.93600000 3181168843 3181168843 0.00000000
40.34204483 12.75076866 -0.49255753 21 6 6826 42.31200000 3181168846 3181168846 -0.66700000
12.55708694 5.36641598 -2.12451339 2 7 6826 13.82000000 3181168846 3181168846 -8.84300000
14.86090469 5.50606346 -2.01726103 4 8 6827 15.97600000 3181168848 3181168848 -7.25400000
40.82884598 19.85184669 0.26386088 9 9 6827 45.40000000 3181168848 3181168848 0.33300000
40.34208679 14.93900299 -0.25002852 16 10 6828 43.02000000 3181168850 3181168850 -0.33300000
15.85560894 6.76953316 -1.85706282 2 11 6828 17.34000000 3181168850 3181168850 -6.14800000
18.27287674 5.76492262 -1.78861570 14 12 6829 19.24400000 3181168853 3181168853 -5.33300000
40.35887527 17.22284508 1.02106571 14 13 6829 43.89200000 3181168853 3181168853 1.33300000
40.28990173 12.70335770 0.49181247 20 14 6830 42.24800000 3181168855 3181168855 0.66700000
20.15741539 8.59786701 -1.53241026 6 15 6830 21.96800000 3181168855 3181168855 -4.00000000
19.11933899 7.06866550 -1.66406620 5 16 6831 20.45200000 3181168857 3181168857 -4.66700000
40.49877167 19.65641212 1.31012130 18 17 6831 45.03600000 3181168857 3181168857 1.66700000
40.32568359 14.90892315 0.75045347 20 18 6831 43.00000000 3181168860 3181168860 1.00000000
20.49479866 9.94731903 -1.46002269 8 19 6831 22.82800000 3181168860 3181168860 -3.66700000
20.64006996 6.49986935 -1.26022136 16 20 6832 21.67600000 3181168862 3181168862 -3.33300000
39.99090958 17.04107094 2.53160548 20 21 6832 43.54400000 3181168862 3181168862 3.33300000
40.55854034 14.97892189 1.76148546 18 22 6833 43.27200000 3181168864 3181168864 2.33300000
20.67450523 8.80563164 -1.04676414 24 23 6833 22.49600000 3181168864 3181168864 -2.66700000
20.65931129 7.62571907 -1.15411246 30 24 6834 22.05200000 3181168866 3181168866 -3.00000000
43.37509918 18.46526909 5.78830624 29 25 6834 47.49600000 3181168866 3181168866 7.00000000
42.82295609 15.79822254 3.72616744 31 26 6835 45.79600000 3181168869 3181168869 4.66700000
20.70301247 10.03052521 -0.93724442 27 27 6835 23.02400000 3181168869 3181168869 -2.33300000
20.70512390 6.50447035 -0.75787747 17 28 6836 21.71600000 3181168871 3181168871 -2.00000000
49.33016586 18.17929840 9.58547211 17 30 6837 53.44000000 3181168873 3181168873 10.33300000
34.53503799 14.68059921 -0.87320524 4 31 6837 37.53600000 3181168873 3181168873 -1.33300000
5.49945354 2.01904702 -2.73180437 6 0 6844 6.46400000 3181168894 3181168894 -25.00000000
38.61280823 18.63291550 -0.74835920 9 1 6844 42.88000000 3181168894 3181168894 -1.00000000
20.85117340 7.65108585 -0.64639169 5 2 6845 22.22000000 3181168896 3181168896 -1.66700000
8.15814686 3.45452905 -2.48009324 3 3 6845 9.20000000 3181168896 3181168896 -15.63900000
10.81546688 3.96646285 -2.30398583 4 4 6846 11.74800000 3181168899 3181168899 -11.31000000
40.41336823 17.10453415 0.00000000 22 5 6846 43.88400000 3181168899 3181168899 0.00000000
40.37103653 12.60510254 -0.49237126 21 6 6846 42.29600000 3181168901 3181168901 -0.66700000
12.58302212 5.32563162 -2.12574315 2 7 6846 13.82800000 3181168901 3181168901 -8.84300000
14.88003445 5.45415545 -2.01726103 2 8 6847 15.97600000 3181168903 3181168903 -7.25400000
40.75375748 19.63974762 0.26293099 9 9 6847 45.24000000 3181168903 3181168903 0.33300000
40.33389664 14.77607632 -0.24965656 16 10 6848 42.95600000 3181168906 3181168906 -0.33300000
15.88646889 6.71724319 -1.85791957 2 11 6848 17.34800000 3181168906 3181168906 -6.14800000
18.28148270 5.69754839 -1.78750038 4 12 6849 19.23200000 3181168908 3181168908 -5.33300000
40.35244370 17.05384064 1.01939082 14 13 6849 43.82000000 3181168908 3181168908 1.33300000
40.28817749 12.54836941 0.49125370 20 14 6850 42.20000000 3181168910 3181168910 0.66700000
20.17995453 8.52434635 -1.53185213 6 15 6850 21.96000000 3181168910 3181168910 -4.00000000
19.14764214 7.00325251 -1.66439164 5 16 6851 20.45600000 3181168913 3181168913 -4.66700000
40.53470993 19.49932480 1.30907404 9 17 6851 45.00000000 3181168913 3181168913 1.66700000
40.31738281 14.74608898 0.74933654 20 18 6851 42.93600000 3181168915 3181168915 1.00000000
20.52579880 9.87398815 -1.45976686 8 19 6851 22.82400000 3181168915 3181168915 -3.66700000
20.63975525 6.42066526 -1.25882614 16 20 6852 21.65200000 3181168917 3181168917 -3.33300000
39.99128342 16.87653160 2.52788472 20 21 6852 43.48000000 3181168917 3181168917 3.33300000
40.58054733 14.82628250 1.76018286 18 22 6853 43.24000000 3181168919 3181168919 2.33300000
20.67566299 8.72098732 -1.04527521 24 23 6853 22.46400000 3181168919 3181168919 -2.66700000
20.65578651 7.54259682 -1.15243781 30 24 6854 22.02000000 3181168922 3181168922 -3.00000000
43.39539337 18.29524040 5.78245640 29 25 6854 47.44800000 3181168922 3181168922 7.00000000
41.97152328 15.31787682 3.64740658 30 26 6855 44.82800000 3181168924 3181168924 4.66700000
20.70547295 9.94262695 -0.93577898 27 27 6855 22.98800000 3181168924 3181168924 -2.33300000
20.70479393 6.42504787 -0.75703990 17 28 6856 21.69200000 3181168926 3181168926 -2.00000000
49.35635376 17.99351501 9.57829762 17 30 6857 53.40000000 3181168929 3181168929 10.33300000
34.66715622 14.59409428 -0.87525237 9 31 6857 37.62400000 3181168929 3181168929 -1.33300000
5.50306034 1.99860048 -2.73011398 6 0 6864 6.46000000 3181168949 3181168949 -25.00000000
38.65596390 18.48766327 -0.74794030 9 1 6864 42.85600000 3181168949 3181168949 -1.00000000
20.90030479 7.58644009 -0.64708984 5 2 6865 22.24400000 3181168952 3181168952 -1.66700000
8.17726040 3.42900991 -2.48224998 2 3 6865 9.20800000 3181168952 3181168952 -15.63900000
10.82555962 3.92734790 -2.30320144 4 4 6866 11.74400000 3181168954 3181168954 -11.31000000
40.39535904 16.93088913 0.00000000 15 5 6866 43.80000000 3181168954 3181168954 0.00000000
40.36892700 12.44995975 -0.49181247 21 6 6866 42.24800000 3181168956 3181168956 -0.66700000
12.59788990 5.28014851 -2.12512827 2 7 6866 13.82400000 3181168956 3181168956 -8.84300000
14.89898205 5.40218115 -2.01726103 4 8 6867 15.97600000 3181168959 3181168959 -7.25400000
40.80040741 19.48702621 0.26279148 9 9 6867 45.21600000 3181168959 3181168959 0.33300000
40.34762192 14.62156677 -0.24942409 16 10 6868 42.91600000 3181168961 3181168961 -0.33300000
15.90615082 6.66021204 -1.85749125 2 11 6868 17.34400000 3181168961 3181168961 -6.14800000
18.33171082 5.64307308 -1.79047453 4 12 6869 19.26400000 3181168963 3181168963 -5.33300000
40.35270691 16.88817787 1.01790202 14 13 6869 43.75600000 3181168963 3181168963 1.33300000
40.29732513 12.39707661 0.49083462 20 14 6870 42.16400000 3181168965 3181168965 0.66700000
20.20590591 8.45231342 -1.53157318 6 15 6870 21.95600000 3181168965 3181168965 -4.00000000
19.16447258 6.93365955 -1.66374075 5 16 6871 20.44800000 3181168968 3181168968 -4.66700000
40.56643677 19.34050751 1.30791044 9 17 6871 44.96000000 3181168968 3181168968 1.66700000
40.30091858 14.58077335 0.74807996 30 18 6871 42.86400000 3181168970 3181168970 1.00000000
20.56374359 9.80399704 -1.46002269 8 19 6871 22.82800000 3181168970 3181168970 -3.66700000
20.63150597 6.33919716 -1.25696564 13 20 6872 21.62000000 3181168972 3181168972 -3.33300000
39.96520996 16.70141983 2.52253580 20 21 6872 43.38800000 3181168972 3181168972 3.33300000
40.51552963 14.64242840 1.75513506 18 22 6873 43.11600000 3181168975 3181168975 2.33300000
20.67648315 8.63644314 -1.04378617 24 23 6873 22.43200000 3181168975 3181168975 -2.66700000
20.65569115 7.46094990 -1.15097237 30 24 6874 21.99200000 3181168977 3181168977 -3.00000000
42.56870651 17.77196693 5.66399956 19 25 6874 46.47600000 3181168977 3181168977 7.00000000
42.18222809 15.22813225 3.66107583 30 26 6875 44.99600000 3181168979 3181168979 4.66700000
20.70396423 9.85311604 -0.93415070 27 27 6875 22.94800000 3181168979 3181168979 -2.33300000
20.70416451 6.34570646 -0.75620228 17 28 6876 21.66800000 3181168982 3181168982 -2.00000000
49.62986374 17.89721107 9.61919308 17 30 6877 53.62800000 3181168984 3181168984 10.33300000
34.72526932 14.47607231 -0.87543851 14 31 6877 37.63200000 3181168984 3181168984 -1.33300000
5.51682663 1.98183024 -2.73349500 7 0 6884 6.46800000 3181169005 3181169005 -25.00000000
38.60823059 18.29951477 -0.74577624 9 1 6884 42.73200000 3181169005 3181169005 -1.00000000
20.93794823 7.51749182 -0.64743894 5 2 6885 22.25600000 3181169007 3181169007 -1.66700000
8.18918037 3.40044498 -2.48224998 3 3 6885 9.20800000 3181169007 3181169007 -15.63900000
10.84289455 3.89086056 -2.30398583 4 4 6886 11.74800000 3181169009 3181169009 -11.31000000
40.39509964 16.76524734 0.00000000 15 5 6886 43.73600000 3181169009 3181169009 0.00000000
40.52309799 12.34276676 -0.49316284 21 6 6886 42.36400000 3181169012 3181169012 -0.66700000
12.61624432 5.23614168 -2.12512827 2 7 6886 13.82400000 3181169012 3181169012 -8.84300000
14.91774845 5.35014105 -2.01726103 4 8 6887 15.97600000 3181169014 3181169014 -7.25400000
40.84648895 19.33422089 0.26265201 18 9 6887 45.19200000 3181169014 3181169014 0.33300000
40.34193420 14.46039295 -0.24907537 16 10 6888 42.85600000 3181169016 3181169016 -0.33300000
15.93297672 6.60617161 -1.85791957 2 11 6888 17.34800000 3181169016 3181169016 -6.14800000
18.37796974 5.58715820 -1.79307699 4 12 6889 19.29200000 3181169018 3181169018 -5.33300000
40.34860992 16.72119141 1.01632011 14 13 6889 43.68800000 3181169018 3181169018 1.33300000
40.45133591 12.29005623 0.49218500 10 14 6890 42.28000000 3181169021 3181169021 0.66700000
20.23159981 8.38020325 -1.53129411 6 15 6890 21.95200000 3181169021 3181169021 -4.00000000
19.19231224 6.86806393 -1.66406620 5 16 6891 20.45200000 3181169023 3181169023 -4.66700000
40.71323395 19.23636436 1.31047034 18 17 6891 45.04800000 3181169023 3181169023 1.66700000
40.30261612 14.42249012 0.74717242 30 18 6891 42.81200000 3181169025 3181169025 1.00000000
20.59062195 9.72874641 -1.45951104 8 19 6891 22.82000000 3181169025 3181169025 -3.66700000
20.63058090 6.26018429 -1.25557029 10 20 6892 21.59600000 3181169028 3181169028 -3.33300000
39.91994858 16.51906204 2.51602435 20 21 6892 43.27600000 3181169028 3181169028 3.33300000
40.55510712 14.49687767 1.75464666 9 22 6893 43.10400000 3181169030 3181169030 2.33300000
20.68435097 8.55505276 -1.04266942 26 23 6893 22.40800000 3181169030 3181169030 -2.66700000
20.66656113 7.38342667 -1.15013492 30 24 6894 21.97600000 3181169032 3181169032 -3.00000000
42.26358032 17.47159004 5.61525202 28 25 6894 46.07600000 3181169032 3181169032 7.00000000
42.92221451 15.32613277 3.72063470 10 26 6895 45.72800000 3181169035 3181169035 4.66700000
20.70931435 9.76714706 -0.93284804 25 27 6895 22.91600000 3181169035 3181169035 -2.33300000
20.69175339 6.26297426 -0.75494593 17 28 6896 21.63200000 3181169037 3181169037 -2.00000000
49.59999084 17.70079041 9.60197353 17 30 6896 53.53200000 3181169039 3181169039 10.33300000
34.58827591 14.28451633 -0.87078589 9 31 6896 37.43200000 3181169039 3181169039 -1.33300000
5.52029514 1.96134722 -2.73180437 7 0 6904 6.46400000 3181169060 3181169060 -25.00000000
38.64653015 18.15273285 -0.74528754 9 1 6904 42.70400000 3181169060 3181169060 -1.00000000
20.96782875 7.44569683 -0.64755529 5 2 6905 22.26000000 3181169062 3181169062 -1.66700000
8.19743729 3.37037396 -2.48117161 2 3 6905 9.20400000 3181169062 3181169062 -15.63900000
10.85271358 3.85167623 -2.30320144 2 4 6906 11.74400000 3181169065 3181169065 -11.31000000
40.39048004 16.59829330 0.00000000 22 5 6906 43.66800000 3181169065 3181169065 0.00000000
40.51060867 12.17688847 -0.49246439 10 6 6907 42.30400000 3181169067 3181169067 -0.66700000
12.64266300 5.19286919 -2.12635803 1 7 6907 13.83200000 3181169067 3181169067 -8.84300000
14.94007301 5.29936266 -2.01776624 4 8 6907 15.98000000 3181169069 3181169069 -7.25400000
40.73990631 19.10998535 0.26153612 18 9 6907 45.00000000 3181169069 3181169069 0.33300000
40.33561325 14.29943752 -0.24872665 24 10 6908 42.79600000 3181169071 3181169071 -0.33300000
15.95226002 6.54900455 -1.85749125 2 11 6908 17.34400000 3181169071 3181169071 -6.14800000
18.39354706 5.52182817 -1.79270518 4 12 6909 19.28800000 3181169074 3181169074 -5.33300000
40.34383774 16.55443954 1.01473820 14 13 6909 43.62000000 3181169074 3181169074 1.33300000
40.51314545 12.15452671 0.49241781 20 14 6910 42.30000000 3181169076 3181169076 0.66700000
20.27180481 8.31407261 -1.53213120 6 15 6910 21.96400000 3181169076 3181169076 -4.00000000
19.21616936 6.80102873 -1.66406620 5 16 6911 20.45200000 3181169078 3181169078 -4.66700000
40.77288818 19.09074020 1.31023765 18 17 6911 45.04000000 3181169078 3181169078 1.66700000
40.28356934 14.24933624 0.74584603 20 18 6912 42.73600000 3181169081 3181169081 1.00000000
20.60444832 9.64305973 -1.45797610 8 19 6912 22.79600000 3181169081 3181169081 -3.66700000
20.62170601 6.17896271 -1.25370979 13 20 6912 21.56400000 3181169083 3181169083 -3.33300000
39.98845291 16.38415527 2.51672196 20 21 6912 43.28800000 3181169083 3181169083 3.33300000
40.57908630 14.34590054 1.75350678 18 22 6913 43.07600000 3181169085 3181169085 2.33300000
20.68080902 8.46917057 -1.04099429 24 23 6913 22.37200000 3181169085 3181169085 -2.66700000
20.66584396 7.30192661 -1.14866960 30 24 6914 21.94800000 3181169088 3181169088 -3.00000000
42.28756714 17.30891800 5.61037731 18 25 6914 46.03600000 3181169088 3181169088 7.00000000
20.70345306 9.67618370 -0.93105692 25 27 6915 22.87200000 3181169090 3181169090 -2.33300000
20.68284798 6.18155050 -0.75382912 17 28 6916 21.60000000 3181169092 3181169092 -2.00000000
49.55386353 17.48956490 9.58116722 17 30 6916 53.41600000 3181169095 3181169095 10.33300000
34.61201859 14.15309906 -0.87013447 4 31 6916 37.40400000 3181169095 3181169095 -1.33300000
5.52334881 1.94182801 -2.73011398 6 0 6923 6.46000000 3181169115 3181169115 -25.00000000
38.69926453 18.02110100 -0.74514794 9 1 6923 42.69600000 3181169115 3181169115 -1.00000000
20.98108864 7.37214756 -0.64720619 2 2 6924 22.24800000 3181169118 3181169118 -1.66700000
8.21213627 3.34462476 -2.48224998 3 3 6924 9.20800000 3181169118 3181169118 -15.63900000
10.87282753 3.81826544 -2.30477047 2 4 6925 11.75200000 3181169120 3181169120 -11.31000000
40.38602448 16.44013214 0.00000000 15 5 6925 43.60400000 3181169120 3181169120 0.00000000
40.69646454 12.08575249 -0.49423382 10 6 6926 42.45600000 3181169122 3181169122 -0.66700000
12.65249157 5.14793682 -2.12512827 2 7 6926 13.82400000 3181169122 3181169122 -8.84300000
14.95756435 5.24979019 -2.01776624 4 8 6926 15.98000000 3181169124 3181169124 -7.25400000
40.78491974 18.96634865 0.26141989 9 9 6926 44.98000000 3181169124 3181169124 0.33300000
40.32997131 14.14706516 -0.24840119 24 10 6927 42.74000000 3181169127 3181169127 -0.33300000
15.97757339 6.49756718 -1.85791957 2 11 6927 17.34800000 3181169127 3181169127 -6.14800000
18.45757675 5.47439194 -1.79716647 4 12 6928 19.33600000 3181169129 3181169129 -5.33300000
40.34294510 16.39797783 1.01334238 14 13 6928 43.56000000 3181169129 3181169129 1.33300000
40.49954224 12.00419998 0.49176592 20 14 6929 42.24400000 3181169131 3181169131 0.66700000
20.28817368 8.24229813 -1.53129411 6 15 6929 21.95200000 3181169131 3181169131 -4.00000000
19.23861694 6.73726797 -1.66406620 5 16 6930 20.45200000 3181169134 3181169134 -4.66700000
40.68002701 18.88303947 1.30523407 18 17 6930 44.86800000 3181169134 3181169134 1.66700000
40.26774216 14.10156250 0.74472910 19 18 6930 42.67200000 3181169136 3181169136 1.00000000
20.61291695 9.56819725 -1.45644104 8 19 6930 22.77200000 3181169136 3181169136 -3.66700000
20.61910820 6.10374403 -1.25231457 19 20 6931 21.54000000 3181169138 3181169138 -3.33300000
39.89826202 16.19289398 2.50765228 20 21 6931 43.13200000 3181169138 3181169138 3.33300000
40.58493805 14.19674015 1.75171566 18 22 6932 43.03200000 3181169141 3181169141 2.33300000
20.66805077 8.38402271 -1.03894699 24 23 6932 22.32800000 3181169141 3181169141 -2.66700000
20.65600777 7.22149181 -1.14678550 30 24 6933 21.91200000 3181169143 3181169143 -3.00000000
43.73181915 17.73098183 5.79415607 19 25 6933 47.54400000 3181169143 3181169143 7.00000000
20.69916344 9.59067345 -0.92942864 25 27 6934 22.83200000 3181169145 3181169145 -2.33300000
20.68022919 6.10613775 -0.75299156 16 28 6935 21.57600000 3181169148 3181169148 -2.00000000
49.61158752 17.32514191 9.58116722 17 30 6935 53.41600000 3181169150 3181169150 10.33300000
34.70694733 14.05776024 -0.87134415 4 31 6935 37.45600000 3181169150 3181169150 -1.33300000
5.52666903 1.92134571 -2.72842360 6 0 6943 6.45600000 3181169170 3181169170 -25.00000000
38.78735352 17.89763451 -0.74563664 9 1 6943 42.72400000 3181169170 3181169170 -1.00000000
21.05201530 7.31461239 -0.64860255 2 2 6944 22.29600000 3181169172 3181169172 -1.66700000
8.22018909 3.31449819 -2.48117161 3 3 6944 9.20400000 3181169172 3181169172 -15.63900000
10.88238430 3.77900219 -2.30398583 4 4 6945 11.74800000 3181169175 3181169175 -11.31000000
40.37638474 16.27214622 0.00000000 15 5 6945 43.53200000 3181169175 3181169175 0.00000000
40.72480392 11.94735432 -0.49409413 21 6 6945 42.44400000 3181169177 3181169177 -0.66700000
12.68415737 5.11186075 -2.12758780 1 7 6945 13.84000000 3181169177 3181169177 -8.84300000
14.97579765 5.19754648 -2.01776624 4 8 6946 15.98000000 3181169179 3181169179 -7.25400000
40.73462677 18.77029991 0.26067597 18 9 6946 44.85200000 3181169179 3181169179 0.33300000
40.34131622 13.99309254 -0.24816872 16 10 6947 42.70000000 3181169182 3181169182 -0.33300000
15.99646759 6.44026995 -1.85749125 2 11 6947 17.34400000 3181169182 3181169182 -6.14800000
18.47657204 5.40992975 -1.79716647 4 12 6948 19.33600000 3181169184 3181169184 -5.33300000
40.34057999 16.23316956 1.01185358 14 13 6948 43.49600000 3181169184 3181169184 1.33300000
40.50281143 11.85152435 0.49130028 20 14 6949 42.20400000 3181169186 3181169186 0.66700000
20.32052231 8.17291737 -1.53157318 6 15 6949 21.95600000 3181169186 3181169186 -4.00000000
19.27331924 6.67398548 -1.66504252 5 16 6950 20.46400000 3181169188 3181169188 -4.66700000
40.74206161 18.73925400 1.30511773 18 17 6950 44.86400000 3181169188 3181169188 1.66700000
40.27892685 13.94782925 0.74403101 19 18 6950 42.63200000 3181169191 3181169191 1.00000000
20.60629845 9.47783852 -1.45362699 11 19 6950 22.72800000 3181169191 3181169191 -3.66700000
20.62112427 6.02613211 -1.25115168 19 20 6951 21.52000000 3181169193 3181169193 -3.33300000
40.23244095 16.16518211 2.52509403 6 21 6951 43.43200000 3181169193 3181169193 3.33300000
40.52470779 14.01709843 1.74699366 18 22 6952 42.91600000 3181169195 3181169195 2.33300000
20.66382027 8.29842472 -1.03727186 24 23 6952 22.29200000 3181169195 3181169195 -2.66700000
20.65088844 7.13890409 -1.14511073 29 24 6953 21.88000000 3181169198 3181169198 -3.00000000
43.63132858 17.51314926 5.77270699 29 25 6953 47.36800000 3181169198 3181169198 7.00000000
42.59919739 14.71799755 3.67930150 20 26 6954 45.22000000 3181169200 3181169200 4.66700000
20.70345688 9.50502110 -0.92812598 25 27 6954 22.80000000 3181169200 3181169200 -2.33300000
20.68606567 6.02943850 -0.75243312 16 28 6955 21.56000000 3181169202 3181169202 -2.00000000
49.65688324 17.14672279 9.57829762 17 30 6955 53.40000000 3181169205 3181169205 10.33300000
35.24574280 14.13298130 -0.88362712 4 31 6955 37.98400000 3181169205 3181169205 -1.33300000
5.53710270 1.90225446 -2.73011398 7 0 6964 6.46000000 3181169225 3181169225 -25.00000000
38.81631470 17.73872948 -0.74493849 9 1 6964 42.68400000 3181169225 3181169225 -1.00000000
34.48448563 11.84030914 -1.06110632 7 2 6965 36.47600000 3181169228 3181169228 -1.66700000
8.23585987 3.28577471 -2.48224998 2 3 6965 9.20800000 3181169228 3181169228 -15.63900000
10.89245224 3.73781776 -2.30320144 4 4 6966 11.74400000 3181169230 3181169230 -11.31000000
40.38002014 16.10182571 0.00000000 22 5 6966 43.47200000 3181169230 3181169230 0.00000000
40.52242661 11.72685051 -0.49111402 21 6 6966 42.18800000 3181169232 3181169232 -0.66700000
12.69546509 5.06240892 -2.12635803 1 7 6966 13.83200000 3181169232 3181169232 -8.84300000
15.00976086 5.14777184 -2.01978660 4 8 6967 15.99600000 3181169235 3181169235 -7.25400000
40.60664749 18.53119850 0.25942057 27 9 6967 44.63600000 3181169235 3181169235 0.33300000
40.32800674 13.82309246 -0.24777350 24 10 6968 42.63200000 3181169237 3181169237 -0.33300000
16.01996422 6.38159704 -1.85749125 2 11 6968 17.34400000 3181169237 3181169237 -6.14800000
18.50010300 5.34327841 -1.79753828 4 12 6969 19.34000000 3181169239 3181169239 -5.33300000
40.33293152 16.05857849 1.01017857 14 13 6969 43.42400000 3181169239 3181169239 1.33300000
40.47680283 11.68302917 0.49046212 10 14 6970 42.13200000 3181169241 3181169241 0.66700000
20.34292603 8.09543324 -1.53101504 6 15 6970 21.94800000 3181169241 3181169241 -4.00000000
19.28633499 6.59942818 -1.66406620 5 16 6971 20.45200000 3181169244 3181169244 -4.66700000
40.47935867 18.43897438 1.29452872 17 17 6971 44.50000000 3181169244 3181169244 1.66700000
40.28815460 13.78586292 0.74326307 19 18 6971 42.58800000 3181169246 3181169246 1.00000000
20.60820389 9.38735580 -1.45132446 11 19 6971 22.69200000 3181169246 3181169246 -3.66700000
20.62772369 5.94608736 -1.25022149 19 20 6972 21.50400000 3181169248 3181169248 -3.33300000
40.18751907 15.97630882 2.51858234 13 21 6972 43.32000000 3181169248 3181169248 3.33300000
40.52286530 13.85037708 1.74471402 9 22 6973 42.86000000 3181169251 3181169251 2.33300000
20.66439056 8.21082878 -1.03578281 24 23 6973 22.26000000 3181169251 3181169251 -2.66700000
20.64667320 7.05283689 -1.14343596 25 24 6974 21.84800000 3181169253 3181169253 -3.00000000
43.70629501 17.35751152 5.77416945 19 25 6974 47.38000000 3181169253 3181169253 7.00000000
42.69435883 14.57593346 3.68288159 20 26 6975 45.26400000 3181169255 3181169255 4.66700000
20.70177269 9.41253281 -0.92649770 30 27 6975 22.76000000 3181169255 3181169255 -2.33300000
20.68881607 5.94805670 -0.75173515 16 28 6976 21.54000000 3181169258 3181169258 -2.00000000
49.67098236 16.94808578 9.56896973 17 30 6976 53.34800000 3181169260 3181169260 10.33300000
35.44970322 14.06416702 -0.88744229 5 31 6976 38.14800000 3181169260 3181169260 -1.33300000
5.55024529 1.88621521 -2.73349500 6 0 6983 6.46800000 3181169281 3181169281 -25.00000000
38.88221359 17.61321259 -0.74507815 9 1 6983 42.69200000 3181169281 3181169281 -1.00000000
34.56141663 11.73874855 -1.06226993 7 2 6984 36.51600000 3181169283 3181169283 -1.66700000
8.24671078 3.25844574 -2.48224998 2 3 6984 9.20800000 3181169283 3181169283 -15.63900000
10.92707253 3.70924139 -2.30790830 4 4 6985 11.76800000 3181169285 3181169285 -11.31000000
40.36622620 15.94138527 0.00000000 22 5 6985 43.40000000 3181169285 3181169285 0.00000000
40.51109695 11.57812023 -0.49050868 21 6 6985 42.13600000 3181169288 3181169288 -0.66700000
12.70483112 5.01737785 -2.12512827 1 7 6985 13.82400000 3181169288 3181169288 -8.84300000
15.01171875 5.09287024 -2.01776624 2 8 6986 15.98000000 3181169290 3181169290 -7.25400000
40.43099213 18.28928375 0.25790948 27 9 6986 44.37600000 3181169290 3181169290 0.33300000
40.32059097 13.67130184 -0.24744804 16 10 6987 42.57600000 3181169292 3181169292 -0.33300000
16.03734016 6.32697821 -1.85706282 2 11 6987 17.34000000 3181169292 3181169292 -6.14800000
18.51772118 5.28190041 -1.79753828 4 12 6988 19.34000000 3181169294 3181169294 -5.33300000
40.32643890 15.90126991 1.00868976 14 13 6988 43.36000000 3181169294 3181169294 1.33300000
40.47686005 11.53777504 0.48999646 20 14 6989 42.09200000 3181169297 3181169297 0.66700000
20.36223602 8.02500343 -1.53045702 6 15 6989 21.94000000 3181169297 3181169297 -4.00000000
19.29678535 6.53160143 -1.66308987 5 16 6990 20.44000000 3181169299 3181169299 -4.66700000
40.48561859 18.27995872 1.29278338 26 17 6990 44.44000000 3181169299 3181169299 1.66700000
40.29056931 13.62976742 0.74242538 19 18 6991 42.54000000 3181169301 3181169301 1.00000000
20.60810089 9.30058479 -1.44902205 8 19 6991 22.65600000 3181169301 3181169301 -3.66700000
20.62812614 5.87218380 -1.24905872 16 20 6991 21.48400000 3181169304 3181169304 -3.33300000
40.28858185 15.86197186 2.52160573 6 21 6991 43.37200000 3181169304 3181169304 3.33300000
40.55721283 13.71208191 1.74422550 18 22 6992 42.84800000 3181169306 3181169306 2.33300000
20.66919708 8.13348007 -1.03466606 24 23 6992 22.23600000 3181169306 3181169306 -2.66700000
20.65102768 6.97793770 -1.14238930 25 24 6993 21.82800000 3181169308 3181169308 -3.00000000
43.84859085 17.24590302 5.78538132 9 25 6993 47.47200000 3181169308 3181169308 7.00000000
42.78400803 14.44830513 3.68646145 20 26 6994 45.30800000 3181169311 3181169311 4.66700000
20.70007896 9.32905197 -0.92503226 26 27 6994 22.72400000 3181169311 3181169311 -2.33300000
20.68919945 5.87395859 -0.75103718 16 28 6995 21.52000000 3181169313 3181169313 -2.00000000
49.71199417 16.77824402 9.56610012 17 30 6995 53.33200000 3181169315 3181169315 10.33300000
35.52220154 13.95677090 -0.88809365 5 31 6995 38.17600000 3181169315 3181169315 -1.33300000
5.54992247 1.86452079 -2.73011398 6 0 7003 6.46000000 3181169336 3181169336 -25.00000000
38.94710541 17.47901726 -0.74514794 9 1 7003 42.69600000 3181169336 3181169336 -1.00000000
34.66661835 11.63966942 -1.06424809 14 2 7004 36.58400000 3181169338 3181169338 -1.66700000
8.25444698 3.22823644 -2.48117161 2 3 7004 9.20400000 3181169338 3181169338 -15.63900000
10.95110893 3.67481947 -2.31026173 4 4 7005 11.78000000 3181169340 3181169340 -11.31000000
40.38809586 15.78727722 0.00000000 22 5 7005 43.36400000 3181169340 3181169340 0.00000000
40.51476288 11.41871166 -0.49004304 21 6 7006 42.09600000 3181169343 3181169343 -0.66700000
12.73417950 4.97509336 -2.12697291 2 7 7006 13.83600000 3181169343 3181169343 -8.84300000
15.02940464 5.04043818 -2.01776624 4 8 7006 15.98000000 3181169345 3181169345 -7.25400000
40.33032990 18.07442856 0.25686333 18 9 7006 44.19600000 3181169345 3181169345 0.33300000
40.31497192 13.51267719 -0.24712257 24 10 7007 42.52000000 3181169347 3181169347 -0.33300000
16.06303215 6.27240562 -1.85749125 2 11 7007 17.34400000 3181169347 3181169347 -6.14800000
18.54754639 5.22046661 -1.79865360 4 12 7008 19.35200000 3181169350 3181169350 -5.33300000
40.32209778 15.73714542 1.00720096 14 13 7008 43.29600000 3181169350 3181169350 1.33300000
40.49378586 11.38991547 0.48971710 20 14 7009 42.06800000 3181169352 3181169352 0.66700000
20.39755821 7.95677710 -1.53101504 6 15 7009 21.94800000 3181169352 3181169352 -4.00000000
19.33458900 6.46926308 -1.66439164 5 16 7010 20.45600000 3181169354 3181169354 -4.66700000
40.30829620 18.03077316 1.28510344 17 17 7010 44.17600000 3181169354 3181169354 1.66700000
40.25589752 13.46943474 0.74095935 19 18 7010 42.45600000 3181169357 3181169357 1.00000000
20.59874725 9.21426487 -1.44620788 8 19 7010 22.61200000 3181169357 3181169357 -3.66700000
20.62543106 5.79366302 -1.24766338 16 20 7011 21.46000000 3181169359 3181169359 -3.33300000
40.26184845 15.68934441 2.51648927 20 21 7011 43.28400000 3181169359 3181169359 3.33300000
40.50627518 13.53748989 1.73999202 18 22 7012 42.74400000 3181169361 3181169361 2.33300000
20.67512131 8.05257988 -1.03354931 24 23 7012 22.21200000 3181169361 3181169361 -2.66700000
20.65252686 6.89821625 -1.14113319 25 24 7013 21.80400000 3181169364 3181169364 -3.00000000
43.94552231 17.10714149 5.79025602 9 25 7013 47.51200000 3181169364 3181169364 7.00000000
42.73207855 14.26478863 3.67767429 20 26 7014 45.20000000 3181169366 3181169366 4.66700000
20.69602394 9.24044418 -0.92340398 26 27 7014 22.68400000 3181169366 3181169366 -2.33300000
20.69033051 5.79631186 -0.75033915 16 28 7015 21.50000000 3181169368 3181169368 -2.00000000
49.61263275 16.54240417 9.53524876 17 30 7016 53.16000000 3181169370 3181169370 10.33300000
35.63275528 13.84966087 -0.88958246 5 31 7016 38.24000000 3181169370 3181169370 -1.33300000
5.56327820 1.84742165 -2.73349500 7 0 7023 6.46800000 3181169391 3181169391 -25.00000000
38.98595428 17.33321190 -0.74472910 18 1 7023 42.67200000 3181169391 3181169391 -1.00000000
34.49073792 11.44680309 -1.05761540 7 2 7024 36.35600000 3181169393 3181169393 -1.66700000
8.26207256 3.19801283 -2.48009324 3 3 7024 9.20000000 3181169393 3181169393 -15.63900000
10.95642376 3.63410091 -2.30869269 2 4 7025 11.77200000 3181169396 3181169396 -11.31000000
40.34596252 15.60867596 0.00000000 22 5 7025 43.26000000 3181169396 3181169396 0.00000000
40.50813293 11.26436043 -0.48948425 21 6 7026 42.04800000 3181169398 3181169398 -0.66700000
