# .PCD v0.7 - Point Cloud Data file format
VERSION 0.7
FIELDS x y z intensity laser_id azimuth distance_m adjustedtime timestamp vertical_angle
SIZE 4 4 4 1 1 2 8 8 4 8
TYPE F F F U U U F U U F
COUNT 1 1 1 1 1 1 1 1 1 1
WIDTH 522
HEIGHT 1
VIEWPOINT 0 0 0 1 0 0 0
POINTS 522
DATA ascii
6.48318005 34.27846909 -1.62505293 3 23 1211 34.92400000 3177153268 3177153268 -2.66700000
7.67911005 31.93668175 -1.72143424 6 24 1212 32.89200000 3177153271 3177153271 -3.00000000
3.83605647 27.53904533 -1.13280225 7 27 1213 27.82800000 3177153273 3177153273 -2.33300000
10.64379501 36.30483246 -1.32115531 7 28 1214 37.85600000 3177153275 3177153275 -2.00000000
9.02457428 47.53380203 -1.12584293 7 31 1215 48.39600000 3177153278 3177153278 -1.33300000
1.28485119 5.29879713 -2.54247141 16 0 1223 6.01600000 3177153298 3177153298 -25.00000000
7.80980492 55.35931396 -0.97586876 20 1 1223 55.91600000 3177153298 3177153298 -1.00000000
10.36134434 42.69821167 -1.27870357 9 2 1224 43.95600000 3177153301 3177153301 -1.66700000
1.51983035 7.93712091 -2.26227641 18 3 1224 8.39200000 3177153301 3177153301 -15.63900000
2.96941972 12.22741222 -2.51657701 12 4 1225 12.83200000 3177153303 3177153303 -11.31000000
15.05727959 50.99590302 -0.61902624 19 6 1225 53.17600000 3177153305 3177153305 -0.66700000
2.87185407 14.98373508 -2.37355185 12 7 1225 15.44000000 3177153305 3177153305 -8.84300000
3.87669373 15.95122528 -2.08948660 9 8 1226 16.54800000 3177153308 3177153308 -7.25400000
15.51996326 63.81063080 -0.38167998 28 10 1227 65.67200000 3177153310 3177153310 -0.33300000
3.58418608 18.66504097 -2.04726720 13 11 1227 19.11600000 3177153310 3177153310 -6.14800000
6.41506529 21.68469048 -2.11094570 5 12 1228 22.71200000 3177153312 3177153312 -5.33300000
21.90022659 73.98133850 0.89822596 28 14 1229 77.16000000 3177153314 3177153314 0.66700000
4.24722147 22.07625771 -1.57203186 4 15 1229 22.53600000 3177153314 3177153314 -4.00000000
5.93342543 24.33988953 -2.04517746 7 16 1230 25.13600000 3177153317 3177153317 -4.66700000
22.01975060 90.32865143 1.62286437 28 18 1230 92.98800000 3177153319 3177153319 1.00000000
3.55975246 25.01212502 -1.61914909 10 19 1230 25.31600000 3177153319 3177153319 -3.66700000
8.40098286 28.34307861 -1.72161269 4 20 1231 29.61200000 3177153321 3177153321 -3.33300000
33.24554443 172.47955322 10.22967720 42 21 1231 175.95200000 3177153321 3177153321 3.33300000
6.59060717 34.16031647 -1.62058592 3 23 1232 34.82800000 3177153324 3177153324 -2.66700000
7.78283930 31.85399628 -1.71850348 6 24 1233 32.83600000 3177153326 3177153326 -3.00000000
10.73579311 36.12762833 -1.31612980 6 28 1235 37.71200000 3177153331 3177153331 -2.00000000
9.15235615 47.26092148 -1.12016678 7 31 1236 48.15200000 3177153333 3177153333 -1.33300000
1.31800294 5.35787249 -2.57290006 14 0 1242 6.08800000 3177153354 3177153354 -25.00000000
7.96474981 55.13519669 -0.97237825 20 1 1242 55.71600000 3177153354 3177153354 -1.00000000
10.49810028 42.64420700 -1.27812171 9 2 1243 43.93600000 3177153356 3177153356 -1.66700000
1.58151650 8.11351395 -2.31403494 15 3 1243 8.58400000 3177153356 3177153356 -15.63900000
2.95740819 12.00422478 -2.47264671 15 4 1244 12.60800000 3177153358 3177153358 -11.31000000
15.16674709 50.74641418 -0.61660486 18 6 1244 52.96800000 3177153361 3177153361 -0.66700000
2.90638876 14.89654255 -2.36125374 16 7 1244 15.36000000 3177153361 3177153361 -8.84300000
3.69590330 14.99053764 -1.96523869 7 8 1245 15.56400000 3177153363 3177153363 -7.25400000
15.63949585 63.38600159 -0.37944824 28 10 1246 65.28800000 3177153365 3177153365 -0.33300000
3.65750575 18.71159935 -2.05369306 13 11 1246 19.17600000 3177153365 3177153365 -6.14800000
6.46294689 21.58317566 -2.10313845 5 12 1247 22.62800000 3177153367 3177153367 -5.33300000
21.86646652 72.97727203 0.88691086 28 14 1248 76.18800000 3177153370 3177153370 0.66700000
5.37021637 27.42288780 -1.95401835 3 15 1248 28.01200000 3177153370 3177153370 -4.00000000
5.98156691 24.18849373 -2.03411174 3 16 1249 25.00000000 3177153372 3177153372 -4.66700000
22.03210449 89.09428406 1.60199130 28 18 1249 91.79200000 3177153374 3177153374 1.00000000
3.62598515 24.88562965 -1.61172998 13 19 1249 25.20000000 3177153374 3177153374 -3.66700000
8.50410652 28.34566116 -1.72347319 4 20 1250 29.64400000 3177153377 3177153377 -3.33300000
33.84730911 172.52117920 10.23874664 42 21 1250 176.10800000 3177153377 3177153377 3.33300000
6.67921257 34.01280594 -1.61462998 3 23 1251 34.70000000 3177153379 3177153379 -2.66700000
3.88404489 26.52691841 -1.09225774 7 27 1253 26.83200000 3177153384 3177153384 -2.33300000
10.85093212 36.07651520 -1.31557143 6 28 1254 37.69600000 3177153386 3177153386 -2.00000000
9.27065277 47.07891464 -1.11653769 7 31 1254 47.99600000 3177153388 3177153388 -1.33300000
1.35865366 5.44117022 -2.61516190 17 0 1262 6.18800000 3177153409 3177153409 -25.00000000
8.13314819 54.94485092 -0.96951610 20 1 1262 55.55200000 3177153409 3177153409 -1.00000000
10.60521221 42.44050217 -1.27311814 9 2 1263 43.76400000 3177153411 3177153411 -1.66700000
1.61657965 8.14194679 -2.32373953 23 3 1263 8.62000000 3177153411 3177153411 -15.63900000
2.94886041 11.79215622 -2.43106985 15 4 1264 12.39600000 3177153414 3177153414 -11.31000000
14.87388992 74.84436035 0.00000000 26 5 1264 76.30800000 3177153414 3177153414 0.00000000
15.36655331 50.73641968 -0.61716366 18 6 1265 53.01600000 3177153416 3177153416 -0.66700000
2.96713638 14.91680241 -2.36617303 16 7 1265 15.39200000 3177153416 3177153416 -8.84300000
3.74435425 14.96214867 -1.96321833 12 8 1265 15.54800000 3177153418 3177153418 -7.25400000
15.71489811 62.74900818 -0.37596107 28 10 1266 64.68800000 3177153420 3177153420 -0.33300000
3.75929737 18.88204002 -2.07382727 11 11 1266 19.36400000 3177153420 3177153420 -6.14800000
6.53246832 21.54142952 -2.10127950 5 12 1267 22.60800000 3177153423 3177153423 -5.33300000
21.83536911 71.95896149 0.87545604 28 14 1268 75.20400000 3177153425 3177153425 0.66700000
5.50259113 27.58789444 -1.96713257 7 15 1268 28.20000000 3177153425 3177153425 -4.00000000
6.06208181 24.15200043 -2.03280997 3 16 1269 24.98400000 3177153427 3177153427 -4.66700000
22.05451775 87.80271912 1.58021069 28 18 1270 90.54400000 3177153430 3177153430 1.00000000
3.73487186 24.99061203 -1.61940491 10 19 1270 25.32000000 3177153430 3177153430 -3.66700000
8.58558655 28.25849342 -1.71998477 4 20 1270 29.58400000 3177153432 3177153432 -3.33300000
34.42975235 172.30407715 10.23293304 42 21 1270 176.00800000 3177153432 3177153432 3.33300000
29.19381523 116.13965607 4.87884903 28 22 1271 119.85200000 3177153434 3177153434 2.33300000
6.78692818 33.93443298 -1.61202431 3 23 1271 34.64400000 3177153434 3177153434 -2.66700000
5.74617672 38.31133652 -1.57830262 7 27 1273 38.77200000 3177153439 3177153439 -2.33300000
10.91389942 35.83191681 -1.30803311 6 28 1274 37.48000000 3177153441 3177153441 -2.00000000
9.39011288 46.82278061 -1.11123371 7 31 1274 47.76800000 3177153444 3177153444 -1.33300000
1.37407649 5.42233801 -2.60839987 15 0 1282 6.17200000 3177153464 3177153464 -25.00000000
8.30031586 54.75400162 -0.96665388 20 1 1282 55.38800000 3177153464 3177153464 -1.00000000
10.70218468 42.20169449 -1.26706731 9 2 1283 43.55600000 3177153467 3177153467 -1.66700000
1.65796721 8.20043850 -2.34207082 23 3 1283 8.68800000 3177153467 3177153467 -15.63900000
2.97649717 11.72856522 -2.42008734 15 4 1284 12.34000000 3177153469 3177153469 -11.31000000
15.05651093 74.40385437 0.00000000 26 5 1284 75.91200000 3177153469 3177153469 0.00000000
15.42276955 50.28860855 -0.61236751 36 6 1285 52.60400000 3177153471 3177153471 -0.66700000
3.02389550 14.92959690 -2.36986232 15 7 1285 15.41600000 3177153471 3177153471 -8.84300000
3.80046606 14.96437073 -1.96523869 15 8 1285 15.56400000 3177153473 3177153473 -7.25400000
15.88457394 62.49993515 -0.37479869 28 10 1286 64.48800000 3177153476 3177153476 -0.33300000
3.81017184 18.79474640 -2.06568789 21 11 1286 19.28800000 3177153476 3177153476 -6.14800000
6.59943867 21.49184418 -2.09867716 5 12 1287 22.58000000 3177153478 3177153478 -5.33300000
21.84207344 71.08705139 0.86577064 28 14 1288 74.37200000 3177153480 3177153480 0.66700000
5.56947327 27.42383194 -1.95680857 7 15 1288 28.05200000 3177153480 3177153480 -4.00000000
6.13946295 24.10364914 -2.03053188 3 16 1289 24.95600000 3177153483 3177153483 -4.66700000
22.00696182 86.39974976 1.55626595 28 18 1289 89.17200000 3177153485 3177153485 1.00000000
3.73630261 24.44538116 -1.58486784 26 19 1289 24.78000000 3177153485 3177153485 -3.66700000
8.63368511 28.06423378 -1.70998490 4 20 1290 29.41200000 3177153487 3177153487 -3.33300000
35.07318878 172.39024353 10.24525833 42 21 1290 176.22000000 3177153487 3177153487 3.33300000
6.88540792 33.81265259 -1.60737109 3 23 1291 34.54400000 3177153490 3177153490 -2.66700000
8.03040791 31.45866203 -1.70154655 6 24 1292 32.51200000 3177153492 3177153492 -3.00000000
5.89321852 38.37795258 -1.58188486 7 27 1293 38.86000000 3177153494 3177153494 -2.33300000
11.00238800 35.67518234 -1.30370557 6 28 1294 37.35600000 3177153497 3177153497 -2.00000000
9.52389812 46.64474869 -1.10779071 7 31 1294 47.62000000 3177153499 3177153499 -1.33300000
1.39931512 5.44208574 -2.62023330 13 0 1302 6.20000000 3177153519 3177153519 -25.00000000
8.45030594 54.45990753 -0.96197665 19 1 1302 55.12000000 3177153519 3177153519 -1.00000000
10.81555462 42.03242493 -1.26311100 9 2 1303 43.42000000 3177153521 3177153521 -1.66700000
1.68192291 8.17196465 -2.33560085 26 3 1303 8.66400000 3177153521 3177153521 -15.63900000
2.97829556 11.56616688 -2.38870859 9 4 1304 12.18000000 3177153524 3177153524 -11.31000000
15.23543262 73.95906830 0.00000000 26 5 1304 75.51200000 3177153524 3177153524 0.00000000
15.52425003 50.02708435 -0.60980648 17 6 1304 52.38400000 3177153526 3177153526 -0.66700000
3.07418466 14.92335796 -2.37047720 16 7 1304 15.42000000 3177153526 3177153526 -8.84300000
3.85366845 14.95485592 -1.96574366 12 8 1305 15.56800000 3177153528 3177153528 -7.25400000
16.05270195 62.25044632 -0.37363631 28 10 1306 64.28800000 3177153531 3177153531 -0.33300000
3.86289430 18.71901321 -2.05883360 17 11 1306 19.22400000 3177153531 3177153531 -6.14800000
6.66968918 21.45346451 -2.09718990 5 12 1307 22.56400000 3177153533 3177153533 -5.33300000
21.84533310 70.22361755 0.85617840 28 14 1308 73.54800000 3177153535 3177153535 0.66700000
5.66112757 27.38468552 -1.95541346 3 15 1308 28.03200000 3177153535 3177153535 -4.00000000
6.22057056 24.07049179 -2.02955532 3 16 1309 24.94400000 3177153537 3177153537 -4.66700000
21.96918488 85.00974274 1.53260052 28 18 1309 87.81600000 3177153540 3177153540 1.00000000
3.82469463 24.45190811 -1.58614695 22 19 1309 24.80000000 3177153540 3177153540 -3.66700000
8.73634529 28.04917526 -1.71091509 4 20 1310 29.42800000 3177153542 3177153542 -3.33300000
6.98555326 33.70233536 -1.60327637 3 23 1311 34.45600000 3177153544 3177153544 -2.66700000
8.13816738 31.42270470 -1.70112789 6 24 1312 32.50400000 3177153547 3177153547 -3.00000000
5.99674749 38.16368484 -1.57390630 7 27 1313 38.66400000 3177153549 3177153549 -2.33300000
11.10421276 35.56405640 -1.30105329 6 28 1314 37.28000000 3177153551 3177153551 -2.00000000
9.63539982 46.36455917 -1.10192847 7 31 1314 47.36800000 3177153554 3177153554 -1.33300000
1.44209397 5.52837181 -2.66418552 12 0 1322 6.30400000 3177153574 3177153574 -25.00000000
8.57765293 54.03508377 -0.95499569 18 1 1322 54.72000000 3177153574 3177153574 -1.00000000
10.91878414 41.82806396 -1.25810742 9 2 1323 43.24800000 3177153577 3177153577 -1.66700000
1.71122789 8.16981316 -2.33667922 20 3 1323 8.66800000 3177153577 3177153577 -15.63900000
2.99981523 11.48359585 -2.37380362 16 4 1324 12.10400000 3177153579 3177153579 -11.31000000
15.41143322 73.51394653 0.00000000 26 5 1324 75.11200000 3177153579 3177153579 0.00000000
15.67480755 49.89627457 -0.60887522 17 6 1324 52.30400000 3177153581 3177153581 -0.66700000
3.01758909 14.39417648 -2.28807926 15 7 1324 14.88400000 3177153581 3177153581 -8.84300000
3.90785432 14.94899082 -1.96675384 11 8 1325 15.57600000 3177153584 3177153584 -7.25400000
16.26989937 62.19403458 -0.37363631 28 10 1326 64.28800000 3177153586 3177153586 -0.33300000
3.93883801 18.75601196 -2.06440282 14 11 1326 19.27600000 3177153586 3177153586 -6.14800000
6.73377466 21.39586067 -2.09384394 5 12 1327 22.52800000 3177153588 3177153588 -5.33300000
21.77795982 69.15502930 0.84407169 28 14 1328 72.50800000 3177153590 3177153590 0.66700000
5.75339746 27.34913826 -1.95429742 3 15 1328 28.01600000 3177153590 3177153590 -4.00000000
6.27321339 23.92908096 -2.01946616 3 16 1329 24.82000000 3177153593 3177153593 -4.66700000
21.94631767 83.71390533 1.51061046 28 18 1329 86.55600000 3177153595 3177153595 1.00000000
3.91254687 24.45417595 -1.58717024 22 19 1329 24.81600000 3177153595 3177153595 -3.66700000
8.76935959 27.81285477 -1.69835711 4 20 1330 29.21200000 3177153597 3177153597 -3.33300000
36.27007294 172.11383057 10.24363041 42 21 1330 176.19200000 3177153597 3177153597 3.33300000
7.07923985 33.56436539 -1.59787881 3 23 1331 34.34000000 3177153600 3177153600 -2.66700000
8.23765373 31.35547256 -1.69903445 6 24 1332 32.46400000 3177153602 3177153602 -3.00000000
6.12041426 38.08332825 -1.57146382 7 27 1333 38.60400000 3177153604 3177153604 -2.33300000
11.20298767 35.44503403 -1.29812169 6 28 1334 37.19600000 3177153607 3177153607 -2.00000000
9.78311920 46.26412964 -1.10034657 7 31 1334 47.30000000 3177153609 3177153609 -1.33300000
1.44093370 5.45371485 -2.63037610 13 0 1340 6.22400000 3177153630 3177153630 -25.00000000
8.71539497 53.81047058 -0.95150518 18 1 1340 54.52000000 3177153630 3177153630 -1.00000000
11.03276253 41.72784042 -1.25612926 9 2 1341 43.18000000 3177153632 3177153632 -1.66700000
1.71284008 8.05136871 -2.30433011 18 3 1341 8.54800000 3177153632 3177153632 -15.63900000
3.06095886 11.56891155 -2.39341545 10 4 1342 12.20400000 3177153634 3177153634 -11.31000000
15.57566738 73.15218353 0.00000000 26 5 1342 74.79200000 3177153634 3177153634 0.00000000
15.77094746 49.65617752 -0.60654700 17 6 1342 52.10400000 3177153637 3177153637 -0.66700000
3.10806584 14.59724331 -2.32189941 14 7 1342 15.10400000 3177153637 3177153637 -8.84300000
3.96089220 14.95965481 -1.96978426 11 8 1343 15.60000000 3177153639 3177153639 -7.25400000
16.31256104 61.56650162 -0.37017241 28 10 1344 63.69200000 3177153641 3177153641 -0.33300000
3.84841800 18.04343414 -1.98729289 9 11 1344 18.55600000 3177153641 3177153641 -6.14800000
6.77680731 21.29869652 -2.08640838 5 12 1345 22.44800000 3177153643 3177153643 -5.33300000
21.75243187 68.32402039 0.83475882 28 14 1346 71.70800000 3177153646 3177153646 0.66700000
5.80677414 27.17874336 -1.94341540 6 15 1346 27.86000000 3177153646 3177153646 -4.00000000
6.33914995 23.87457657 -2.01653719 3 16 1347 24.78400000 3177153648 3177153648 -4.66700000
21.92596436 82.51974487 1.49036574 28 18 1348 85.39600000 3177153650 3177153650 1.00000000
3.99876809 24.47258377 -1.58921695 9 19 1348 24.84800000 3177153650 3177153650 -3.66700000
8.86154366 27.80038643 -1.69928730 4 20 1348 29.22800000 3177153653 3177153653 -3.33300000
29.18130684 109.74849701 4.62662649 28 22 1349 113.65600000 3177153655 3177153655 2.33300000
7.17460775 33.49507523 -1.59564531 3 23 1349 34.29200000 3177153655 3177153655 -2.66700000
8.32173920 31.27539444 -1.69610369 6 24 1350 32.40800000 3177153657 3177153657 -3.00000000
6.21416378 37.90615082 -1.56495070 7 27 1351 38.44400000 3177153660 3177153660 -2.33300000
11.28995132 35.33350372 -1.29532969 6 28 1352 37.11600000 3177153662 3177153662 -2.00000000
9.91330051 46.16279221 -1.09867156 7 31 1352 47.22800000 3177153664 3177153664 -1.33300000
1.46840644 5.48016739 -2.64559031 15 0 1360 6.26000000 3177153685 3177153685 -25.00000000
8.89011097 53.70080948 -0.95010900 18 1 1360 54.44000000 3177153685 3177153685 -1.00000000
11.14003849 41.54618454 -1.25182390 9 2 1361 43.03200000 3177153687 3177153687 -1.66700000
1.73686087 8.02651691 -2.29893875 30 3 1361 8.52800000 3177153687 3177153687 -15.63900000
3.06574583 11.42556477 -2.36595893 13 4 1362 12.06400000 3177153689 3177153689 -11.31000000
15.89160633 49.40766144 -0.60421878 17 6 1363 51.90400000 3177153692 3177153692 -0.66700000
3.13977742 14.48532295 -2.30591178 15 7 1363 15.00000000 3177153692 3177153692 -8.84300000
4.01308680 14.94573784 -1.96978426 13 8 1363 15.60000000 3177153694 3177153694 -7.25400000
16.45782661 61.25037003 -0.36861482 28 10 1364 63.42400000 3177153696 3177153696 -0.33300000
3.92402506 18.08818817 -1.99371862 4 11 1364 18.61600000 3177153696 3177153696 -6.14800000
6.84500837 21.25595665 -2.08454967 5 12 1365 22.42800000 3177153699 3177153699 -5.33300000
21.74668312 67.49008942 0.82549250 28 14 1366 70.91200000 3177153701 3177153701 0.66700000
5.89906836 27.14661026 -1.94257832 6 15 1366 27.84800000 3177153701 3177153701 -4.00000000
6.41519308 23.82535553 -2.01425886 3 16 1367 24.75600000 3177153703 3177153703 -4.66700000
21.89793587 81.32664490 1.47012091 28 18 1367 84.23600000 3177153706 3177153706 1.00000000
3.43560171 20.59659004 -1.33824754 4 19 1367 20.92400000 3177153706 3177153706 -3.66700000
8.95975685 27.77308464 -1.69951987 4 20 1368 29.23200000 3177153708 3177153708 -3.33300000
29.51219940 109.45301819 4.61848545 28 22 1369 113.45600000 3177153710 3177153710 2.33300000
7.27787542 33.40736389 -1.59266734 3 23 1369 34.22800000 3177153710 3177153710 -2.66700000
8.40380478 31.14588547 -1.69066072 6 24 1370 32.30400000 3177153713 3177153713 -3.00000000
6.34049988 37.84875107 -1.56348526 7 27 1371 38.40800000 3177153715 3177153715 -2.33300000
11.37016964 35.16075516 -1.29044378 6 28 1372 36.97600000 3177153717 3177153717 -2.00000000
10.03375530 45.90346909 -1.09336758 7 31 1373 47.00000000 3177153719 3177153719 -1.33300000
1.47326469 5.41877651 -2.61854267 16 0 1381 6.19600000 3177153740 3177153740 -25.00000000
9.06684494 53.54956436 -0.94801474 18 1 1381 54.32000000 3177153740 3177153740 -1.00000000
11.24395370 41.32760620 -1.24647117 9 2 1382 42.84800000 3177153742 3177153742 -1.66700000
1.77538085 8.06147671 -2.31080008 24 3 1382 8.57200000 3177153742 3177153742 -15.63900000
3.09832883 11.38019085 -2.35889888 12 4 1383 12.02800000 3177153745 3177153745 -11.31000000
16.02923584 49.21597672 -0.60258901 17 6 1384 51.76400000 3177153747 3177153747 -0.66700000
3.20561910 14.53161240 -2.31513548 14 7 1384 15.06000000 3177153747 3177153747 -8.84300000
4.07618332 14.96155643 -1.97382486 5 8 1384 15.63200000 3177153749 3177153749 -7.25400000
16.64748955 61.06228638 -0.36784765 28 10 1385 63.29200000 3177153752 3177153752 -0.33300000
3.72621894 16.87757492 -1.86177504 16 11 1385 17.38400000 3177153752 3177153752 -6.14800000
6.91669607 21.21179390 -2.08269072 2 12 1386 22.40800000 3177153754 3177153754 -5.33300000
21.74949646 66.66084290 0.81631929 28 14 1387 70.12400000 3177153756 3177153756 0.66700000
5.99507999 27.10922241 -1.94146216 6 15 1387 27.83200000 3177153756 3177153756 -4.00000000
6.49932241 23.79014587 -2.01328254 3 16 1388 24.74400000 3177153759 3177153759 -4.66700000
21.90918159 80.19645691 1.45113266 28 18 1388 83.14800000 3177153761 3177153761 1.00000000
3.50972652 20.57598877 -1.33773589 4 19 1388 20.91600000 3177153761 3177153761 -3.66700000
9.06397057 27.74765015 -1.69998503 4 20 1389 29.24000000 3177153763 3177153763 -3.33300000
29.96589661 109.53687286 4.62662649 28 22 1390 113.65600000 3177153766 3177153766 2.33300000
7.37519073 33.26733780 -1.58726966 3 23 1390 34.11200000 3177153766 3177153766 -2.66700000
8.51157570 31.09175682 -1.68940473 6 24 1391 32.28000000 3177153768 3177153768 -3.00000000
6.45083952 37.65980911 -1.55664635 7 27 1392 38.24000000 3177153770 3177153770 -2.33300000
11.48403645 35.07325363 -1.28876865 6 28 1393 36.92800000 3177153772 3177153772 -2.00000000
10.18091297 45.80960846 -1.09197176 7 31 1393 46.94000000 3177153775 3177153775 -1.33300000
1.49795067 5.43457031 -2.62868547 14 0 1401 6.22000000 3177153795 3177153795 -25.00000000
9.19579124 53.18261337 -0.94208091 17 1 1401 53.98000000 3177153795 3177153795 -1.00000000
11.36900997 41.21872711 -1.24437666 9 2 1402 42.77600000 3177153798 3177153798 -1.66700000
1.81276727 8.09657764 -2.32266140 27 3 1402 8.61600000 3177153798 3177153798 -15.63900000
3.16203642 11.45626831 -2.37694168 10 4 1403 12.12000000 3177153800 3177153800 -11.31000000
16.13104248 48.97639847 -0.60030740 16 6 1403 51.56800000 3177153802 3177153802 -0.66700000
3.25119758 14.50933170 -2.31329060 14 7 1403 15.04800000 3177153802 3177153802 -8.84300000
4.08824110 14.80189514 -1.95463216 2 8 1404 15.48000000 3177153805 3177153805 -7.25400000
3.78772283 16.87610626 -1.86306024 22 11 1405 17.39600000 3177153807 3177153807 -6.14800000
6.98196125 21.16104507 -2.08008814 2 12 1406 22.38000000 3177153809 3177153809 -5.33300000
21.75760651 65.90466309 0.80798429 28 14 1407 69.40800000 3177153812 3177153812 0.66700000
6.08617115 27.07255936 -1.94034612 3 15 1407 27.81600000 3177153812 3177153812 -4.00000000
6.58126211 23.76347160 -2.01295710 6 16 1408 24.74000000 3177153814 3177153814 -4.66700000
22.19112206 80.12719727 1.45127237 28 18 1408 83.15600000 3177153816 3177153816 1.00000000
3.58015895 20.55574799 -1.33722425 2 19 1408 20.90800000 3177153816 3177153816 -3.66700000
9.15200043 27.68930244 -1.69835711 4 20 1409 29.21200000 3177153819 3177153819 -3.33300000
30.34806824 109.43160248 4.62662649 28 22 1410 113.65600000 3177153821 3177153821 2.33300000
7.47633743 33.17512512 -1.58410561 3 23 1410 34.04400000 3177153821 3177153821 -2.66700000
8.60830402 31.01951790 -1.68710184 6 24 1411 32.23600000 3177153823 3177153823 -3.00000000
40.87680435 147.19744873 12.47122097 28 26 1412 153.27600000 3177153825 3177153825 4.66700000
6.57124090 37.57406998 -1.55404115 7 27 1412 38.17600000 3177153825 3177153825 -2.33300000
11.55610752 34.88116455 -1.28318465 6 28 1413 36.76800000 3177153828 3177153828 -2.00000000
10.31787968 45.63546753 -1.08871496 7 31 1414 46.80000000 3177153830 3177153830 -1.33300000
1.50028920 5.36619949 -2.59825706 14 0 1422 6.14800000 3177153851 3177153851 -25.00000000
9.34542274 52.89255524 -0.93754327 17 1 1422 53.72000000 3177153851 3177153851 -1.00000000
11.47907257 41.03046036 -1.23995495 9 2 1423 42.62400000 3177153853 3177153853 -1.66700000
1.86552513 8.19128513 -2.35177541 18 3 1423 8.72400000 3177153853 3177153853 -15.63900000
3.18285608 11.36905956 -2.36125207 12 4 1424 12.04000000 3177153855 3177153855 -11.31000000
16.25224304 48.74240875 -0.59816539 16 6 1424 51.38400000 3177153858 3177153858 -0.66700000
3.29732823 14.46648884 -2.30837131 14 7 1424 15.01600000 3177153858 3177153858 -8.84300000
4.08573389 14.58430481 -1.92786324 3 8 1425 15.26800000 3177153860 3177153860 -7.25400000
16.92205811 60.36388016 -0.36436048 28 10 1426 62.69200000 3177153862 3177153862 -0.33300000
3.85043645 16.86598778 -1.86348867 22 11 1426 17.40000000 3177153862 3177153862 -6.14800000
7.04937983 21.10509300 -2.07711411 2 12 1427 22.34800000 3177153865 3177153865 -5.33300000
21.76573753 65.12647247 0.79941648 28 14 1428 68.67200000 3177153867 3177153867 0.66700000
6.15066719 26.89836502 -1.92946410 3 15 1428 27.66000000 3177153867 3177153867 -4.00000000
6.63381481 23.61636925 -2.00254250 3 16 1429 24.61200000 3177153869 3177153869 -4.66700000
22.00227547 78.32806396 1.42013717 28 18 1429 81.37200000 3177153872 3177153872 1.00000000
4.04081440 22.70795822 -1.47818661 5 19 1429 23.11200000 3177153872 3177153872 -3.66700000
9.19007111 27.46622849 -1.68672931 4 20 1430 29.01200000 3177153874 3177153874 -3.33300000
30.85717010 109.70437622 4.64290953 28 22 1431 114.05600000 3177153876 3177153876 2.33300000
7.57199144 33.03455353 -1.57870793 3 23 1431 33.92800000 3177153876 3177153876 -2.66700000
8.69379997 30.88778496 -1.68165898 6 24 1432 32.13200000 3177153878 3177153878 -3.00000000
40.37088013 143.33583069 12.15650368 28 26 1433 149.40800000 3177153881 3177153881 4.66700000
6.68360662 37.40809631 -1.54817927 7 27 1433 38.03200000 3177153881 3177153881 -2.33300000
11.66353798 34.77793503 -1.28095114 6 28 1434 36.70400000 3177153883 3177153883 -2.00000000
10.48507309 45.59734726 -1.08871496 7 31 1435 46.80000000 3177153885 3177153885 -1.33300000
1.51011693 5.32953835 -2.58304286 16 0 1442 6.11200000 3177153906 3177153906 -25.00000000
9.45903492 52.46601868 -0.93056232 16 1 1442 53.32000000 3177153906 3177153906 -1.00000000
1.90887046 8.24851894 -2.37010670 21 3 1443 8.79200000 3177153908 3177153908 -15.63900000
3.20110989 11.28241253 -2.34556270 12 4 1444 11.96000000 3177153911 3177153911 -11.31000000
16.41589546 48.66642761 -0.59793258 16 6 1444 51.36400000 3177153913 3177153913 -0.66700000
3.32640243 14.36247826 -2.29361367 14 7 1444 14.92000000 3177153913 3177153913 -8.84300000
4.10410547 14.45544052 -1.91271102 3 8 1445 15.14800000 3177153915 3177153915 -7.25400000
17.13266563 60.30444336 -0.36436048 28 10 1446 62.69200000 3177153918 3177153918 -0.33300000
3.91377974 16.87181473 -1.86563063 20 11 1446 17.42000000 3177153918 3177153918 -6.14800000
7.11663246 21.06149101 -2.07525516 2 12 1447 22.32800000 3177153920 3177153920 -5.33300000
21.74825859 64.32639313 0.79052269 28 14 1448 67.90800000 3177153922 3177153922 0.66700000
6.24091005 26.86118507 -1.92834795 3 15 1448 27.64400000 3177153922 3177153922 -4.00000000
6.70747852 23.56239319 -1.99993873 3 16 1449 24.58000000 3177153925 3177153925 -4.66700000
21.98209763 77.21990204 1.40142822 28 18 1449 80.30000000 3177153927 3177153927 1.00000000
3.73642945 20.58066177 -1.34055007 6 19 1449 20.96000000 3177153927 3177153927 -3.66700000
9.27820873 27.41128731 -1.68533397 4 20 1450 28.98800000 3177153929 3177153929 -3.33300000
31.22458267 109.54218292 4.64062977 28 22 1451 114.00000000 3177153931 3177153931 2.33300000
7.67185020 32.94176483 -1.57554388 3 23 1451 33.86000000 3177153931 3177153931 -2.66700000
8.78951263 30.81499672 -1.67935622 6 24 1452 32.08800000 3177153934 3177153934 -3.00000000
40.80859756 142.97552490 12.13795185 28 26 1453 149.18000000 3177153936 3177153936 4.66700000
6.80554438 37.33735275 -1.54622531 7 27 1453 37.98400000 3177153936 3177153936 -2.33300000
11.77972698 34.72186661 -1.28039277 6 28 1454 36.68800000 3177153938 3177153938 -2.00000000
10.58503914 45.30735397 -1.08266652 7 31 1455 46.54000000 3177153941 3177153941 -1.33300000
1.53484666 5.35264635 -2.59656668 14 0 1460 6.14400000 3177153961 3177153961 -25.00000000
9.63753223 52.51078415 -0.93188870 16 1 1460 53.39600000 3177153961 3177153961 -1.00000000
1.90924740 8.13373184 -2.33883595 15 3 1461 8.67600000 3177153964 3177153964 -15.63900000
3.25277567 11.32884979 -2.35732985 13 4 1462 12.02000000 3177153966 3177153966 -11.31000000
16.67429543 70.97976685 0.00000000 25 5 1462 72.91200000 3177153966 3177153966 0.00000000
16.51838303 48.46696854 -0.59611660 16 6 1462 51.20800000 3177153968 3177153968 -0.66700000
3.34258246 14.22883034 -2.27393651 13 7 1462 14.79200000 3177153968 3177153968 -8.84300000
4.11991405 14.33950615 -1.89907408 5 8 1463 15.04000000 3177153971 3177153971 -7.25400000
17.21150970 59.86590195 -0.36203572 28 10 1464 62.29200000 3177153973 3177153973 -0.33300000
3.97040820 16.87492180 -1.86734414 20 11 1464 17.43600000 3177153973 3177153973 -6.14800000
7.18019056 21.03149223 -2.07451153 2 12 1465 22.32000000 3177153975 3177153975 -5.33300000
21.72138786 63.58780670 0.78228080 28 14 1466 67.20000000 3177153977 3177153977 0.66700000
6.32160521 26.82591057 -1.92723191 3 15 1466 27.62800000 3177153977 3177153977 -4.00000000
6.77705431 23.52588081 -1.99863696 3 16 1467 24.56400000 3177153980 3177153980 -4.66700000
22.00427437 76.38568115 1.38753617 28 18 1467 79.50400000 3177153982 3177153982 1.00000000
9.31646824 27.24220276 -1.67672932 4 20 1468 28.84000000 3177153984 3177153984 -3.33300000
41.97511673 145.52151489 6.17040968 115 22 1469 151.58000000 3177153987 3177153987 2.33300000
7.76244259 32.86306000 -1.57293808 3 23 1469 33.80400000 3177153987 3177153987 -2.66700000
8.87076950 30.73350143 -1.67642534 6 24 1470 32.03200000 3177153989 3177153989 -3.00000000
6.89802265 37.18218231 -1.54068911 7 27 1471 37.84800000 3177153991 3177153991 -2.33300000
11.88356590 34.66955948 -1.27983439 6 28 1472 36.67200000 3177153994 3177153994 -2.00000000
10.69505501 45.13768768 -1.07940972 7 31 1473 46.40000000 3177153996 3177153996 -1.33300000
1.55655575 5.35769987 -2.60163808 11 0 1480 6.15600000 3177154017 3177154017 -25.00000000
9.73322296 52.00901794 -0.92358136 15 1 1480 52.92000000 3177154017 3177154017 -1.00000000
11.77886009 40.51670456 -1.22796965 9 2 1481 42.21200000 3177154019 3177154019 -1.66700000
1.89385474 7.94341993 -2.28599906 17 3 1481 8.48000000 3177154019 3177154019 -15.63900000
3.27915359 11.27223206 -2.34791613 10 4 1482 11.97200000 3177154021 3177154021 -11.31000000
16.63271523 48.25019455 -0.59416091 15 6 1482 51.04000000 3177154024 3177154024 -0.66700000
3.30416775 13.84800148 -2.21490502 14 7 1482 14.40800000 3177154024 3177154024 -8.84300000
4.13556290 14.20693207 -1.88341677 5 8 1483 14.91600000 3177154026 3177154026 -7.25400000
17.36444473 59.61344147 -0.36087334 28 10 1484 62.09200000 3177154028 3177154028 -0.33300000
4.03021288 16.86482811 -1.86777258 22 11 1484 17.44000000 3177154028 3177154028 -6.14800000
7.25096035 20.99877167 -2.07376814 2 12 1485 22.31200000 3177154030 3177154030 -5.33300000
21.71203041 62.84246063 0.77403891 28 14 1486 66.49200000 3177154033 3177154033 0.66700000
6.38084126 26.66009712 -1.91690791 3 15 1486 27.48000000 3177154033 3177154033 -4.00000000
6.85354900 23.48294640 -1.99700963 3 16 1487 24.54400000 3177154035 3177154035 -4.66700000
5.48332405 29.10319138 -1.89800394 4 19 1487 29.67600000 3177154037 3177154037 -3.66700000
9.45197010 27.32650566 -1.68393862 4 20 1488 28.96400000 3177154040 3177154040 -3.33300000
42.48282242 145.37411499 6.17040968 112 22 1489 151.58000000 3177154042 3177154042 2.33300000
8.94436169 30.58732986 -1.67014503 6 24 1490 31.91200000 3177154044 3177154044 -3.00000000
40.92407227 139.85879517 11.89613724 28 26 1491 146.20800000 3177154047 3177154047 4.66700000
7.01365900 37.08326340 -1.53759539 7 27 1491 37.77200000 3177154047 3177154047 -2.33300000
11.96392155 34.51078033 -1.27550685 6 28 1492 36.54800000 3177154049 3177154049 -2.00000000
10.83813381 45.07475662 -1.07875836 7 31 1492 46.37200000 3177154051 3177154051 -1.33300000
1.57515812 5.34848166 -2.59994745 15 0 1501 6.15200000 3177154072 3177154072 -25.00000000
9.90952778 51.89835358 -0.92225498 15 1 1501 52.84400000 3177154072 3177154072 -1.00000000
11.93293285 40.49243927 -1.22855139 9 2 1502 42.23200000 3177154074 3177154074 -1.66700000
1.92386317 7.94016886 -2.28707743 17 3 1502 8.48400000 3177154074 3177154074 -15.63900000
3.30269599 11.19994354 -2.33536458 12 4 1503 11.90800000 3177154077 3177154077 -11.31000000
16.75459671 48.00471115 -0.59192580 15 6 1504 50.84800000 3177154079 3177154079 -0.66700000
3.28741074 13.54713821 -2.16878676 15 7 1504 14.10800000 3177154079 3177154079 -8.84300000
4.06183195 13.76543427 -1.82684863 7 8 1504 14.46800000 3177154081 3177154081 -7.25400000
17.55450630 59.45349121 -0.36029217 28 10 1505 61.99200000 3177154083 3177154083 -0.33300000
4.09669113 16.86926651 -1.86991441 20 11 1505 17.46000000 3177154083 3177154083 -6.14800000
7.28977871 20.86301994 -2.06298661 2 12 1506 22.19600000 3177154086 3177154086 -5.33300000
21.73233604 62.16213226 0.76663518 28 14 1507 65.85600000 3177154088 3177154088 0.66700000
6.47379732 26.61714363 -1.91551280 3 15 1507 27.46000000 3177154088 3177154088 -4.00000000
6.93617916 23.44619942 -1.99603331 3 16 1508 24.53200000 3177154090 3177154090 -4.66700000
5.60181904 29.11720085 -1.90030646 4 19 1509 29.71200000 3177154093 3177154093 -3.66700000
9.51116848 27.17483902 -1.67672932 4 20 1509 28.84000000 3177154095 3177154095 -3.33300000
9.05300426 30.54285240 -1.66951704 6 24 1511 31.90000000 3177154100 3177154100 -3.00000000
41.34344864 139.39443970 11.86944962 28 26 1512 145.88000000 3177154102 3177154102 4.66700000
7.12227201 36.91603088 -1.53173351 6 27 1512 37.62800000 3177154102 3177154102 -2.33300000
12.07974434 34.43651962 -1.27438998 6 28 1513 36.51600000 3177154104 3177154104 -2.00000000
10.91499901 44.67345428 -1.07010448 7 31 1513 46.00000000 3177154107 3177154107 -1.33300000
1.62387061 5.44369555 -2.64897132 12 0 1521 6.26800000 3177154127 3177154127 -25.00000000
10.02875900 51.54545975 -0.91660041 15 1 1521 52.52000000 3177154127 3177154127 -1.00000000
12.06162548 40.40839386 -1.22727144 9 2 1522 42.18800000 3177154130 3177154130 -1.66700000
1.97825122 8.04187679 -2.31834817 15 3 1522 8.60000000 3177154130 3177154130 -15.63900000
3.33166814 11.15452194 -2.32830453 15 4 1523 11.87200000 3177154132 3177154132 -11.31000000
16.87546921 47.81392288 -0.59029603 15 6 1524 50.70800000 3177154134 3177154134 -0.66700000
3.34035182 13.55860710 -2.17247629 16 7 1524 14.13200000 3177154134 3177154134 -8.84300000
5.19157887 17.37050056 -2.30767798 3 8 1524 18.27600000 3177154136 3177154136 -7.25400000
17.67597389 59.10443497 -0.35854858 28 10 1525 61.69200000 3177154139 3177154139 -0.33300000
7.35327196 20.81116104 -2.06038404 2 12 1526 22.16800000 3177154141 3177154141 -5.33300000
21.70255470 61.38825607 0.75802076 28 14 1527 65.11600000 3177154143 3177154143 0.66700000
6.55997324 26.56726646 -1.91355956 3 15 1527 27.43200000 3177154143 3177154143 -4.00000000
6.98822784 23.32255173 -1.98757136 3 16 1528 24.42800000 3177154146 3177154146 -4.66700000
5.67379570 28.97310829 -1.89211988 4 19 1528 29.58400000 3177154148 3177154148 -3.66700000
9.49671936 26.83279037 -1.65765977 4 20 1529 28.51200000 3177154150 3177154150 -3.33300000
8.02740383 32.43723679 -1.55655921 3 23 1530 33.45200000 3177154153 3177154153 -2.66700000
9.13774109 30.43837547 -1.66553950 6 24 1531 31.82400000 3177154155 3177154155 -3.00000000
41.68754959 138.77581787 11.82909298 28 26 1532 145.38400000 3177154157 3177154157 4.66700000
7.24106932 36.83996582 -1.52961671 6 27 1532 37.57600000 3177154157 3177154157 -2.33300000
12.15310287 34.26227951 -1.26950407 6 28 1533 36.37600000 3177154160 3177154160 -2.00000000
11.07087135 44.63508224 -1.07010448 7 31 1533 46.00000000 3177154162 3177154162 -1.33300000
1.63981807 5.43133926 -2.64559031 14 0 1540 6.26000000 3177154183 3177154183 -25.00000000
10.19963455 51.51191711 -0.91660041 15 1 1540 52.52000000 3177154183 3177154183 -1.00000000
12.15508747 40.23421478 -1.22319877 9 2 1541 42.04800000 3177154185 3177154185 -1.66700000
1.96481001 7.87456703 -2.27198124 15 3 1541 8.42800000 3177154185 3177154185 -15.63900000
3.34934473 11.07958603 -2.31496859 15 4 1542 11.80400000 3177154188 3177154188 -11.31000000
16.97724915 47.62504196 -0.58861971 15 6 1542 50.56400000 3177154190 3177154190 -0.66700000
3.32260680 13.30645943 -2.13373709 15 7 1542 13.88000000 3177154190 3177154190 -8.84300000
5.24340868 17.33419991 -2.30515265 4 8 1543 18.25600000 3177154192 3177154192 -7.25400000
17.81393623 58.85407257 -0.35738620 28 10 1544 61.49200000 3177154195 3177154195 -0.33300000
4.11879826 16.47060394 -1.82878923 2 11 1544 17.07600000 3177154195 3177154195 -6.14800000
7.41152954 20.75665665 -2.05741000 2 12 1545 22.13600000 3177154197 3177154197 -5.33300000
21.68666267 60.70199966 0.75043076 28 14 1546 64.46400000 3177154199 3177154199 0.66700000
6.64512920 26.53375435 -1.91272247 3 15 1546 27.42000000 3177154199 3177154199 -4.00000000
7.05048943 23.24965286 -1.98334038 3 16 1547 24.37600000 3177154201 3177154201 -4.66700000
5.76282167 28.91889954 -1.88981736 4 19 1547 29.54800000 3177154204 3177154204 -3.66700000
9.70264435 27.12826920 -1.67789209 4 20 1548 28.86000000 3177154206 3177154206 -3.33300000
44.06436539 145.12396240 6.17903948 28 22 1549 151.79200000 3177154208 3177154208 2.33300000
8.13978958 32.42981339 -1.55748975 3 23 1549 33.47200000 3177154208 3177154208 -2.66700000
9.22585487 30.36586380 -1.66323674 6 24 1550 31.78000000 3177154211 3177154211 -3.00000000
7.33027458 36.65114975 -1.52277792 6 27 1551 37.40800000 3177154213 3177154213 -2.33300000
12.26260757 34.21050262 -1.26908529 6 28 1552 36.36400000 3177154215 3177154215 -2.00000000
11.15346432 44.33829498 -1.06386995 7 31 1552 45.73200000 3177154218 3177154218 -1.33300000
1.64498806 5.38051367 -2.62361407 13 0 1560 6.20800000 3177154238 3177154238 -25.00000000
10.32246590 51.19372559 -0.91157407 14 1 1560 52.23200000 3177154238 3177154238 -1.00000000
12.28259087 40.14948273 -1.22191882 9 2 1561 42.00400000 3177154241 3177154241 -1.66700000
1.97053754 7.78177738 -2.24718022 23 3 1561 8.33600000 3177154241 3177154241 -15.63900000
3.39144349 11.07907867 -2.31732202 11 4 1562 11.81600000 3177154243 3177154243 -11.31000000
17.07286644 47.36982346 -0.58619839 15 6 1562 50.35600000 3177154245 3177154245 -0.66700000
3.46515417 13.67408371 -2.19461298 18 7 1562 14.27600000 3177154245 3177154245 -8.84300000
5.29691172 17.29302788 -2.30212235 4 8 1563 18.23200000 3177154248 3177154248 -7.25400000
17.90205193 58.40909958 -0.35506144 28 10 1564 61.09200000 3177154250 3177154250 -0.33300000
4.12833071 16.26724243 -1.80779815 3 11 1564 16.88000000 3177154250 3177154250 -6.14800000
7.48123407 20.72316742 -2.05666637 2 12 1565 22.12800000 3177154252 3177154252 -5.33300000
21.69188309 60.05412674 0.74335301 28 14 1566 63.85600000 3177154254 3177154254 0.66700000
6.70330763 26.37504196 -1.90295660 3 15 1566 27.28000000 3177154254 3177154254 -4.00000000
7.13160276 23.22489929 -1.98334038 3 16 1567 24.37600000 3177154257 3177154257 -4.66700000
5.85341311 28.84775162 -1.88649154 4 19 1567 29.49600000 3177154259 3177154259 -3.66700000
9.76469040 27.00410843 -1.67231083 4 20 1568 28.76400000 3177154261 3177154261 -3.33300000
44.57889557 144.99600220 6.18017912 28 22 1569 151.82000000 3177154264 3177154264 2.33300000
8.23321629 32.32376099 -1.55376732 3 23 1569 33.39200000 3177154264 3177154264 -2.66700000
9.30243111 30.23802567 -1.65800309 6 24 1570 31.68000000 3177154266 3177154266 -3.00000000
7.43264675 36.50001526 -1.51756740 6 27 1571 37.28000000 3177154268 3177154268 -2.33300000
12.36015701 34.10735321 -1.26685178 6 28 1572 36.30000000 3177154271 3177154271 -2.00000000
11.26761341 44.14022827 -1.06005478 7 31 1572 45.56800000 3177154273 3177154273 -1.33300000
1.65718937 5.35020781 -2.61178088 17 0 1581 6.18000000 3177154294 3177154294 -25.00000000
10.47622585 50.99100876 -0.90864211 14 1 1581 52.06400000 3177154294 3177154294 -1.00000000
12.41427612 40.05454636 -1.22040606 9 2 1582 41.95200000 3177154296 3177154296 -1.66700000
1.99616826 7.76331091 -2.24394536 21 3 1582 8.32400000 3177154296 3177154296 -15.63900000
3.43899846 11.08905220 -2.32202864 11 4 1583 11.84000000 3177154298 3177154298 -11.31000000
17.22993279 47.26183701 -0.58563960 14 6 1583 50.30800000 3177154301 3177154301 -0.66700000
3.54775190 13.78760719 -2.21490502 14 7 1583 14.40800000 3177154301 3177154301 -8.84300000
5.35085011 17.24317932 -2.29808164 4 8 1584 18.20000000 3177154303 3177154303 -7.25400000
18.05670547 58.15209198 -0.35389906 28 10 1585 60.89200000 3177154305 3177154305 -0.33300000
4.13632059 16.05173874 -1.78552198 3 11 1585 16.67200000 3177154305 3177154305 -6.14800000
7.55167341 20.68064308 -2.05517936 2 12 1586 22.11200000 3177154307 3177154307 -5.33300000
30.79415703 119.41603088 2.86964798 28 13 1586 123.35600000 3177154307 3177154307 1.33300000
21.66478348 59.29798889 0.73497140 28 14 1587 63.13600000 3177154310 3177154310 0.66700000
6.79195547 26.31938553 -1.90072441 3 15 1587 27.24800000 3177154310 3177154310 -4.00000000
7.20602036 23.16434479 -1.98041129 3 16 1588 24.34000000 3177154312 3177154312 -4.66700000
5.94310808 28.72342873 -1.87984002 4 19 1589 29.39200000 3177154314 3177154314 -3.66700000
9.87182999 26.99063873 -1.67370617 4 20 1589 28.78800000 3177154317 3177154317 -3.33300000
50.11842346 193.93318176 11.66524601 42 21 1589 200.64400000 3177154317 3177154317 3.33300000
8.32862282 32.20439529 -1.54948640 3 23 1590 33.30000000 3177154319 3177154319 -2.66700000
9.39655685 30.15033722 -1.65507233 6 24 1591 31.62400000 3177154321 3177154321 -3.00000000
43.22632217 138.61331177 11.85317612 28 26 1592 145.68000000 3177154324 3177154324 4.66700000
7.55257463 36.40600204 -1.51479936 6 27 1592 37.21200000 3177154324 3177154324 -2.33300000
12.47682953 34.03930283 -1.26601410 6 28 1593 36.27600000 3177154326 3177154326 -2.00000000
11.42530727 44.08314896 -1.05968261 7 31 1593 45.55200000 3177154328 3177154328 -1.33300000
1.66500795 5.30979919 -2.59487605 15 0 1601 6.14000000 3177154349 3177154349 -25.00000000
10.62468624 50.81320190 -0.90612894 13 1 1601 51.92000000 3177154349 3177154349 -1.00000000
12.52169800 39.90796661 -1.21726429 9 2 1602 41.84400000 3177154351 3177154351 -1.66700000
2.07089543 7.93892860 -2.29678202 21 3 1602 8.52000000 3177154351 3177154351 -15.63900000
3.48003554 11.08446407 -2.32359767 11 4 1603 11.84800000 3177154353 3177154353 -11.31000000
17.33385277 47.01073074 -0.58331138 14 6 1604 50.10800000 3177154356 3177154356 -0.66700000
3.55131102 13.59477711 -2.18600440 14 7 1604 14.22000000 3177154356 3177154356 -8.84300000
5.40743971 17.21303940 -2.29656649 4 8 1604 18.18800000 3177154358 3177154358 -7.25400000
18.25958252 58.08870697 -0.35389906 28 10 1605 60.89200000 3177154360 3177154360 -0.33300000
4.17623329 15.97564030 -1.77866781 3 11 1605 16.60800000 3177154360 3177154360 -6.14800000
21.64993095 58.62167740 0.72752112 28 14 1607 62.49600000 3177154365 3177154365 0.66700000
6.87873316 26.27621651 -1.89932930 3 15 1607 27.22800000 3177154365 3177154365 -4.00000000
7.28803253 23.14285278 -1.98073673 3 16 1608 24.34400000 3177154367 3177154367 -4.66700000
6.03010798 28.66449928 -1.87728167 4 19 1608 29.35200000 3177154370 3177154370 -3.66700000
9.89120865 26.75376129 -1.66114807 4 20 1609 28.57200000 3177154372 3177154372 -3.33300000
8.43287563 32.14420700 -1.54799747 3 23 1610 33.26800000 3177154374 3177154374 -2.66700000
9.46568871 30.00307083 -1.64879191 5 24 1611 31.50400000 3177154377 3177154377 -3.00000000
7.65154219 36.24645996 -1.50926316 6 27 1612 37.07600000 3177154379 3177154379 -2.33300000
12.59140587 33.98429871 -1.26559532 6 28 1613 36.26400000 3177154381 3177154381 -2.00000000
11.53491306 43.84374619 -1.05493689 6 31 1614 45.34800000 3177154383 3177154383 -1.33300000
1.69340336 5.33505297 -2.61009049 14 0 1621 6.17600000 3177154404 3177154404 -25.00000000
10.78701305 50.70539093 -0.90487236 13 1 1621 51.84800000 3177154404 3177154404 -1.00000000
12.64640331 39.81828308 -1.21586800 9 2 1622 41.79600000 3177154406 3177154406 -1.66700000
2.06706667 7.81249046 -2.26227641 31 3 1622 8.39200000 3177154406 3177154406 -15.63900000
3.48663163 10.97132015 -2.30241704 12 4 1623 11.74000000 3177154409 3177154409 -11.31000000
17.47689438 46.89372253 -0.58261293 14 6 1624 50.04800000 3177154411 3177154411 -0.66700000
3.54509187 13.37980556 -2.15341401 18 7 1624 14.00800000 3177154411 3177154411 -8.84300000
5.45907450 17.16758919 -2.29303098 4 8 1624 18.16000000 3177154413 3177154413 -7.25400000
18.40159988 57.83403397 -0.35273665 28 10 1625 60.69200000 3177154416 3177154416 -0.33300000
4.17489481 15.74569225 -1.75467801 3 11 1625 16.38400000 3177154416 3177154416 -6.14800000
7.66384697 20.54159546 -2.04662848 17 12 1626 22.02000000 3177154418 3177154418 -5.33300000
21.65440178 58.00990295 0.72086245 28 14 1627 61.92400000 3177154420 3177154420 0.66700000
6.96631670 26.23661804 -1.89821315 3 15 1627 27.21200000 3177154420 3177154420 -4.00000000
7.32760572 22.98812485 -1.96967113 3 16 1628 24.20800000 3177154423 3177154423 -4.66700000
6.12177515 28.60424232 -1.87472343 4 19 1628 29.31200000 3177154425 3177154425 -3.66700000
9.99851513 26.75647736 -1.66347373 4 20 1629 28.61200000 3177154427 3177154427 -3.33300000
45.57323456 142.79981995 6.10690641 28 22 1630 150.02000000 3177154430 3177154430 2.33300000
8.52037048 32.02190399 -1.54353046 3 23 1630 33.17200000 3177154430 3177154430 -2.66700000
9.57157707 29.97365189 -1.64900136 5 24 1631 31.50800000 3177154432 3177154432 -3.00000000
44.23179626 138.42968750 11.86359119 28 26 1632 145.80800000 3177154434 3177154434 4.66700000
7.76962805 36.18045425 -1.50763488 6 27 1632 37.03600000 3177154434 3177154434 -2.33300000
12.66509438 33.82033920 -1.26112819 6 28 1633 36.13600000 3177154436 3177154436 -2.00000000
11.63490772 43.63524246 -1.05084252 6 31 1633 45.17200000 3177154439 3177154439 -1.33300000
1.71755993 5.34636688 -2.61854267 15 0 1641 6.19600000 3177154459 3177154459 -25.00000000
10.91572857 50.44461823 -0.90089321 13 1 1641 51.62000000 3177154459 3177154459 -1.00000000
12.73270321 39.61021805 -1.21086442 9 2 1642 41.62400000 3177154462 3177154462 -1.66700000
2.06437731 7.69361782 -2.22992730 21 3 1642 8.27200000 3177154462 3177154462 -15.63900000
3.51650047 10.93294525 -2.29692578 15 4 1643 11.71200000 3177154464 3177154464 -11.31000000
17.56606865 46.65957642 -0.58042443 14 6 1643 49.86000000 3177154466 3177154466 -0.66700000
3.59764123 13.39851379 -2.15833330 16 7 1643 14.04000000 3177154466 3177154466 -8.84300000
5.51410437 17.13331985 -2.29101062 4 8 1644 18.14400000 3177154469 3177154469 -7.25400000
18.48075867 57.38871002 -0.35041189 28 10 1645 60.29200000 3177154471 3177154471 -0.33300000
5.24495029 19.50631523 -2.17578363 3 11 1645 20.31600000 3177154471 3177154471 -6.14800000
29.42458534 109.35585022 2.63515544 27 13 1646 113.27600000 3177154473 3177154473 1.33300000
21.64216232 57.36513901 0.71378464 28 14 1647 61.31600000 3177154476 3177154476 0.66700000
7.02154589 26.07728577 -1.88844728 3 15 1647 27.07200000 3177154476 3177154476 -4.00000000
7.40168428 22.94343567 -1.96804392 3 16 1648 24.18800000 3177154478 3177154478 -4.66700000
6.19526577 28.46178246 -1.86679268 4 19 1648 29.18800000 3177154480 3177154480 -3.66700000
10.07774258 26.68405724 -1.66114807 4 20 1649 28.57200000 3177154483 3177154483 -3.33300000
43.24976730 133.90385437 5.73288774 28 22 1650 140.83200000 3177154485 3177154485 2.33300000
8.61648178 31.93410301 -1.54073858 3 23 1650 33.11200000 3177154485 3177154485 -2.66700000
9.66386223 29.90204811 -1.64690793 5 24 1651 31.46800000 3177154487 3177154487 -3.00000000
44.61537552 137.96717834 11.83722878 28 26 1652 145.48400000 3177154489 3177154489 4.66700000
12.77882767 33.76470947 -1.26070940 6 28 1653 36.12400000 3177154492 3177154492 -2.00000000
11.78640556 43.56142426 -1.05009818 6 31 1654 45.14000000 3177154494 3177154494 -1.33300000
1.73397005 5.33344364 -2.61516190 14 0 1661 6.18800000 3177154515 3177154515 -25.00000000
10.99806213 49.98046112 -0.89328396 12 1 1661 51.18400000 3177154515 3177154515 -1.00000000
12.85233879 39.50849915 -1.20911896 9 2 1662 41.56400000 3177154517 3177154517 -1.66700000
2.17818618 8.00601101 -2.32266140 18 3 1662 8.61600000 3177154517 3177154517 -15.63900000
3.55221415 10.91314507 -2.29535675 12 4 1663 11.70400000 3177154519 3177154519 -11.31000000
18.31400490 67.26750946 0.00000000 24 5 1663 69.71600000 3177154519 3177154519 0.00000000
17.69612122 46.51199341 -0.57935345 14 6 1663 49.76800000 3177154522 3177154522 -0.66700000
3.63919735 13.36680603 -2.15525889 14 7 1663 14.02000000 3177154522 3177154522 -8.84300000
5.56773329 17.09510422 -2.28848529 4 8 1664 18.12400000 3177154524 3177154524 -7.25400000
18.68096924 57.32385254 -0.35041189 28 10 1665 60.29200000 3177154526 3177154526 -0.33300000
5.30673170 19.46486664 -2.17321324 3 11 1665 20.29200000 3177154526 3177154526 -6.14800000
7.79288435 20.45037651 -2.04291058 2 12 1666 21.98000000 3177154529 3177154529 -5.33300000
21.63281059 56.73986053 0.70693970 28 14 1667 60.72800000 3177154531 3177154531 0.66700000
7.11147881 26.04876709 -1.88816822 3 15 1667 27.06800000 3177154531 3177154531 -4.00000000
7.48048973 22.91366959 -1.96771836 3 16 1668 24.18400000 3177154533 3177154533 -4.66700000
41.90503693 128.36033630 2.35691261 28 18 1668 135.04800000 3177154536 3177154536 1.00000000
6.28940248 28.41659927 -1.86525762 4 19 1668 29.16400000 3177154536 3177154536 -3.66700000
10.17082596 26.64871597 -1.66114807 4 20 1669 28.57200000 3177154538 3177154538 -3.33300000
51.10166168 186.92439270 11.28548145 42 21 1669 194.11200000 3177154538 3177154538 3.33300000
