# .PCD v0.7 - Point Cloud Data file format
VERSION 0.7
FIELDS x y z intensity laser_id azimuth distance_m adjustedtime timestamp vertical_angle
SIZE 4 4 4 1 1 2 8 8 4 8
TYPE F F F U U U F U U F
COUNT 1 1 1 1 1 1 1 1 1 1
WIDTH 522
HEIGHT 1
VIEWPOINT 0 0 0 1 0 0 0
POINTS 522
DATA ascii
2.77084017 26.54100990 -1.71022463 7 19 1016 26.74000000 3185152659 3185152659 -3.66700000
7.48541260 29.21726036 -1.75649607 4 20 1017 30.21200000 3185152662 3185152662 -3.33300000
5.46655273 35.39349747 -1.66823387 3 23 1018 35.85200000 3185152664 3185152664 -2.66700000
6.75727272 32.94805908 -1.76267505 6 24 1019 33.68000000 3185152666 3185152666 -3.00000000
3.75906992 35.76516342 -1.46513641 12 27 1020 35.99200000 3185152669 3185152669 -2.33300000
9.61900520 37.43642426 -1.34977293 7 28 1021 38.67600000 3185152671 3185152671 -2.00000000
7.67421722 49.51526260 -1.16594863 8 31 1021 50.12000000 3185152673 3185152673 -1.33300000
1.13925791 5.50610781 -2.62192369 14 0 1029 6.20400000 3185152694 3185152694 -25.00000000
6.21765518 58.27632141 -1.02299023 25 1 1029 58.61600000 3185152694 3185152694 -1.00000000
9.19940376 44.42224121 -1.32024479 10 2 1030 45.38400000 3185152696 3185152696 -1.66700000
1.27410173 8.13624382 -2.30540848 30 3 1030 8.55200000 3185152696 3185152696 -15.63900000
2.53069806 12.20954704 -2.49382758 13 4 1031 12.71600000 3185152699 3185152699 -11.31000000
13.71434498 52.95317459 -0.63681382 21 6 1032 54.70400000 3185152701 3185152701 -0.66700000
2.27673244 14.50578022 -2.28438997 14 7 1032 14.86000000 3185152701 3185152701 -8.84300000
3.43764591 16.57063293 -2.15413594 22 8 1032 17.06000000 3185152703 3185152703 -7.25400000
2.88667965 18.37101364 -2.00314331 15 11 1033 18.70400000 3185152705 3185152705 -6.14800000
5.75328875 22.18241882 -2.13920069 5 12 1034 23.01600000 3185152708 3185152708 -5.33300000
21.96058273 84.61060333 1.01766348 28 14 1035 87.42000000 3185152710 3185152710 0.66700000
3.81962276 24.25311279 -1.71684635 23 15 1035 24.61200000 3185152710 3185152710 -4.00000000
4.18543196 20.10463905 -1.67643356 5 16 1036 20.60400000 3185152712 3185152712 -4.66700000
22.22102356 106.64496613 1.90147460 28 18 1037 108.95200000 3185152715 3185152715 1.00000000
2.84965062 26.36002159 -1.69922388 11 19 1037 26.56800000 3185152715 3185152715 -3.66700000
7.58032274 29.16389847 -1.75486827 4 20 1037 30.18400000 3185152717 3185152717 -3.33300000
5.57447386 35.27553177 -1.66358078 3 23 1038 35.75200000 3185152719 3185152719 -2.66700000
6.85918283 32.86170959 -1.75932550 6 24 1039 33.61600000 3185152722 3185152722 -3.00000000
3.90676785 35.96240997 -1.47376633 19 27 1040 36.20400000 3185152724 3185152724 -2.33300000
9.71433163 37.26722717 -1.34488702 7 28 1041 38.53600000 3185152726 3185152726 -2.00000000
7.81820297 49.30649185 -1.16166818 8 31 1041 49.93600000 3185152729 3185152729 -1.33300000
1.18036222 5.60122013 -2.66925693 11 0 1050 6.31600000 3185152749 3185152749 -25.00000000
6.38731956 57.85561752 -1.01600933 24 1 1050 58.21600000 3185152749 3185152749 -1.00000000
9.29532051 44.07133102 -1.31081951 10 2 1051 45.06000000 3185152752 3185152752 -1.66700000
1.32769918 8.27984905 -2.34746218 21 3 1051 8.70800000 3185152752 3185152752 -15.63900000
2.61512828 12.38823986 -2.53226638 13 4 1052 12.91200000 3185152754 3185152754 -11.31000000
12.82350445 79.88125610 0.00000000 28 5 1052 80.90400000 3185152754 3185152754 0.00000000
13.80663681 52.51572800 -0.63215739 20 6 1053 54.30400000 3185152756 3185152756 -0.66700000
2.26591372 14.09929562 -2.22166920 14 7 1053 14.45200000 3185152756 3185152756 -8.84300000
3.64190054 17.23732185 -2.24252367 18 8 1053 17.76000000 3185152758 3185152758 -7.25400000
2.98242140 18.53700256 -2.02242064 12 11 1054 18.88400000 3185152761 3185152761 -6.14800000
5.82441282 22.12266922 -2.13548303 5 12 1055 22.97600000 3185152763 3185152763 -5.33300000
21.96484375 83.36921692 1.00369418 28 14 1056 86.22000000 3185152765 3185152765 0.66700000
3.94279099 24.45167542 -1.73191369 27 15 1056 24.82800000 3185152765 3185152765 -4.00000000
4.15904236 19.61725807 -1.63705325 5 16 1057 20.12000000 3185152768 3185152768 -4.66700000
22.22486305 104.82963562 1.87047911 28 18 1057 107.17600000 3185152770 3185152770 1.00000000
7.67901325 29.10503006 -1.75300777 4 20 1058 30.15200000 3185152772 3185152772 -3.33300000
5.68649769 35.14836502 -1.65855539 3 23 1059 35.64400000 3185152775 3185152775 -2.66700000
6.95051336 32.69959259 -1.75199842 6 24 1060 33.47600000 3185152777 3185152777 -3.00000000
3.82660556 34.06129074 -1.39642251 11 27 1061 34.30400000 3185152779 3185152779 -2.33300000
9.84063244 37.19272614 -1.34349108 7 28 1062 38.49600000 3185152782 3185152782 -2.00000000
7.96875381 49.09198761 -1.15729475 8 31 1062 49.74800000 3185152784 3185152784 -1.33300000
1.19209635 5.56537199 -2.65404272 14 0 1069 6.28000000 3185152805 3185152805 -25.00000000
6.53709984 57.46455765 -1.00951695 24 1 1069 57.84400000 3185152805 3185152805 -1.00000000
9.42465305 43.96207809 -1.30849218 10 2 1070 44.98000000 3185152807 3185152807 -1.66700000
1.35950625 8.30200958 -2.35501027 23 3 1070 8.73600000 3185152807 3185152807 -15.63900000
2.68170333 12.49838543 -2.55658507 11 4 1071 13.03600000 3185152810 3185152810 -11.31000000
12.89484596 78.65804291 0.00000000 28 5 1071 79.70800000 3185152810 3185152810 0.00000000
14.07446480 52.85860062 -0.63681382 21 6 1071 54.70400000 3185152812 3185152812 -0.66700000
2.39459896 14.60695839 -2.30283713 17 7 1071 14.98000000 3185152812 3185152812 -8.84300000
3.53658366 16.46863937 -2.14403439 15 8 1072 16.98000000 3185152814 3185152814 -7.25400000
3.05870533 18.61727142 -2.03227353 13 11 1073 18.97600000 3185152817 3185152817 -6.14800000
5.89466190 22.09169006 -2.13436770 5 12 1074 22.96400000 3185152819 3185152819 -5.33300000
21.93679428 82.15594482 0.98995769 28 14 1075 85.04000000 3185152821 3185152821 0.66700000
3.37557721 20.50122452 -1.45288789 8 15 1075 20.82800000 3185152821 3185152821 -4.00000000
5.33425665 24.75557327 -2.06730843 3 16 1076 25.40800000 3185152823 3185152823 -4.66700000
13.28090954 115.48966217 3.38322902 28 17 1076 116.30000000 3185152823 3185152823 1.66700000
22.20169449 103.03510284 1.83976293 28 18 1076 105.41600000 3185152826 3185152826 1.00000000
3.14393187 27.33936501 -1.76369309 12 19 1076 27.57600000 3185152826 3185152826 -3.66700000
7.75176191 28.99067879 -1.74765897 4 20 1077 30.06000000 3185152828 3185152828 -3.33300000
5.78739357 35.03470230 -1.65408838 3 23 1078 35.54800000 3185152830 3185152830 -2.66700000
7.05300665 32.64903259 -1.75053310 6 24 1079 33.44800000 3185152833 3185152833 -3.00000000
3.71628332 32.11889648 -1.31728756 15 27 1080 32.36000000 3185152835 3185152835 -2.33300000
9.95873737 37.14058304 -1.34279299 7 28 1081 38.47600000 3185152837 3185152837 -2.00000000
8.10535240 48.90748596 -1.15357256 8 31 1081 49.58800000 3185152840 3185152840 -1.33300000
1.19762588 5.49741793 -2.62361407 14 0 1089 6.20800000 3185152860 3185152860 -25.00000000
6.73438740 57.41358566 -1.00902832 24 1 1089 57.81600000 3185152860 3185152860 -1.00000000
9.54142570 43.76092911 -1.30348861 10 2 1090 44.80800000 3185152863 3185152863 -1.66700000
1.35986865 8.12625408 -2.30648685 18 3 1090 8.55600000 3185152863 3185152863 -15.63900000
2.74789310 12.59241581 -2.57776570 17 4 1091 13.14400000 3185152865 3185152865 -11.31000000
14.13690376 52.35735703 -0.63136578 20 6 1091 54.23600000 3185152867 3185152867 -0.66700000
2.44557214 14.59851074 -2.30283713 15 7 1091 14.98000000 3185152867 3185152867 -8.84300000
3.71427345 17.00667191 -2.21575475 10 8 1092 17.54800000 3185152870 3185152870 -7.25400000
14.41127491 65.93019867 -0.39223444 28 10 1093 67.48800000 3185152872 3185152872 -0.33300000
3.10260272 18.48097229 -2.01856518 18 11 1093 18.84800000 3185152872 3185152872 -6.14800000
5.96133852 22.03253365 -2.13064981 5 12 1094 22.92400000 3185152874 3185152874 -5.33300000
23.12055969 137.57293701 3.24613857 9 13 1094 139.54000000 3185152874 3185152874 1.33300000
21.91506958 80.93995667 0.97622126 28 14 1095 83.86000000 3185152876 3185152876 0.66700000
3.80394602 22.61025810 -1.60328281 6 15 1095 22.98400000 3185152876 3185152876 -4.00000000
5.41295671 24.70175362 -2.06437945 7 16 1096 25.37200000 3185152879 3185152879 -4.66700000
22.12718582 100.97628784 1.80436945 28 18 1096 103.38800000 3185152881 3185152881 1.00000000
46.04801941 209.78753662 8.75043678 28 22 1098 214.96000000 3185152886 3185152886 2.33300000
5.89568758 34.93154907 -1.65017974 3 23 1098 35.46400000 3185152886 3185152886 -2.66700000
7.15921640 32.58910370 -1.74864900 6 24 1099 33.41200000 3185152888 3185152888 -3.00000000
3.24489212 27.21248245 -1.11651933 11 27 1100 27.42800000 3185152890 3185152890 -2.33300000
10.03798008 36.92043304 -1.33609235 7 28 1101 38.28400000 3185152893 3185152893 -2.00000000
8.22128010 48.55558777 -1.14594233 8 31 1101 49.26000000 3185152895 3185152895 -1.33300000
1.17525482 5.30561399 -2.53401899 13 0 1109 5.99600000 3185152916 3185152916 -25.00000000
6.88677931 56.99267578 -1.00204742 23 1 1109 57.41600000 3185152916 3185152916 -1.00000000
9.68287182 43.67661285 -1.30197597 10 2 1110 44.75600000 3185152918 3185152918 -1.66700000
1.36810708 8.00375557 -2.27305937 24 3 1110 8.43200000 3185152918 3185152918 -15.63900000
2.79777932 12.60955143 -2.58325696 13 4 1111 13.17200000 3185152920 3185152920 -11.31000000
14.28472710 52.18038559 -0.62982917 20 6 1111 54.10400000 3185152923 3185152923 -0.66700000
2.49384904 14.57430172 -2.30037761 16 7 1111 14.96400000 3185152923 3185152923 -8.84300000
3.75039029 16.88901520 -2.20211792 25 8 1112 17.44000000 3185152925 3185152925 -7.25400000
14.51115799 65.29379272 -0.38874727 28 10 1113 66.88800000 3185152927 3185152927 -0.33300000
3.20271754 18.67777824 -2.04126978 13 11 1113 19.06000000 3185152927 3185152927 -6.14800000
6.03399563 21.99622726 -2.12916279 5 12 1114 22.90800000 3185152929 3185152929 -5.33300000
21.91053772 79.81770325 0.96360230 28 14 1115 82.77600000 3185152932 3185152932 0.66700000
3.54159474 20.61086845 -1.46237469 5 15 1115 20.96400000 3185152932 3185152932 -4.00000000
5.49394703 24.65936089 -2.06242657 7 16 1116 25.34800000 3185152934 3185152934 -4.66700000
22.12547493 99.22769928 1.77456069 28 18 1117 101.68000000 3185152936 3185152936 1.00000000
3.30993748 27.07446671 -1.74808753 11 19 1117 27.33200000 3185152936 3185152936 -3.66700000
7.85976601 28.59316826 -1.72696149 4 20 1117 29.70400000 3185152939 3185152939 -3.33300000
29.70779800 172.52835083 10.19549084 42 21 1117 175.36400000 3185152939 3185152939 3.33300000
6.00061750 34.81231689 -1.64552665 3 23 1118 35.36400000 3185152941 3185152941 -2.66700000
7.24419689 32.43526459 -1.74174058 6 24 1119 33.28000000 3185152943 3185152943 -3.00000000
3.38808203 27.59371376 -1.13263941 23 27 1120 27.82400000 3185152946 3185152946 -2.33300000
10.13174057 36.75799179 -1.33148563 7 28 1121 38.15200000 3185152948 3185152948 -2.00000000
8.36959934 48.40443802 -1.14305770 8 31 1121 49.13600000 3185152950 3185152950 -1.33300000
1.19150496 5.28712463 -2.52725720 14 0 1130 5.98000000 3185152971 3185152971 -25.00000000
7.05854654 56.66939926 -0.99681163 23 1 1130 57.11600000 3185152971 3185152971 -1.00000000
9.80682182 43.48091507 -1.29720509 10 2 1131 44.59200000 3185152973 3185152973 -1.66700000
1.38616347 7.93418217 -2.25472832 15 3 1131 8.36400000 3185152973 3185152973 -15.63900000
2.81547666 12.47295284 -2.55736947 13 4 1132 13.04000000 3185152975 3185152975 -11.31000000
14.43143463 51.93246841 -0.62750095 20 6 1133 53.90400000 3185152978 3185152978 -0.66700000
2.54979181 14.56461906 -2.30037761 14 7 1133 14.96400000 3185152978 3185152978 -8.84300000
3.52547193 15.60564899 -2.03645396 13 8 1133 16.12800000 3185152980 3185152980 -7.25400000
14.75037479 65.24017334 -0.38874727 28 10 1134 66.88800000 3185152982 3185152982 -0.33300000
3.27733183 18.70116997 -2.04512525 14 11 1134 19.09600000 3185152982 3185152982 -6.14800000
6.09535694 21.90489960 -2.12247086 5 12 1135 22.83600000 3185152985 3185152985 -5.33300000
21.94329071 78.80440521 0.95233375 28 14 1136 81.80800000 3185152987 3185152987 0.66700000
3.60538101 20.53093719 -1.45763123 8 15 1136 20.89600000 3185152987 3185152987 -4.00000000
5.58164787 24.62739372 -2.06145024 3 16 1137 25.33600000 3185152989 3185152989 -4.66700000
22.12340546 97.61308289 1.74705565 28 18 1137 100.10400000 3185152992 3185152992 1.00000000
3.37253785 26.80926895 -1.73171437 19 19 1137 27.07600000 3185152992 3185152992 -3.66700000
8.04709625 28.86034966 -1.74486828 4 20 1138 30.01200000 3185152994 3185152994 -3.33300000
30.34825134 172.46549988 10.19828224 42 21 1138 175.41200000 3185152994 3185152994 3.33300000
6.11361456 34.70745087 -1.64161801 3 23 1139 35.28000000 3185152996 3185152996 -2.66700000
7.35329437 32.36564636 -1.73943782 6 24 1140 33.23600000 3185152999 3185152999 -3.00000000
3.38435888 26.75240707 -1.09860814 14 27 1141 26.98800000 3185153001 3185153001 -2.33300000
10.25778675 36.68981171 -1.33036876 7 28 1142 38.12000000 3185153003 3185153003 -2.00000000
8.56096840 48.40344620 -1.14380205 8 31 1143 49.16800000 3185153005 3185153005 -1.33300000
1.23962498 5.42118216 -2.59318566 12 0 1148 6.13600000 3185153026 3185153026 -25.00000000
7.19498634 56.32163620 -0.99108726 22 1 1148 56.78800000 3185153026 3185153026 -1.00000000
9.93623734 43.41871262 -1.29627419 10 2 1149 44.56000000 3185153028 3185153028 -1.66700000
1.41040766 7.92599583 -2.25364995 21 3 1149 8.36000000 3185153028 3185153028 -15.63900000
2.85202074 12.45257664 -2.55501604 17 4 1150 13.02800000 3185153031 3185153031 -11.31000000
14.54794502 51.72130966 -0.62549865 19 6 1151 53.73200000 3185153033 3185153033 -0.66700000
2.60663629 14.61879349 -2.31021619 17 7 1151 15.02800000 3185153033 3185153033 -8.84300000
3.51685691 15.34309769 -2.00362420 22 8 1151 15.86800000 3185153035 3185153035 -7.25400000
14.89623260 64.93619537 -0.38721293 28 10 1152 66.62400000 3185153038 3185153038 -0.33300000
3.32698274 18.63988495 -2.03955626 14 11 1152 19.04400000 3185153038 3185153038 -6.14800000
6.15442562 21.85114098 -2.11912465 5 12 1153 22.80000000 3185153040 3185153040 -5.33300000
21.90756416 77.73029327 0.94018042 28 14 1154 80.76400000 3185153042 3185153042 0.66700000
4.04078293 22.59345627 -1.60495698 6 15 1154 23.00800000 3185153042 3185153042 -4.00000000
5.63218641 24.49317741 -2.05168653 7 16 1155 25.21600000 3185153045 3185153045 -4.66700000
22.09475327 96.08536530 1.72094691 28 18 1155 98.60800000 3185153047 3185153047 1.00000000
3.45623422 26.79458237 -1.73145854 15 19 1155 27.07200000 3185153047 3185153047 -3.66700000
8.07698631 28.61971283 -1.73184514 4 20 1156 29.78800000 3185153049 3185153049 -3.33300000
30.91668320 172.51867676 10.20711899 42 21 1156 175.56400000 3185153049 3185153049 3.33300000
6.20992136 34.61728287 -1.63826776 3 23 1157 35.20800000 3185153052 3185153052 -2.66700000
7.42622709 32.21782684 -1.73273885 6 24 1158 33.10800000 3185153054 3185153054 -3.00000000
3.48535132 26.87243843 -1.10398149 21 27 1159 27.12000000 3185153056 3185153056 -2.33300000
10.36538124 36.63048172 -1.32939160 7 28 1160 38.09200000 3185153058 3185153058 -2.00000000
8.66913891 48.18104935 -1.13914943 8 31 1160 48.96800000 3185153061 3185153061 -1.33300000
1.24470747 5.35304356 -2.56275725 14 0 1169 6.06400000 3185153081 3185153081 -25.00000000
7.37895012 56.12438202 -0.98808545 22 1 1169 56.61600000 3185153081 3185153081 -1.00000000
10.04365349 43.16003036 -1.28964150 10 2 1170 44.33200000 3185153084 3185153084 -1.66700000
1.45528924 8.00793934 -2.27845097 24 3 1170 8.45200000 3185153084 3185153084 -15.63900000
2.72949553 11.72004223 -2.40675139 10 4 1171 12.27200000 3185153086 3185153086 -11.31000000
14.67686558 51.48942566 -0.62331015 19 6 1171 53.54400000 3185153088 3185153088 -0.66700000
2.70292234 14.85847855 -2.34957027 14 7 1171 15.28400000 3185153088 3185153088 -8.84300000
3.70907378 15.91362953 -2.07989025 12 8 1172 16.47200000 3185153091 3185153091 -7.25400000
15.02600861 64.41761780 -0.38444647 28 10 1173 66.14800000 3185153093 3185153093 -0.33300000
3.36603999 18.46715164 -2.02199221 12 11 1173 18.88000000 3185153093 3185153093 -6.14800000
6.22900391 21.80928993 -2.11726594 5 12 1174 22.78000000 3185153095 3185153095 -5.33300000
21.88016319 76.55728149 0.92695618 28 14 1175 79.62800000 3185153098 3185153098 0.66700000
4.12499905 22.58634377 -1.60551500 31 15 1175 23.01600000 3185153098 3185153098 -4.00000000
5.71556711 24.44519424 -2.04940844 7 16 1176 25.18800000 3185153100 3185153100 -4.66700000
22.09439468 94.49662781 1.69393063 28 18 1176 97.06000000 3185153102 3185153102 1.00000000
3.55336785 26.77382088 -1.73094690 11 19 1176 27.06400000 3185153102 3185153102 -3.66700000
8.17743397 28.57456017 -1.73091495 4 20 1177 29.77200000 3185153105 3185153105 -3.33300000
31.57682228 172.55738831 10.21618843 42 21 1177 175.72000000 3185153105 3185153105 3.33300000
6.31444073 34.47245026 -1.63249791 3 23 1178 35.08400000 3185153107 3185153107 -2.66700000
7.53332376 32.14372253 -1.73022676 6 24 1179 33.06000000 3185153109 3185153109 -3.00000000
3.66892266 27.49729729 -1.13019693 22 27 1180 27.76400000 3185153111 3185153111 -2.33300000
10.44995403 36.41933060 -1.32310975 7 28 1181 37.91200000 3185153114 3185153114 -2.00000000
8.81935978 47.95862198 -1.13468289 8 31 1182 48.77600000 3185153116 3185153116 -1.33300000
1.24421799 5.26751900 -2.52387619 11 0 1189 5.97200000 3185153137 3185153137 -25.00000000
7.53467798 55.80102539 -0.98284972 21 1 1189 56.31600000 3185153137 3185153137 -1.00000000
10.15929604 42.97684479 -1.28521979 10 2 1190 44.18000000 3185153139 3185153139 -1.66700000
1.52254283 8.21490669 -2.33883595 16 3 1190 8.67600000 3185153139 3185153139 -15.63900000
2.77400160 11.72571087 -2.40988922 15 4 1191 12.28800000 3185153141 3185153141 -11.31000000
14.92864799 51.68765259 -0.62633681 19 6 1191 53.80400000 3185153144 3185153144 -0.66700000
2.75260878 14.83729458 -2.34772563 14 7 1191 15.27200000 3185153144 3185153144 -8.84300000
3.79385400 16.02414513 -2.09605241 22 8 1192 16.60000000 3185153146 3185153146 -7.25400000
15.19083214 64.11177826 -0.38293537 28 10 1193 65.88800000 3185153148 3185153148 -0.33300000
3.48135781 18.72899246 -2.05197954 13 11 1193 19.16000000 3185153148 3185153148 -6.14800000
6.29402351 21.74915504 -2.11354804 5 12 1194 22.74000000 3185153151 3185153151 -5.33300000
21.90361977 75.63906860 0.91675860 28 14 1195 78.75200000 3185153153 3185153153 0.66700000
5.79441309 24.39794350 -2.04713011 7 16 1196 25.16000000 3185153155 3185153155 -4.66700000
22.07756424 92.95973969 1.66775191 28 18 1196 95.56000000 3185153158 3185153158 1.00000000
3.51097894 25.76453018 -1.66647768 32 19 1196 26.05600000 3185153158 3185153158 -3.66700000
8.26934338 28.51899529 -1.72928703 4 20 1197 29.74400000 3185153160 3185153160 -3.33300000
32.18262863 172.46574402 10.21735191 42 21 1197 175.74000000 3185153160 3185153160 3.33300000
49.23986816 207.00784302 8.66902256 28 22 1198 212.96000000 3185153162 3185153162 2.33300000
6.42299557 34.38735580 -1.62951994 3 23 1198 35.02000000 3185153162 3185153162 -2.66700000
7.61402893 31.98510933 -1.72310901 6 24 1199 32.92400000 3185153164 3185153164 -3.00000000
3.81966758 27.88425255 -1.14664268 7 27 1200 28.16800000 3185153167 3185153167 -2.33300000
10.56697369 36.34808350 -1.32185328 7 28 1201 37.87600000 3185153169 3185153169 -2.00000000
8.94839001 47.72316360 -1.12984419 8 31 1202 48.56800000 3185153171 3185153171 -1.33300000
1.26843941 5.29156685 -2.53740001 15 0 1208 6.00400000 3185153192 3185153192 -25.00000000
7.67033100 55.41918564 -0.97656685 21 1 1208 55.95600000 3185153192 3185153192 -1.00000000
10.29242897 42.90404129 -1.28405619 10 2 1209 44.14000000 3185153194 3185153194 -1.66700000
1.53191328 8.11518574 -2.31187820 19 3 1209 8.57600000 3185153194 3185153194 -15.63900000
2.89161587 12.04444695 -2.47735357 10 4 1210 12.63200000 3185153197 3185153197 -11.31000000
14.98770905 51.25396729 -0.62168038 19 6 1210 53.40400000 3185153199 3185153199 -0.66700000
2.80913424 14.86692238 -2.35387468 14 7 1210 15.31200000 3185153199 3185153199 -8.84300000
3.81730771 15.88801479 -2.07989025 15 8 1211 16.47200000 3185153201 3185153201 -7.25400000
15.39212894 64.01438904 -0.38265640 28 10 1212 65.84000000 3185153204 3185153204 -0.33300000
3.52643180 18.62747002 -2.04212642 13 11 1212 19.06800000 3185153204 3185153204 -6.14800000
6.36163235 21.71287727 -2.11206102 5 12 1213 22.72400000 3185153206 3185153206 -5.33300000
21.88988876 74.66404724 0.90581596 28 14 1214 77.81200000 3185153208 3185153208 0.66700000
4.22882175 22.29508018 -1.58682024 4 15 1214 22.74800000 3185153208 3185153208 -4.00000000
5.86968327 24.35533905 -2.04517746 3 16 1215 25.13600000 3185153211 3185153211 -4.66700000
22.05774689 91.52519226 1.64331853 28 18 1215 94.16000000 3185153213 3185153213 1.00000000
3.51799917 25.19135666 -1.63014972 23 19 1215 25.48800000 3185153213 3185153213 -3.66700000
8.33687592 28.39945793 -1.72370565 4 20 1216 29.64800000 3185153215 3185153215 -3.33300000
32.76853561 172.43260193 10.22177029 42 21 1216 175.81600000 3185153215 3185153215 3.33300000
6.51683283 34.25988388 -1.62449455 3 23 1217 34.91200000 3185153217 3185153217 -2.66700000
7.71067429 31.92085648 -1.72101557 6 24 1218 32.88400000 3185153220 3185153220 -3.00000000
3.85989332 27.49939156 -1.13133669 11 27 1219 27.79200000 3185153222 3185153222 -2.33300000
10.68293571 36.29750061 -1.32129490 7 28 1220 37.86000000 3185153224 3185153224 -2.00000000
9.06534672 47.47719193 -1.12472630 7 31 1221 48.34800000 3185153227 3185153227 -1.33300000
1.29812109 5.32914925 -2.55768561 14 0 1229 6.05200000 3185153247 3185153247 -25.00000000
7.86777306 55.35110474 -0.97586876 20 1 1229 55.91600000 3185153247 3185153247 -1.00000000
10.40794563 42.69511032 -1.27893627 9 2 1230 43.96400000 3185153250 3185153250 -1.66700000
1.54125202 8.00360870 -2.28168583 17 3 1230 8.46400000 3185153250 3185153250 -15.63900000
2.94038963 12.05282021 -2.48127604 12 4 1231 12.65200000 3185153252 3185153252 -11.31000000
15.08225822 50.88423538 -0.61786211 18 6 1231 53.07600000 3185153254 3185153254 -0.66700000
2.87707043 14.92638493 -2.36494303 13 7 1231 15.38400000 3185153254 3185153254 -8.84300000
3.87645578 15.87777138 -2.08039522 6 8 1232 16.47600000 3185153257 3185153257 -7.25400000
15.57253647 63.73606110 -0.38133129 28 10 1233 65.61200000 3185153259 3185153259 -0.33300000
3.60448408 18.66518211 -2.04769564 16 11 1233 19.12000000 3185153259 3185153259 -6.14800000
6.41962910 21.61687469 -2.10499716 5 12 1234 22.64800000 3185153261 3185153261 -5.33300000
21.87286949 73.60563660 0.89394206 28 14 1235 76.79200000 3185153263 3185153263 0.66700000
4.17483425 21.57817841 -1.53687465 4 15 1235 22.03200000 3185153263 3185153263 -4.00000000
5.92951441 24.21362114 -2.03508830 7 16 1236 25.01200000 3185153266 3185153266 -4.66700000
22.06010818 90.08412170 1.61888528 28 18 1236 92.76000000 3185153268 3185153268 1.00000000
3.56667900 24.87403488 -1.61045086 13 19 1236 25.18000000 3185153268 3185153268 -3.66700000
8.43521500 28.34957504 -1.72254288 4 20 1237 29.62800000 3185153270 3185153270 -3.33300000
33.42918777 172.46031189 10.23060703 42 21 1237 175.96800000 3185153270 3185153270 3.33300000
6.62637615 34.15339661 -1.62058592 3 23 1238 34.82800000 3185153273 3185153273 -2.66700000
3.82327724 26.53170586 -1.09209490 10 27 1240 26.82800000 3185153277 3185153277 -2.33300000
10.77362061 36.11636734 -1.31612980 6 28 1241 37.71200000 3185153280 3185153280 -2.00000000
9.17738152 47.12570572 -1.11718905 7 31 1242 48.02400000 3185153282 3185153282 -1.33300000
1.33491850 5.40224123 -2.59487605 14 0 1248 6.14000000 3185153303 3185153303 -25.00000000
7.99368477 54.92893982 -0.96888781 20 1 1248 55.51600000 3185153303 3185153303 -1.00000000
10.51203728 42.50898361 -1.27439809 9 2 1249 43.80800000 3185153305 3185153305 -1.66700000
1.59519851 8.13831329 -2.32158303 21 3 1249 8.61200000 3185153305 3185153305 -15.63900000
2.90967321 11.75744343 -2.42244077 16 4 1250 12.35200000 3185153307 3185153307 -11.31000000
15.27045250 50.89907074 -0.61865371 19 6 1250 53.14400000 3185153310 3185153310 -0.66700000
2.92046499 14.88573360 -2.36002374 15 7 1250 15.35200000 3185153310 3185153310 -8.84300000
3.70778370 14.97125340 -1.96321833 12 8 1251 15.54800000 3185153312 3185153312 -7.25400000
15.65775204 63.17546463 -0.37828583 28 10 1252 65.08800000 3185153314 3185153314 -0.33300000
3.68093371 18.72727203 -2.05583501 13 11 1252 19.19600000 3185153314 3185153314 -6.14800000
6.48554564 21.57639694 -2.10313845 5 12 1253 22.62800000 3185153316 3185153316 -5.33300000
21.87375450 72.72451782 0.88411701 28 14 1254 75.94800000 3185153319 3185153319 0.66700000
5.43824863 27.61691666 -1.96824861 7 15 1254 28.21600000 3185153319 3185153319 -4.00000000
6.00593281 24.17834854 -2.03378630 3 16 1255 24.99600000 3185153321 3185153321 -4.66700000
22.02897644 88.68302155 1.59501028 28 18 1255 91.39200000 3185153323 3185153323 1.00000000
3.65957928 24.93316269 -1.61505580 13 19 1255 25.25200000 3185153323 3185153323 -3.66700000
8.52917862 28.32144737 -1.72254288 4 20 1256 29.62800000 3185153326 3185153326 -3.33300000
34.02022552 172.44645691 10.23642159 42 21 1256 176.06800000 3185153326 3185153326 3.33300000
6.71405315 34.00187302 -1.61444390 3 23 1257 34.69600000 3185153328 3185153328 -2.66700000
7.85420322 31.54839897 -1.70384943 12 24 1258 32.55600000 3185153330 3185153330 -3.00000000
3.90832281 26.49911308 -1.09128082 7 27 1259 26.80800000 3185153333 3185153333 -2.33300000
10.83671188 35.89292145 -1.30928957 6 28 1260 37.51600000 3185153335 3185153335 -2.00000000
9.31994915 47.06918335 -1.11653769 7 31 1260 47.99600000 3185153337 3185153337 -1.33300000
1.36353517 5.43247366 -2.61178088 18 0 1269 6.18000000 3185153358 3185153358 -25.00000000
8.18137550 54.80829620 -0.96728218 20 1 1269 55.42400000 3185153358 3185153358 -1.00000000
10.65315914 42.41200256 -1.27265263 9 2 1270 43.74800000 3185153360 3185153360 -1.66700000
1.63860202 8.20040226 -2.34099245 25 3 1270 8.68400000 3185153360 3185153360 -15.63900000
2.95657158 11.76191616 -2.42557859 22 4 1271 12.36800000 3185153363 3185153363 -11.31000000
15.00454140 75.02224731 0.00000000 26 5 1271 76.50800000 3185153363 3185153363 0.00000000
15.37730885 50.54924011 -0.61511481 18 6 1272 52.84000000 3185153365 3185153365 -0.66700000
2.96906638 14.83177948 -2.35325980 13 7 1272 15.30800000 3185153365 3185153365 -8.84300000
3.76359916 14.96141052 -1.96372342 12 8 1272 15.55200000 3185153367 3185153367 -7.25400000
15.84037304 62.92370605 -0.37712345 28 10 1273 64.88800000 3185153369 3185153369 -0.33300000
3.77220607 18.82674026 -2.06825829 11 11 1273 19.31200000 3185153369 3185153369 -6.14800000
6.55646038 21.52581215 -2.10053587 5 12 1274 22.60000000 3185153372 3185153372 -5.33300000
21.87312698 71.76771545 0.87345374 28 14 1275 75.03200000 3185153374 3185153374 0.66700000
5.53550673 27.57723808 -1.96685350 7 15 1275 28.19600000 3185153374 3185153374 -4.00000000
6.08573294 24.12138176 -2.03085732 3 16 1276 24.96000000 3185153376 3185153376 -4.66700000
22.02176857 87.22119141 1.57022786 28 18 1277 89.97200000 3185153379 3185153379 1.00000000
3.69282913 24.50446701 -1.58819366 6 19 1277 24.83200000 3185153379 3185153379 -3.66700000
8.61078072 28.21742821 -1.71812439 4 20 1277 29.55200000 3185153381 3185153381 -3.33300000
34.65597916 172.34017944 10.23758411 42 21 1277 176.08800000 3185153381 3185153381 3.33300000
6.82365131 33.90261459 -1.61090755 3 23 1278 34.62000000 3185153383 3185153383 -2.66700000
7.96488523 31.50003815 -1.70280266 6 24 1279 32.53600000 3185153386 3185153386 -3.00000000
5.79058790 38.28847885 -1.57765138 7 27 1280 38.75600000 3185153388 3185153388 -2.33300000
10.92726231 35.71916580 -1.30440354 6 28 1281 37.37600000 3185153390 3185153390 -2.00000000
9.43307114 46.74071503 -1.10955870 7 31 1281 47.69600000 3185153393 3185153393 -1.33300000
1.37528300 5.40332985 -2.59994745 13 0 1288 6.15200000 3185153413 3185153413 -25.00000000
8.29548168 54.33806229 -0.95946348 19 1 1288 54.97600000 3185153413 3185153413 -1.00000000
10.75130653 42.20983505 -1.26764905 9 2 1289 43.57600000 3185153416 3185153416 -1.66700000
1.66808844 8.20624733 -2.34422731 28 3 1289 8.69600000 3185153416 3185153416 -15.63900000
2.98684001 11.71784019 -2.41851854 12 4 1290 12.33200000 3185153418 3185153418 -11.31000000
15.13441849 74.38804626 0.00000000 26 5 1290 75.91200000 3185153418 3185153418 0.00000000
15.43423748 50.13863373 -0.61073780 18 6 1291 52.46400000 3185153420 3185153420 -0.66700000
3.04426003 14.94966030 -2.37355185 16 7 1291 15.44000000 3185153420 3185153420 -8.84300000
3.81515384 14.95653820 -1.96473360 12 8 1291 15.56000000 3185153422 3185153422 -7.25400000
15.95001507 62.48326874 -0.37479869 28 10 1292 64.48800000 3185153425 3185153425 -0.33300000
3.82746887 18.77905464 -2.06440282 17 11 1292 19.27600000 3185153425 3185153425 -6.14800000
6.61842203 21.47350311 -2.09756184 5 12 1293 22.56800000 3185153427 3185153427 -5.33300000
21.85520744 70.86538696 0.86334932 28 14 1294 74.16400000 3185153429 3185153429 0.66700000
5.59659195 27.41016579 -1.95625055 3 15 1294 28.04400000 3185153429 3185153429 -4.00000000
6.16272449 24.08948135 -2.02988076 3 16 1295 24.94800000 3185153432 3185153432 -4.66700000
21.96559525 85.86133575 1.54698133 28 18 1295 88.64000000 3185153434 3185153434 1.00000000
3.76311421 24.44934464 -1.58537948 9 19 1295 24.78800000 3185153434 3185153434 -3.66700000
8.70194912 28.18108749 -1.71765924 4 20 1296 29.54400000 3185153436 3185153436 -3.33300000
35.25209808 172.34559631 10.24479294 42 21 1296 176.21200000 3185153436 3185153436 3.33300000
6.91440153 33.77410889 -1.60588217 3 23 1297 34.51200000 3185153439 3185153439 -2.66700000
8.08913994 31.55083847 -1.70698953 6 24 1298 32.61600000 3185153441 3185153441 -3.00000000
5.92607594 38.32436371 -1.57993102 7 27 1299 38.81200000 3185153443 3185153443 -2.33300000
11.03855896 35.65982056 -1.30356598 6 28 1300 37.35200000 3185153446 3185153446 -2.00000000
9.56791496 46.61124420 -1.10723245 7 31 1300 47.59600000 3185153448 3185153448 -1.33300000
1.41231239 5.46494150 -2.63206649 13 0 1309 6.22800000 3185153468 3185153468 -25.00000000
8.48593140 54.25197220 -0.95848614 19 1 1309 54.92000000 3185153468 3185153468 -1.00000000
10.85688782 41.98046875 -1.26194739 9 2 1310 43.38000000 3185153470 3185153470 -1.66700000
1.69112456 8.16613102 -2.33452272 26 3 1310 8.66000000 3185153470 3185153470 -15.63900000
2.97276950 11.48657608 -2.37301922 10 4 1311 12.10000000 3185153473 3185153473 -11.31000000
15.32577991 73.94039917 0.00000000 26 5 1311 75.51200000 3185153473 3185153473 0.00000000
15.63296127 50.16082382 -0.61166906 18 6 1311 52.54400000 3185153475 3185153475 -0.66700000
3.07236004 14.82283688 -2.35510445 14 7 1311 15.32000000 3185153475 3185153475 -8.84300000
3.87691045 14.96934319 -1.96826911 11 8 1312 15.58800000 3185153477 3185153477 -7.25400000
16.15985298 62.35081863 -0.37435699 28 10 1313 64.41200000 3185153480 3185153480 -0.33300000
3.72163081 17.92380905 -1.97187090 13 11 1313 18.41200000 3185153480 3185153480 -6.14800000
6.69233370 21.43389511 -2.09607458 5 12 1314 22.55200000 3185153482 3185153482 -5.33300000
21.82495689 69.85710144 0.85203415 28 14 1315 73.19200000 3185153484 3185153484 0.66700000
5.69458008 27.37774849 -1.95541346 7 15 1315 28.03200000 3185153484 3185153484 -4.00000000
6.24696684 24.05129814 -2.02857900 3 16 1316 24.93200000 3185153486 3185153486 -4.66700000
21.97851753 84.61896515 1.52603841 28 18 1316 87.44000000 3185153489 3185153489 1.00000000
3.24591708 20.58692360 -1.33568931 6 19 1316 20.88400000 3185153489 3185153489 -3.66700000
8.75868607 28.00037003 -1.70858955 4 20 1317 29.38800000 3185153491 3185153491 -3.33300000
49.71400452 191.12847900 8.04587555 28 22 1318 197.65200000 3185153493 3185153493 2.33300000
7.02509165 33.68595505 -1.60290420 3 23 1318 34.44800000 3185153493 3185153493 -2.66700000
8.16950798 31.38567924 -1.69966257 6 24 1319 32.47600000 3185153496 3185153496 -3.00000000
6.04461908 38.16422272 -1.57423198 7 27 1320 38.67200000 3185153498 3185153498 -2.33300000
11.12373257 35.47417450 -1.29826128 6 28 1321 37.20000000 3185153500 3185153500 -2.00000000
9.69776726 46.38014984 -1.10257983 7 31 1321 47.39600000 3185153503 3185153503 -1.33300000
1.45063853 5.53737926 -2.66925693 11 0 1328 6.31600000 3185153523 3185153523 -25.00000000
8.62792206 53.98657990 -0.95429760 18 1 1328 54.68000000 3185153523 3185153523 -1.00000000
10.95852470 41.80113602 -1.25764191 9 2 1329 43.23200000 3185153526 3185153526 -1.66700000
1.71105242 8.12655544 -2.32481790 18 3 1329 8.62400000 3185153526 3185153526 -15.63900000
3.01382995 11.48803616 -2.37537265 16 4 1330 12.11200000 3185153528 3185153528 -11.31000000
15.47273731 73.42340088 0.00000000 26 5 1330 75.03600000 3185153528 3185153528 0.00000000
15.65007496 49.63569641 -0.60589510 17 6 1330 52.04800000 3185153530 3185153530 -0.66700000
3.02695608 14.36393547 -2.28377509 17 7 1330 14.85600000 3185153530 3185153530 -8.84300000
3.92753696 14.96024227 -1.96877420 10 8 1331 15.59200000 3185153533 3185153533 -7.25400000
16.28420258 61.98352814 -0.37247393 28 10 1332 64.08800000 3185153535 3185153535 -0.33300000
3.79747653 17.98919487 -1.98043859 13 11 1332 18.49200000 3185153535 3185153535 -6.14800000
6.75377750 21.38120270 -2.09310031 5 12 1333 22.52000000 3185153537 3185153537 -5.33300000
21.78407097 68.92242432 0.84151059 28 14 1334 72.28800000 3185153539 3185153539 0.66700000
5.77790689 27.32357979 -1.95290220 3 15 1334 27.99600000 3185153539 3185153539 -4.00000000
6.29826832 23.92249870 -2.01946616 7 16 1335 24.82000000 3185153542 3185153542 -4.66700000
21.94741821 83.36213684 1.50467670 28 18 1335 86.21600000 3185153544 3185153544 1.00000000
3.94069219 24.46582985 -1.58819366 9 19 1335 24.83200000 3185153544 3185153544 -3.66700000
8.84426117 27.94832802 -1.70719421 4 20 1336 29.36400000 3185153546 3185153546 -3.33300000
50.22628403 190.50268555 8.02649879 28 22 1337 197.17600000 3185153549 3185153549 2.33300000
7.11438465 33.55693436 -1.59787881 3 23 1337 34.34000000 3185153549 3185153549 -2.66700000
8.26742744 31.33524132 -1.69840646 6 24 1338 32.45200000 3185153551 3185153551 -3.00000000
6.15837717 38.06505966 -1.57097542 7 27 1339 38.59200000 3185153553 3185153553 -2.33300000
11.21713257 35.36088181 -1.29546928 6 28 1340 37.12000000 3185153556 3185153556 -2.00000000
9.81659603 46.18345261 -1.09867156 7 31 1340 47.22800000 3185153558 3185153558 -1.33300000
1.44668519 5.44469070 -2.62699509 15 0 1348 6.21600000 3185153579 3185153579 -25.00000000
8.79051971 53.79825211 -0.95150518 18 1 1348 54.52000000 3185153579 3185153579 -1.00000000
11.08485031 41.68921280 -1.25543106 9 2 1349 43.15600000 3185153581 3185153581 -1.66700000
1.71601248 8.01130486 -2.29354715 18 3 1349 8.50800000 3185153581 3185153581 -15.63900000
3.06601501 11.52293110 -2.38478637 9 4 1350 12.16000000 3185153583 3185153583 -11.31000000
15.85850620 49.69126511 -0.60724545 17 6 1350 52.16400000 3185153586 3185153586 -0.66700000
3.13672948 14.63153648 -2.32804847 13 7 1350 15.14400000 3185153586 3185153586 -8.84300000
3.98075509 14.95027542 -1.96927917 12 8 1351 15.59600000 3185153588 3185153588 -7.25400000
16.34701538 61.35041046 -0.36901003 28 10 1352 63.49200000 3185153590 3185153590 -0.33300000
3.88529754 18.09247971 -1.99329031 12 11 1352 18.61200000 3185153590 3185153590 -6.14800000
6.80532646 21.28541946 -2.08603668 5 12 1353 22.44400000 3185153592 3185153592 -5.33300000
21.78077888 68.08406067 0.83219773 28 14 1354 71.48800000 3185153595 3185153595 0.66700000
5.84303904 27.16280746 -1.94285727 6 15 1354 27.85200000 3185153595 3185153595 -4.00000000
6.36836481 23.85029602 -2.01523519 3 16 1355 24.76800000 3185153597 3185153597 -4.66700000
21.94308281 82.12197876 1.48373377 28 18 1356 85.01600000 3185153599 3185153599 1.00000000
4.03293419 24.46697617 -1.58921695 26 19 1356 24.84800000 3185153599 3185153599 -3.66700000
8.90644169 27.80700111 -1.70045006 4 20 1356 29.24800000 3185153602 3185153602 -3.33300000
37.10876465 172.21682739 10.25967693 42 21 1356 176.46800000 3185153602 3185153602 3.33300000
7.21378756 33.44987488 -1.59397018 3 23 1357 34.25600000 3185153604 3185153604 -2.66700000
8.34578228 31.19042969 -1.69212615 6 24 1358 32.33200000 3185153606 3185153606 -3.00000000
6.26773643 37.90137863 -1.56511354 7 27 1359 38.44800000 3185153609 3185153609 -2.33300000
11.33194256 35.29486847 -1.29449213 6 28 1360 37.09200000 3185153611 3185153611 -2.00000000
9.90845108 45.82839966 -1.09104133 7 31 1360 46.90000000 3185153613 3185153613 -1.33300000
1.46756828 5.44660807 -2.63037610 13 0 1368 6.22400000 3185153634 3185153634 -25.00000000
8.94532204 53.56999969 -0.94801474 18 1 1368 54.32000000 3185153634 3185153634 -1.00000000
11.18971062 41.49970627 -1.25089300 9 2 1369 43.00000000 3185153636 3185153636 -1.66700000
1.75134599 8.03913879 -2.30325198 25 3 1369 8.54400000 3185153636 3185153636 -15.63900000
3.08271790 11.42506027 -2.36674356 15 4 1370 12.06800000 3185153638 3185153638 -11.31000000
15.94704628 49.34355927 -0.60370660 17 6 1371 51.86000000 3185153641 3185153641 -0.66700000
3.15073037 14.43844700 -2.29914784 17 7 1371 14.95600000 3185153641 3185153641 -8.84300000
4.03601980 14.94778156 -1.97079444 11 8 1371 15.60800000 3185153643 3185153643 -7.25400000
16.56106949 61.29297638 -0.36901003 28 10 1372 63.49200000 3185153645 3185153645 -0.33300000
3.70403838 16.95980835 -1.86991441 4 11 1372 17.46000000 3185153645 3185153645 -6.14800000
6.87468052 21.24637794 -2.08454967 5 12 1373 22.42800000 3185153648 3185153648 -5.33300000
21.76820946 67.23514557 0.82274520 28 14 1374 70.67600000 3185153650 3185153650 0.66700000
5.93526125 27.13055229 -1.94202018 6 15 1374 27.84000000 3185153650 3185153650 -4.00000000
6.44845343 23.81637573 -2.01425886 3 16 1375 24.75600000 3185153652 3185153652 -4.66700000
21.93098640 80.99874115 1.46474552 28 18 1375 83.92800000 3185153655 3185153655 1.00000000
9.00837708 27.79093552 -1.70138025 4 20 1376 29.26400000 3185153657 3185153657 -3.33300000
43.56143951 160.66517639 6.78199577 28 22 1377 166.60400000 3185153659 3185153659 2.33300000
7.30825043 33.32301331 -1.58913088 3 23 1377 34.15200000 3185153659 3185153659 -2.66700000
8.43996239 31.10713387 -1.68919528 6 24 1378 32.27600000 3185153662 3185153662 -3.00000000
6.39267492 37.83592224 -1.56332242 7 27 1379 38.40400000 3185153664 3185153664 -2.33300000
11.42048740 35.14864349 -1.29058337 6 28 1380 36.98000000 3185153666 3185153666 -2.00000000
10.08752537 45.84254837 -1.09225094 7 31 1381 46.95200000 3185153668 3185153668 -1.33300000
1.47893834 5.41723108 -2.61854267 16 0 1387 6.19600000 3185153689 3185153689 -25.00000000
9.09873199 53.39810944 -0.94550157 17 1 1387 54.17600000 3185153689 3185153689 -1.00000000
11.29354858 41.33894730 -1.24716938 9 2 1388 42.87200000 3185153691 3185153691 -1.66700000
1.78715146 8.07465649 -2.31511331 25 3 1388 8.58800000 3185153691 3185153691 -15.63900000
3.11024451 11.37693977 -2.35889888 13 4 1389 12.02800000 3185153694 3185153694 -11.31000000
16.09319115 49.23717880 -0.60305470 17 6 1390 51.80400000 3185153696 3185153696 -0.66700000
3.21142483 14.48580074 -2.30837131 14 7 1390 15.01600000 3185153696 3185153696 -8.84300000
4.08451939 14.93048859 -1.97028935 3 8 1390 15.60400000 3185153698 3185153698 -7.25400000
16.71142578 61.04482269 -0.36784765 28 10 1391 63.29200000 3185153701 3185153701 -0.33300000
3.74216819 16.86589813 -1.86091828 19 11 1391 17.37600000 3185153701 3185153701 -6.14800000
6.93147326 21.18182755 -2.08046007 2 12 1392 22.38400000 3185153703 3185153703 -5.33300000
21.77448654 66.50119019 0.81464303 28 14 1393 69.98000000 3185153705 3185153705 0.66700000
6.02086830 27.09124374 -1.94062507 6 15 1393 27.82000000 3185153705 3185153705 -4.00000000
6.52317715 23.77948189 -2.01295710 3 16 1394 24.74000000 3185153708 3185153708 -4.66700000
21.94659805 80.00376892 1.44806111 28 18 1394 82.97200000 3185153710 3185153710 1.00000000
3.52046657 20.50935364 -1.33364260 9 19 1394 20.85200000 3185153710 3185153710 -3.66700000
9.08929062 27.72675896 -1.69928730 4 20 1395 29.22800000 3185153712 3185153712 -3.33300000
44.18820572 160.86283875 6.79648733 28 22 1396 166.96000000 3185153715 3185153715 2.33300000
7.40741777 33.24789429 -1.58671129 3 23 1396 34.10000000 3185153715 3185153715 -2.66700000
8.54095364 31.07127190 -1.68877661 6 24 1397 32.26800000 3185153717 3185153717 -3.00000000
6.48891544 37.64515305 -1.55632079 7 27 1398 38.23200000 3185153719 3185153719 -2.33300000
11.51826286 35.05361176 -1.28848946 6 28 1399 36.92000000 3185153721 3185153721 -2.00000000
10.19314194 45.63890839 -1.08815670 7 31 1399 46.77600000 3185153724 3185153724 -1.33300000
1.50364089 5.43299866 -2.62868547 15 0 1407 6.22000000 3185153744 3185153744 -25.00000000
9.21994400 52.99170303 -0.93886966 17 1 1407 53.79600000 3185153744 3185153744 -1.00000000
11.40896606 41.19523621 -1.24402761 9 2 1408 42.76400000 3185153747 3185153747 -1.66700000
1.82547259 8.11346531 -2.32805276 24 3 1408 8.63600000 3185153747 3185153747 -15.63900000
3.17403173 11.45295048 -2.37694168 12 4 1409 12.12000000 3185153749 3185153749 -11.31000000
16.20114899 49.01644516 -0.60100585 16 6 1409 51.62800000 3185153751 3185153751 -0.66700000
3.26986289 14.52134228 -2.31575036 14 7 1409 15.06400000 3185153751 3185153751 -8.84300000
4.08677292 14.73642731 -1.94655097 2 8 1410 15.41600000 3185153754 3185153754 -7.25400000
16.87092972 60.79340363 -0.36668527 28 10 1411 63.09200000 3185153756 3185153756 -0.33300000
3.80539346 16.87213135 -1.86306024 23 11 1411 17.39600000 3185153756 3185153756 -6.14800000
7.00036192 21.14237976 -2.07897282 2 12 1412 22.36800000 3185153758 3185153758 -5.33300000
21.75617027 65.66921997 0.80537671 28 14 1413 69.18400000 3185153761 3185153761 0.66700000
6.10924244 27.04281807 -1.93867195 3 15 1413 27.79200000 3185153761 3185153761 -4.00000000
6.57730484 23.65286064 -2.00416970 3 16 1414 24.63200000 3185153763 3185153763 -4.66700000
21.92250061 78.83621979 1.42830491 28 18 1414 81.84000000 3185153765 3185153765 1.00000000
9.18099117 27.67970276 -1.69835711 4 20 1415 29.21200000 3185153768 3185153768 -3.33300000
40.61758041 145.86891174 6.16894388 28 22 1416 151.54400000 3185153770 3185153770 2.33300000
7.50754404 33.15169144 -1.58336103 3 23 1416 34.02800000 3185153770 3185153770 -2.66700000
8.63542175 30.99124718 -1.68605518 6 24 1417 32.21600000 3185153772 3185153772 -3.00000000
6.59188366 37.46089172 -1.54964471 7 27 1418 38.06800000 3185153774 3185153774 -2.33300000
11.59136677 34.86524963 -1.28304505 6 28 1419 36.76400000 3185153777 3185153777 -2.00000000
10.35946178 45.59734344 -1.08806360 7 31 1420 46.77200000 3185153779 3185153779 -1.33300000
1.49909651 5.34394503 -2.58811426 13 0 1427 6.12400000 3185153800 3185153800 -25.00000000
9.33493328 52.56542206 -0.93188870 16 1 1427 53.39600000 3185153800 3185153800 -1.00000000
11.51271248 41.01272964 -1.23972225 9 2 1428 42.61600000 3185153802 3185153802 -1.66700000
1.88211751 8.23095894 -2.36363673 24 3 1428 8.76800000 3185153802 3185153802 -15.63900000
3.18747258 11.34739685 -2.35732985 13 4 1429 12.02000000 3185153804 3185153804 -11.31000000
16.33282661 48.84200287 -0.59956235 16 6 1429 51.50400000 3185153807 3185153807 -0.66700000
3.28526330 14.35572624 -2.29115391 14 7 1429 14.90400000 3185153807 3185153807 -8.84300000
4.08664846 14.53871441 -1.92230749 3 8 1430 15.22400000 3185153809 3185153809 -7.25400000
17.02888298 60.54161453 -0.36552286 28 10 1431 62.89200000 3185153811 3185153811 -0.33300000
3.86781907 16.87425041 -1.86477375 24 11 1431 17.41200000 3185153811 3185153811 -6.14800000
7.07032490 21.10648537 -2.07785749 2 12 1432 22.35600000 3185153814 3185153814 -5.33300000
21.75900650 64.91783142 0.79708827 28 14 1433 68.47200000 3185153816 3185153816 0.66700000
6.17413807 26.89298820 -1.92946410 3 15 1433 27.66000000 3185153816 3185153816 -4.00000000
6.64901400 23.59138489 -2.00091505 3 16 1434 24.59200000 3185153818 3185153818 -4.66700000
21.94260025 77.85459900 1.41189969 28 18 1434 80.90000000 3185153821 3185153821 1.00000000
4.04657364 22.62583351 -1.47307003 8 19 1434 23.03200000 3185153821 3185153821 -3.66700000
9.21403694 27.45819855 -1.68672931 4 20 1435 29.01200000 3185153823 3185153823 -3.33300000
41.08417511 145.57623291 6.16259384 115 22 1436 151.38800000 3185153825 3185153825 2.33300000
7.59723234 33.01235962 -1.57796347 3 23 1436 33.91200000 3185153825 3185153825 -2.66700000
8.71315193 30.85327721 -1.68019354 6 24 1437 32.10400000 3185153827 3185153827 -3.00000000
40.48835754 143.27369690 12.15422535 28 26 1438 149.38000000 3185153830 3185153830 4.66700000
6.71059799 37.37077713 -1.54687667 7 27 1438 38.00000000 3185153830 3185153830 -2.33300000
11.69898033 34.78289795 -1.28150952 6 28 1439 36.72000000 3185153832 3185153832 -2.00000000
10.51856327 45.56090164 -1.08806360 7 31 1440 46.77200000 3185153834 3185153834 -1.33300000
1.51768100 5.33492804 -2.58642387 14 0 1448 6.12000000 3185153855 3185153855 -25.00000000
9.53181553 52.55446243 -0.93230754 16 1 1448 53.42000000 3185153855 3185153855 -1.00000000
1.91489005 8.23526001 -2.36687160 23 3 1449 8.78000000 3185153857 3185153857 -15.63900000
3.22581768 11.32432079 -2.35497642 12 4 1450 12.00800000 3185153860 3185153860 -11.31000000
16.44889641 48.59617233 -0.59728068 16 6 1450 51.30800000 3185153862 3185153862 -0.66700000
3.31367016 14.23964977 -2.27455139 15 7 1450 14.79600000 3185153862 3185153862 -8.84300000
4.11162710 14.42442322 -1.90917552 3 8 1451 15.12000000 3185153864 3185153864 -7.25400000
17.19580650 60.28646851 -0.36436048 28 10 1452 62.69200000 3185153867 3185153867 -0.33300000
3.93234849 16.87158012 -1.86605895 20 11 1452 17.42400000 3185153867 3185153867 -6.14800000
7.13484764 21.04271317 -2.07413983 2 12 1453 22.31600000 3185153869 3185153869 -5.33300000
21.73722458 64.07253265 0.78768224 28 14 1454 67.66400000 3185153871 3185153871 0.66700000
6.26631451 26.84297752 -1.92751086 3 15 1454 27.63200000 3185153871 3185153871 -4.00000000
6.73105383 23.55152321 -1.99961329 3 16 1455 24.57600000 3185153874 3185153874 -4.66700000
22.06295013 77.19683838 1.40142822 28 18 1455 80.30000000 3185153876 3185153876 1.00000000
5.32141352 29.13728905 -1.89825976 4 19 1455 29.68000000 3185153876 3185153876 -3.66700000
9.30562401 27.39777374 -1.68510139 4 20 1456 28.98400000 3185153878 3185153878 -3.33300000
41.64605331 145.52458191 6.16682720 124 22 1457 151.49200000 3185153880 3185153880 2.33300000
7.69996977 32.90647888 -1.57424092 3 23 1457 33.83200000 3185153880 3185153880 -2.66700000
8.81627941 30.78657341 -1.67830944 6 24 1458 32.06800000 3185153883 3185153883 -3.00000000
6.84680271 37.34199905 -1.54671383 7 27 1459 37.99600000 3185153885 3185153885 -2.33300000
11.81092834 34.69437408 -1.27983439 6 28 1460 36.67200000 3185153887 3185153887 -2.00000000
10.60780621 45.19113159 -1.08015418 7 31 1461 46.43200000 3185153890 3185153890 -1.33300000
1.54238856 5.35425091 -2.59825706 14 0 1467 6.14800000 3185153910 3185153910 -25.00000000
9.67406178 52.34952164 -0.92923594 16 1 1467 53.24400000 3185153910 3185153910 -1.00000000
1.89175367 8.01517677 -2.30540848 14 3 1468 8.55200000 3185153913 3185153913 -15.63900000
3.28291988 11.38139820 -2.36909676 12 4 1469 12.08000000 3185153915 3185153915 -11.31000000
16.73341560 70.84255981 0.00000000 25 5 1469 72.79200000 3185153915 3185153915 0.00000000
16.56333923 48.40512466 -0.59560436 16 6 1469 51.16400000 3185153917 3185153917 -0.66700000
3.38540435 14.33244133 -2.29115391 13 7 1469 14.90400000 3185153917 3185153917 -8.84300000
4.12862682 14.30396271 -1.89503348 5 8 1470 15.00800000 3185153920 3185153920 -7.25400000
17.28463745 59.84482956 -0.36203572 28 10 1471 62.29200000 3185153922 3185153922 -0.33300000
3.99102187 16.87005806 -1.86734414 20 11 1471 17.43600000 3185153922 3185153922 -6.14800000
7.18263531 20.95488930 -2.06781960 2 12 1472 22.24800000 3185153924 3185153924 -5.33300000
21.70822906 63.29638290 0.77902126 28 14 1473 66.92000000 3185153926 3185153926 0.66700000
6.34885454 26.79487038 -1.92555773 3 15 1473 27.60400000 3185153926 3185153926 -4.00000000
