# .PCD v0.7 - Point Cloud Data file format
VERSION 0.7
FIELDS x y z intensity laser_id azimuth distance_m adjustedtime timestamp vertical_angle
SIZE 4 4 4 1 1 2 8 8 4 8
TYPE F F F U U U F U U F
COUNT 1 1 1 1 1 1 1 1 1 1
WIDTH 520
HEIGHT 1
VIEWPOINT 0 0 0 1 0 0 0
POINTS 520
DATA ascii
39.83931732 1.78122318 1.16059589 15 17 9164 39.89600000 3181675368 3181675368 1.66700000
39.76951981 -2.11903453 0.69516426 25 18 9165 39.83200000 3181675371 3181675371 1.00000000
20.52151489 0.91393197 -1.31650198 33 19 9165 20.58400000 3181675371 3181675371 -3.66700000
20.49777985 -2.10016227 -1.19998944 18 20 9165 20.64000000 3181675373 3181675373 -3.33300000
39.93196106 -0.17423715 2.32556081 22 21 9165 40.00000000 3181675373 3181675373 3.33300000
39.79811096 -2.12752390 1.62373197 25 22 9166 39.88800000 3181675375 3181675375 2.33300000
20.56548882 -0.09332386 -0.95798278 18 23 9166 20.58800000 3181675375 3181675375 -2.66700000
20.55022240 -1.10216892 -1.07853937 27 24 9167 20.60800000 3181675378 3181675378 -3.00000000
20.59496307 0.90639830 -0.83987260 22 27 9168 20.63200000 3181675380 3181675380 -2.33300000
38.13821793 -3.93447423 -1.33888423 14 28 9169 38.36400000 3181675382 3181675382 -2.00000000
40.06064224 -0.20276687 -0.93220055 21 31 9169 40.07200000 3181675385 3181675385 -1.33300000
5.90370464 -0.32696760 -2.75716162 9 0 9177 6.52400000 3181675405 3181675405 -25.00000000
39.94195938 1.69501495 -0.69781703 25 1 9177 39.98400000 3181675405 3181675405 -1.00000000
39.76581192 -2.20933008 -1.15908325 25 2 9178 39.84400000 3181675408 3181675408 -1.66700000
8.99788094 -0.05967708 -2.51891208 2 3 9178 9.34400000 3181675408 3181675408 -15.63900000
11.86230373 -0.66112894 -2.37615705 3 4 9179 12.11600000 3181675410 3181675410 -11.31000000
40.23906708 -0.27390286 0.00000000 19 5 9179 40.24000000 3181675410 3181675410 0.00000000
40.08049393 -4.21262980 -0.46918222 19 6 9180 40.30400000 3181675412 3181675412 -0.66700000
14.07434273 -0.09825905 -2.18969369 4 7 9180 14.24400000 3181675412 3181675412 -8.84300000
16.39391899 -0.91656232 -2.08999157 2 8 9180 16.55200000 3181675414 3181675414 -7.25400000
40.00819778 1.67684031 0.23273227 16 9 9180 40.04400000 3181675414 3181675414 0.33300000
40.24407578 -2.25703907 -0.23426662 22 10 9181 40.30800000 3181675417 3181675417 -0.33300000
17.78863907 -0.12729502 -1.91618037 4 11 9181 17.89200000 3181675417 3181675417 -6.14800000
20.17591858 -2.12769532 -1.89382839 4 12 9182 20.37600000 3181675419 3181675419 -5.33300000
39.89612961 -0.29245913 0.92838538 18 13 9182 39.90800000 3181675419 3181675419 1.33300000
39.99475479 -4.22479153 0.46820438 17 14 9183 40.22000000 3181675421 3181675421 0.66700000
20.50534821 -0.15389381 -1.43391407 29 15 9183 20.55600000 3181675421 3181675421 -4.00000000
20.46305656 -1.15839362 -1.67317903 32 16 9184 20.56400000 3181675424 3181675424 -4.66700000
39.63755417 1.63358569 1.15454507 22 17 9184 39.68800000 3181675424 3181675424 1.66700000
40.17355347 -2.27418542 0.70235467 17 18 9184 40.24400000 3181675426 3181675426 1.00000000
20.51246834 0.84538198 -1.31573451 31 19 9184 20.57200000 3181675426 3181675426 -3.66700000
20.50620651 -2.17338371 -1.20091963 18 20 9185 20.65600000 3181675428 3181675428 -3.33300000
40.02694321 -0.31437734 2.33114219 16 21 9185 40.09600000 3181675428 3181675428 3.33300000
39.79044342 -2.26643229 1.62373197 25 22 9186 39.88800000 3181675431 3181675431 2.33300000
20.56903267 -0.16514233 -0.95816892 20 23 9186 20.59200000 3181675431 3181675431 -2.66700000
20.53029823 -1.17298448 -1.07770205 30 24 9187 20.59200000 3181675433 3181675433 -3.00000000
20.58602142 0.83401757 -0.83938414 24 27 9188 20.62000000 3181675435 3181675435 -2.33300000
40.05969238 -0.34260336 -0.93220055 26 31 9189 40.07200000 3181675440 3181675440 -1.33300000
5.90252733 -0.34757337 -2.75716162 8 0 9197 6.52400000 3181675460 3181675460 -25.00000000
40.10749054 1.56180596 -0.70060939 17 1 9197 40.14400000 3181675460 3181675460 -1.00000000
39.82172012 -2.35189676 -1.16094506 25 2 9198 39.90800000 3181675462 3181675462 -1.66700000
8.99761772 -0.09108518 -2.51891208 2 3 9198 9.34400000 3181675462 3181675462 -15.63900000
11.86383915 -0.70276397 -2.37694168 4 4 9199 12.12000000 3181675465 3181675465 -11.31000000
40.24186707 -0.41440296 0.00000000 19 5 9199 40.24400000 3181675465 3181675465 0.00000000
40.09811401 -4.34896851 -0.46955472 29 6 9199 40.33600000 3181675467 3181675467 -0.66700000
14.07393932 -0.14493071 -2.18969369 4 7 9199 14.24400000 3181675467 3181675467 -8.84300000
16.41834641 -0.97542948 -2.09352708 2 8 9200 16.58000000 3181675469 3181675469 -7.25400000
40.05377960 1.53871095 0.23296475 16 9 9200 40.08400000 3181675469 3181675469 0.33300000
40.23595428 -2.39750338 -0.23426662 22 10 9201 40.30800000 3181675472 3181675472 -0.33300000
17.80001831 -0.18951520 -1.91746557 4 11 9201 17.90400000 3181675472 3181675472 -6.14800000
20.18420601 -2.19983554 -1.89531541 6 12 9202 20.39200000 3181675474 3181675474 -5.33300000
39.96683884 -0.43249971 0.93006033 12 13 9202 39.98000000 3181675474 3181675474 1.33300000
39.79686356 -4.34440756 0.46606240 17 14 9203 40.03600000 3181675476 3181675476 0.66700000
20.49670792 -0.22538215 -1.43335605 29 15 9203 20.54800000 3181675476 3181675476 -4.00000000
20.45490837 -1.22957671 -1.67285359 32 16 9204 20.56000000 3181675478 3181675478 -4.66700000
39.60705566 1.49385858 1.15349782 22 17 9204 39.65200000 3181675478 3181675478 1.66700000
40.18133926 -2.41536331 0.70263386 17 18 9204 40.26000000 3181675481 3181675481 1.00000000
20.51928329 0.77392542 -1.31599033 31 19 9204 20.57600000 3181675481 3181675481 -3.66700000
20.50246429 -2.24538517 -1.20115221 18 20 9205 20.66000000 3181675483 3181675483 -3.33300000
39.88983917 -0.45255530 2.32323527 5 21 9205 39.96000000 3181675483 3181675483 3.33300000
39.79824829 -2.40627789 1.62438333 25 22 9206 39.90400000 3181675485 3181675485 2.33300000
20.56833076 -0.23694064 -0.95816892 21 23 9206 20.59200000 3181675485 3181675485 -2.66700000
20.53006554 -1.24488318 -1.07791138 30 24 9207 20.59600000 3181675488 3181675488 -3.00000000
20.59280014 0.76230174 -0.83954698 24 27 9208 20.62400000 3181675490 3181675490 -2.33300000
40.09024048 -0.48282096 -0.93294495 26 31 9209 40.10400000 3181675495 3181675495 -1.33300000
5.89765978 -0.36794919 -2.75547099 8 0 9217 6.52000000 3181675515 3181675515 -25.00000000
40.06073761 1.41995347 -0.69970191 25 1 9217 40.09200000 3181675515 3181675515 -1.00000000
39.83321762 -2.49213457 -1.16152680 25 2 9218 39.92800000 3181675518 3181675518 -1.66700000
8.99724483 -0.12249217 -2.51891208 2 3 9218 9.34400000 3181675518 3181675518 -15.63900000
11.86131382 -0.74417222 -2.37694168 3 4 9219 12.12000000 3181675520 3181675520 -11.31000000
40.23617554 -0.55481559 0.00000000 19 5 9219 40.24000000 3181675520 3181675520 0.00000000
40.07076645 -4.48757505 -0.46941504 29 6 9219 40.32400000 3181675522 3181675522 -0.66700000
14.06939602 -0.19400254 -2.18907881 3 7 9219 14.24000000 3181675522 3181675522 -8.84300000
16.40295982 -1.03198683 -2.09201193 2 8 9220 16.56800000 3181675525 3181675525 -7.25400000
40.05091095 1.39860857 0.23291825 16 9 9220 40.07600000 3181675525 3181675525 0.33300000
40.23931503 -2.53869414 -0.23433636 15 10 9221 40.32000000 3181675527 3181675527 -0.33300000
17.81912994 -0.25192881 -1.91960752 4 11 9221 17.92400000 3181675527 3181675527 -6.14800000
20.18036270 -2.27072334 -1.89568722 6 12 9222 20.39600000 3181675529 3181675529 -5.33300000
40.18900299 -0.57521224 0.93527126 12 13 9222 40.20400000 3181675529 3181675529 1.33300000
39.78543091 -4.48374605 0.46610898 25 14 9223 40.04000000 3181675531 3181675531 0.66700000
20.49978447 -0.29698545 -1.43363500 28 15 9223 20.55200000 3181675531 3181675531 -4.00000000
20.45447159 -1.30122328 -1.67317903 32 16 9224 20.56400000 3181675534 3181675534 -4.66700000
39.65198898 1.35696256 1.15466154 51 17 9224 39.69200000 3181675534 3181675534 1.66700000
40.18463516 -2.55636954 0.70284331 17 18 9224 40.27200000 3181675536 3181675536 1.00000000
20.51388168 0.70202202 -1.31547868 29 19 9224 20.56800000 3181675536 3181675536 -3.66700000
20.50243759 -2.31783557 -1.20161724 18 20 9225 20.66800000 3181675538 3181675538 -3.33300000
40.41107559 -0.59955436 2.35370016 5 21 9225 40.48400000 3181675538 3181675538 3.33300000
39.74573135 -2.54237866 1.62259221 25 22 9226 39.86000000 3181675541 3181675541 2.33300000
20.56338310 -0.30867609 -0.95798278 20 23 9226 20.58800000 3181675541 3181675541 -2.66700000
20.52559471 -1.31653893 -1.07791138 33 24 9227 20.59600000 3181675543 3181675543 -3.00000000
20.58335304 0.69001305 -0.83905846 26 27 9228 20.61200000 3181675545 3181675545 -2.33300000
37.97974014 -4.32053041 -1.33483601 14 28 9229 38.24800000 3181675548 3181675548 -2.00000000
40.04832458 -0.62213790 -0.93201447 21 31 9229 40.06400000 3181675550 3181675550 -1.33300000
5.89633942 -0.38853362 -2.75547099 8 0 9237 6.52000000 3181675571 3181675571 -25.00000000
39.93753433 1.27601981 -0.69746798 25 1 9237 39.96400000 3181675571 3181675571 -1.00000000
39.86816406 -2.63406277 -1.16280687 33 2 9238 39.97200000 3181675573 3181675573 -1.66700000
9.01216793 -0.15416120 -2.52322531 2 3 9238 9.36000000 3181675573 3181675573 -15.63900000
11.86647129 -0.78608996 -2.37851048 3 4 9239 12.12800000 3181675575 3181675575 -11.31000000
40.23799133 -0.69533181 0.00000000 13 5 9239 40.24400000 3181675575 3181675575 0.00000000
40.04293823 -4.62604380 -0.46927536 29 6 9239 40.31200000 3181675578 3181675578 -0.66700000
14.07653618 -0.24324930 -2.19030881 2 7 9239 14.24800000 3181675578 3181675578 -8.84300000
16.41905403 -1.09055245 -2.09453726 2 8 9240 16.58800000 3181675580 3181675580 -7.25400000
40.04755402 1.25854504 0.23287176 16 9 9240 40.06800000 3181675580 3181675580 0.33300000
40.23020935 -2.67914009 -0.23433636 15 10 9241 40.32000000 3181675582 3181675582 -0.33300000
17.81814194 -0.31412765 -1.91960752 2 11 9241 17.92400000 3181675582 3181675582 -6.14800000
20.19604874 -2.34390712 -1.89791787 6 12 9242 20.42000000 3181675584 3181675584 -5.33300000
39.85889053 -0.70965725 0.92764097 18 13 9242 39.87600000 3181675584 3181675584 1.33300000
39.94831848 -4.64337635 0.46820438 25 14 9243 40.22000000 3181675587 3181675587 0.66700000
20.48665428 -0.36832604 -1.43279803 24 15 9243 20.54000000 3181675587 3181675587 -4.00000000
20.45775986 -1.37314880 -1.67382991 32 16 9244 20.57200000 3181675589 3181675589 -4.66700000
39.57255936 1.21596420 1.15221786 22 17 9244 39.60800000 3181675589 3181675589 1.66700000
40.17898560 -2.70390487 0.70291311 17 18 9245 40.27600000 3181675591 3181675591 1.00000000
20.50833702 0.62658632 -1.31496704 31 19 9245 20.56000000 3181675591 3181675591 -3.66700000
20.49818993 -2.38985085 -1.20184982 18 20 9245 20.67200000 3181675594 3181675594 -3.33300000
40.19712830 -0.73673332 2.34137464 16 21 9245 40.27200000 3181675594 3181675594 3.33300000
39.83630371 -2.68782783 1.62666297 25 22 9246 39.96000000 3181675596 3181675596 2.33300000
20.56617546 -0.38052773 -0.95816892 20 23 9246 20.59200000 3181675596 3181675596 -2.66700000
20.53283119 -1.38898742 -1.07853937 30 24 9247 20.60800000 3181675598 3181675598 -3.00000000
87.74585724 -5.95114136 7.17960119 28 26 9248 88.24000000 3181675601 3181675601 4.66700000
20.58563614 0.61815953 -0.83905846 24 27 9248 20.61200000 3181675601 3181675601 -2.33300000
37.94060516 -4.45028353 -1.33399832 14 28 9249 38.22400000 3181675603 3181675603 -2.00000000
39.96994400 -0.76048350 -0.93024647 20 31 9249 39.98800000 3181675605 3181675605 -1.33300000
5.89494753 -0.40911332 -2.75547099 8 0 9257 6.52000000 3181675626 3181675626 -25.00000000
39.90976334 1.13569391 -0.69690949 16 1 9257 39.93200000 3181675626 3181675626 -1.00000000
39.87467957 -2.77432251 -1.16327226 25 2 9258 39.98800000 3181675628 3181675628 -1.66700000
9.00772381 -0.18553926 -2.52214718 2 3 9258 9.35600000 3181675628 3181675628 -15.63900000
11.86756802 -0.82777977 -2.37929487 3 4 9259 12.13200000 3181675630 3181675630 -11.31000000
40.23131943 -0.83570129 0.00000000 19 5 9259 40.24000000 3181675630 3181675630 0.00000000
39.99791336 -4.76946211 -0.46894941 19 6 9260 40.28400000 3181675633 3181675633 -0.66700000
14.08740520 -0.29508907 -2.19215345 3 7 9260 14.26000000 3181675633 3181675633 -8.84300000
16.42306519 -1.14841259 -2.09554744 2 8 9260 16.59600000 3181675635 3181675635 -7.25400000
40.04370499 1.11852193 0.23282526 16 9 9260 40.06000000 3181675635 3181675635 0.33300000
40.22061157 -2.81955338 -0.23433636 22 10 9261 40.32000000 3181675637 3181675637 -0.33300000
17.82091331 -0.37640664 -1.92003584 4 11 9261 17.92800000 3181675637 3181675637 -6.14800000
20.19960785 -2.41580892 -1.89903319 6 12 9262 20.43200000 3181675640 3181675640 -5.33300000
40.08805466 -0.85372466 0.93303806 12 13 9262 40.10800000 3181675640 3181675640 1.33300000
39.90406799 -4.77946424 0.46787840 25 14 9263 40.19200000 3181675642 3181675642 0.66700000
20.49721146 -0.44009253 -1.43363500 28 15 9263 20.55200000 3181675642 3181675642 -4.00000000
20.45284271 -1.44455135 -1.67382991 32 16 9264 20.57200000 3181675644 3181675644 -4.66700000
39.52060699 1.07629895 1.15058875 22 17 9264 39.55200000 3181675644 3181675644 1.66700000
40.17378998 -2.83741021 0.70298290 17 18 9264 40.28000000 3181675647 3181675647 1.00000000
20.50232124 0.55835748 -1.31445539 31 19 9264 20.55200000 3181675647 3181675647 -3.66700000
20.49368668 -2.46186447 -1.20208240 18 20 9265 20.67600000 3181675649 3181675649 -3.33300000
40.18233490 -0.87678170 2.34067702 5 21 9265 40.26000000 3181675649 3181675649 3.33300000
39.85060120 -2.82856393 1.62763989 25 22 9266 39.98400000 3181675651 3181675651 2.33300000
20.56072807 -0.45222691 -0.95798278 21 23 9266 20.58800000 3181675651 3181675651 -2.66700000
20.53184128 -1.46093547 -1.07874870 30 24 9267 20.61200000 3181675654 3181675654 -3.00000000
87.58536530 -6.24746752 7.16821003 28 26 9268 88.10000000 3181675656 3181675656 4.66700000
20.58367348 0.54619247 -0.83889562 22 27 9268 20.60800000 3181675656 3181675656 -2.33300000
37.99627686 -4.59132624 -1.33651114 14 28 9269 38.29600000 3181675658 3181675658 -2.00000000
39.89093018 -0.90525180 -0.92847848 20 31 9270 39.91200000 3181675660 3181675660 -1.33300000
5.89709902 -0.42995164 -2.75716162 8 0 9277 6.52400000 3181675681 3181675681 -25.00000000
40.07341003 1.00036824 -0.69970191 17 1 9277 40.09200000 3181675681 3181675681 -1.00000000
39.90861511 -2.91670012 -1.16455221 25 2 9278 40.03200000 3181675683 3181675683 -1.66700000
9.00702095 -0.21698096 -2.52214718 2 3 9278 9.35600000 3181675683 3181675683 -15.63900000
11.86069393 -0.86891371 -2.37851048 4 4 9279 12.12800000 3181675686 3181675686 -11.31000000
40.23215866 -0.97622675 0.00000000 19 5 9279 40.24400000 3181675686 3181675686 0.00000000
39.94926071 -4.90515232 -0.46857688 19 6 9280 40.25200000 3181675688 3181675688 -0.66700000
14.09814358 -0.34455121 -2.19399810 3 7 9280 14.27200000 3181675688 3181675688 -8.84300000
16.42687035 -1.20631397 -2.09655762 2 8 9280 16.60400000 3181675690 3181675690 -7.25400000
40.03137207 0.97834563 0.23273227 16 9 9280 40.04400000 3181675690 3181675690 0.33300000
40.21451187 -2.96022606 -0.23435961 22 10 9281 40.32400000 3181675693 3181675693 -0.33300000
17.83539391 -0.43900239 -1.92174947 4 11 9281 17.94400000 3181675693 3181675693 -6.14800000
20.19895744 -2.48727751 -1.89977682 6 12 9282 20.44000000 3181675695 3181675695 -5.33300000
40.17278290 -0.99583304 0.93508518 12 13 9282 40.19600000 3181675695 3181675695 1.33300000
39.56163025 -4.87858534 0.46406013 25 14 9283 39.86400000 3181675697 3181675697 0.66700000
20.48757362 -0.51143932 -1.43307698 26 15 9283 20.54400000 3181675697 3181675697 -4.00000000
20.45960236 -1.51682055 -1.67480636 30 16 9284 20.58400000 3181675700 3181675700 -4.66700000
39.82791138 0.94555187 1.15943229 15 17 9284 39.85600000 3181675700 3181675700 1.66700000
40.15965271 -2.97732973 0.70291311 25 18 9284 40.27600000 3181675702 3181675702 1.00000000
20.50813484 0.48688233 -1.31471121 31 19 9284 20.55600000 3181675702 3181675702 -3.66700000
20.49685669 -2.53485608 -1.20278001 18 20 9285 20.68800000 3181675704 3181675704 -3.33300000
40.62612915 -1.02835619 2.36672330 17 21 9285 40.70800000 3181675704 3181675704 3.33300000
39.82453918 -2.96646380 1.62698853 25 22 9286 39.96800000 3181675707 3181675707 2.33300000
20.55502892 -0.52389270 -0.95779663 21 23 9286 20.58400000 3181675707 3181675707 -2.66700000
20.52661705 -1.53259599 -1.07874870 33 24 9287 20.61200000 3181675709 3181675709 -3.00000000
87.72999573 -6.56565571 7.18187952 28 26 9288 88.26800000 3181675711 3181675711 4.66700000
20.58944893 0.47443080 -0.83905846 20 27 9288 20.61200000 3181675711 3181675711 -2.33300000
38.05539322 -4.73330498 -1.33916354 7 28 9289 38.37200000 3181675713 3181675713 -2.00000000
39.96765900 -1.03960955 -0.93033952 25 31 9289 39.99200000 3181675716 3181675716 -1.33300000
5.90279198 -0.45108619 -2.76054239 7 0 9297 6.53200000 3181675736 3181675736 -25.00000000
40.00468445 0.85893452 -0.69844532 25 1 9297 40.02000000 3181675736 3181675736 -1.00000000
39.92211151 -3.05782151 -1.16525042 25 2 9298 40.05600000 3181675739 3181675739 -1.66700000
9.01776028 -0.24873863 -2.52538204 2 3 9298 9.36800000 3181675739 3181675739 -15.63900000
11.86540985 -0.91091043 -2.38007951 3 4 9299 12.13600000 3181675741 3181675741 -11.31000000
40.22850418 -1.11665726 0.00000000 19 5 9299 40.24400000 3181675741 3181675741 0.00000000
39.94071198 -5.03860331 -0.46867001 29 6 9299 40.26000000 3181675743 3181675743 -0.66700000
14.09692287 -0.39130044 -2.19399810 3 7 9299 14.27200000 3181675743 3181675743 -8.84300000
16.43838501 -1.26486480 -2.09857798 2 8 9300 16.62000000 3181675746 3181675746 -7.25400000
40.05453491 0.83902293 0.23284851 16 9 9300 40.06400000 3181675746 3181675746 0.33300000
40.21191025 -3.10119796 -0.23440610 22 10 9301 40.33200000 3181675748 3181675748 -0.33300000
17.84568024 -0.50159204 -1.92303455 4 11 9301 17.95600000 3181675748 3181675748 -6.14800000
20.21385956 -2.56077313 -1.90200746 6 12 9302 20.46400000 3181675750 3181675750 -5.33300000
40.05713654 -1.13289070 0.93247974 12 13 9302 40.08400000 3181675750 3181675750 1.33300000
39.58007050 -5.02118206 0.46447921 25 14 9303 39.90000000 3181675753 3181675753 0.66700000
20.48566246 -0.58295119 -1.43307698 26 15 9303 20.54400000 3181675753 3181675753 -4.00000000
20.45815849 -1.58853734 -1.67513180 32 16 9304 20.58800000 3181675755 3181675755 -4.66700000
39.63508987 0.80255455 1.15373063 22 17 9304 39.66000000 3181675755 3181675755 1.66700000
40.11711502 -3.11501813 0.70235467 25 18 9304 40.24400000 3181675757 3181675757 1.00000000
20.50172806 0.41513100 -1.31419957 31 19 9304 20.54800000 3181675757 3181675757 -3.66700000
20.49580765 -2.60739589 -1.20324516 18 20 9305 20.69600000 3181675760 3181675760 -3.33300000
39.85777283 -3.10887790 1.62877965 25 22 9306 40.01200000 3181675762 3181675762 2.33300000
20.55706978 -0.59575570 -0.95798278 20 23 9306 20.58800000 3181675762 3181675762 -2.66700000
20.52114105 -1.60423791 -1.07874870 33 24 9307 20.61200000 3181675764 3181675764 -3.00000000
87.87347412 -6.88492966 7.19554853 28 26 9308 88.43600000 3181675766 3181675766 4.66700000
20.57499695 0.40224484 -0.83840716 20 27 9308 20.59600000 3181675766 3181675766 -2.33300000
38.22103882 -4.88944769 -1.34558499 14 28 9309 38.55600000 3181675769 3181675769 -2.00000000
40.00754929 -1.18739629 -0.93136311 26 31 9310 40.03600000 3181675771 3181675771 -1.33300000
5.89756727 -0.47139919 -2.75885201 8 0 9317 6.52800000 3181675792 3181675792 -25.00000000
40.17138672 0.72223449 -0.70130748 17 1 9317 40.18400000 3181675792 3181675792 -1.00000000
39.88728333 -3.19524145 -1.16455221 25 2 9318 40.03200000 3181675794 3181675794 -1.66700000
9.00528717 -0.27985603 -2.52214718 2 3 9318 9.35600000 3181675794 3181675794 -15.63900000
11.87388706 -0.95326453 -2.38243294 3 4 9319 12.14800000 3181675796 3181675796 -11.31000000
40.23235703 -1.25732398 0.00000000 19 5 9319 40.25200000 3181675796 3181675796 0.00000000
39.91494751 -5.17696285 -0.46857688 28 6 9319 40.25200000 3181675799 3181675799 -0.66700000
14.09942150 -0.44062895 -2.19461298 2 7 9319 14.27600000 3181675799 3181675799 -8.84300000
16.43782425 -1.32255590 -2.09908295 2 8 9320 16.62400000 3181675801 3181675801 -7.25400000
40.03722382 0.69885236 0.23273227 16 9 9320 40.04400000 3181675801 3181675801 0.33300000
40.18888092 -3.24058032 -0.23433636 15 10 9321 40.32000000 3181675803 3181675803 -0.33300000
17.85574532 -0.56425887 -1.92431974 4 11 9321 17.96800000 3181675803 3181675803 -6.14800000
20.23244286 -2.63491750 -1.90460980 6 12 9322 20.49200000 3181675806 3181675806 -5.33300000
39.96500397 -1.26991522 0.93043256 18 13 9322 39.99600000 3181675806 3181675806 1.33300000
39.66938782 -5.17327642 0.46573645 25 14 9323 40.00800000 3181675808 3181675808 0.66700000
20.48350334 -0.65445596 -1.43307698 24 15 9323 20.54400000 3181675808 3181675808 -4.00000000
20.45248795 -1.65993989 -1.67513180 27 16 9324 20.58800000 3181675810 3181675810 -4.66700000
39.68162537 0.66493422 1.15501058 22 17 9324 39.70400000 3181675810 3181675810 1.66700000
40.07012177 -3.25212216 0.70172638 25 18 9324 40.20800000 3181675813 3181675813 1.00000000
20.50305176 0.34356409 -1.31419957 29 19 9324 20.54800000 3181675813 3181675813 -3.66700000
20.49449921 -2.67995930 -1.20371032 18 20 9325 20.70400000 3181675815 3181675815 -3.33300000
40.03924179 -1.29326022 2.33300257 11 21 9325 40.12800000 3181675815 3181675815 3.33300000
39.63555527 -3.23077941 1.62014973 25 22 9326 39.80000000 3181675817 3181675817 2.33300000
20.55486488 -0.66750962 -0.95798278 21 23 9326 20.58800000 3181675817 3181675817 -2.66700000
20.51939774 -1.67618549 -1.07895803 33 24 9327 20.61600000 3181675819 3181675819 -3.00000000
86.92309570 -7.11583328 7.11971664 28 26 9328 87.50400000 3181675822 3181675822 4.66700000
20.57627487 0.33042225 -0.83840716 22 27 9328 20.59600000 3181675822 3181675822 -2.33300000
38.34246063 -5.04107285 -1.35047090 14 28 9329 38.69600000 3181675824 3181675824 -2.00000000
40.00315857 -1.32704151 -0.93136311 21 31 9330 40.03600000 3181675826 3181675826 -1.33300000
5.89588594 -0.49198267 -2.75885201 8 0 9337 6.52800000 3181675847 3181675847 -25.00000000
40.02970123 0.57992011 -0.69879436 25 1 9337 40.04000000 3181675847 3181675847 -1.00000000
39.83604050 -3.33112288 -1.16338861 25 2 9338 39.99200000 3181675849 3181675849 -1.66700000
9.00810432 -0.31142172 -2.52322531 2 3 9338 9.36000000 3181675849 3181675849 -15.63900000
11.87439632 -0.99503386 -2.38321733 3 4 9339 12.15200000 3181675852 3181675852 -11.31000000
40.23171997 -1.39789236 0.00000000 19 5 9339 40.25600000 3181675852 3181675852 0.00000000
39.76976395 -5.29935455 -0.46708682 28 6 9339 40.12400000 3181675854 3181675854 -0.66700000
14.10569763 -0.49011692 -2.19584298 2 7 9339 14.28400000 3181675854 3181675854 -8.84300000
16.44496918 -1.38092268 -2.10059810 2 8 9340 16.63600000 3181675856 3181675856 -7.25400000
40.03942108 0.55909210 0.23273227 25 9 9340 40.04400000 3181675856 3181675856 0.33300000
40.20920944 -3.38352919 -0.23452234 22 10 9341 40.35200000 3181675859 3181675859 -0.33300000
17.86161613 -0.62686265 -1.92517650 4 11 9341 17.97600000 3181675859 3181675859 -6.14800000
20.23496437 -2.70711017 -1.90572512 6 12 9342 20.50400000 3181675861 3181675861 -5.33300000
40.13217545 -1.41547251 0.93443382 12 13 9342 40.16800000 3181675861 3181675861 1.33300000
39.65505219 -5.31224823 0.46578303 25 14 9343 40.01200000 3181675863 3181675863 0.66700000
20.48508263 -0.72609407 -1.43335605 26 15 9343 20.54800000 3181675863 3181675863 -4.00000000
20.44656944 -1.73132229 -1.67513180 30 16 9344 20.58800000 3181675866 3181675866 -4.66700000
39.62773514 0.52567297 1.15338147 22 17 9344 39.64800000 3181675866 3181675866 1.66700000
40.07844925 -3.39366055 0.70207542 25 18 9344 40.22800000 3181675868 3181675868 1.00000000
20.50013542 0.27194005 -1.31394374 29 19 9344 20.54400000 3181675868 3181675868 -3.66700000
20.49293518 -2.75254536 -1.20417535 18 20 9345 20.71200000 3181675870 3181675870 -3.33300000
40.62909698 -1.45429921 2.36765361 5 21 9345 40.72400000 3181675870 3181675870 3.33300000
39.77934647 -3.38231921 1.62650013 25 22 9346 39.95600000 3181675872 3181675872 2.33300000
20.55640221 -0.73939902 -0.95816892 21 23 9346 20.59200000 3181675872 3181675872 -2.66700000
20.51740265 -1.74814045 -1.07916737 33 24 9347 20.62000000 3181675875 3181675875 -3.00000000
87.10428619 -7.43684387 7.13664055 28 26 9348 87.71200000 3181675877 3181675877 4.66700000
20.58130074 0.25864586 -0.83857000 24 27 9348 20.60000000 3181675877 3181675877 -2.33300000
38.34840012 -5.17809153 -1.35130847 14 28 9349 38.72000000 3181675879 3181675879 -2.00000000
40.06621933 -1.46916163 -0.93294495 21 31 9350 40.10400000 3181675882 3181675882 -1.33300000
5.89422226 -0.51153141 -2.75885201 8 0 9356 6.52800000 3181675902 3181675902 -25.00000000
39.81145096 0.44471666 -0.69495481 25 1 9356 39.82000000 3181675902 3181675902 -1.00000000
39.85265732 -3.46563029 -1.16420317 25 2 9357 40.02000000 3181675905 3181675905 -1.66700000
9.00317287 -0.34114611 -2.52214718 2 3 9357 9.35600000 3181675905 3181675905 -15.63900000
11.87493896 -1.03474581 -2.38400173 4 4 9358 12.15600000 3181675907 3181675907 -11.31000000
40.22286606 -1.53114581 0.00000000 19 5 9358 40.25200000 3181675907 3181675907 0.00000000
39.77178574 -5.43391418 -0.46731964 19 6 9358 40.14400000 3181675909 3181675909 -0.66700000
14.10399532 -0.53689039 -2.19584298 3 7 9358 14.28400000 3181675909 3181675909 -8.84300000
16.44820595 -1.43613887 -2.10160828 2 8 9359 16.64400000 3181675912 3181675912 -7.25400000
40.18904495 0.42788917 0.23359244 25 9 9359 40.19200000 3181675912 3181675912 0.33300000
40.11408997 -3.50952816 -0.23403414 22 10 9360 40.26800000 3181675914 3181675914 -0.33300000
17.86341286 -0.68624312 -1.92560494 4 11 9360 17.98000000 3181675914 3181675914 -6.14800000
20.22982216 -2.77473807 -1.90609694 6 12 9361 20.50800000 3181675916 3181675916 -5.33300000
39.94744492 -1.54160845 0.93024647 18 13 9361 39.98800000 3181675916 3181675916 1.33300000
39.67288208 -5.44861794 0.46620211 17 14 9362 40.04800000 3181675918 3181675918 0.66700000
20.47857475 -0.79386646 -1.43307698 26 15 9362 20.54400000 3181675918 3181675918 -4.00000000
20.44865799 -1.79981518 -1.67578268 23 16 9363 20.59600000 3181675921 3181675921 -4.66700000
40.13702011 0.39931136 1.16815948 15 17 9363 40.15600000 3181675921 3181675921 1.66700000
40.12673569 -3.53180647 0.70312256 17 18 9363 40.28800000 3181675923 3181675923 1.00000000
20.49693298 0.20391794 -1.31368780 29 19 9363 20.54000000 3181675923 3181675923 -3.66700000
20.48764992 -2.82103205 -1.20440793 18 20 9364 20.71600000 3181675925 3181675925 -3.33300000
40.21306229 -1.57294619 2.34370017 5 21 9364 40.31200000 3181675925 3181675925 3.33300000
39.86743927 -3.52300906 1.63057077 25 22 9365 40.05600000 3181675928 3181675928 2.33300000
20.55383682 -0.80756247 -0.95816892 20 23 9365 20.59200000 3181675928 3181675928 -2.66700000
20.51945114 -1.81687367 -1.07958615 30 24 9366 20.62800000 3181675930 3181675930 -3.00000000
87.47229004 -7.76053095 7.16886091 28 26 9367 88.10800000 3181675932 3181675932 4.66700000
20.58604050 0.19043136 -0.83873278 22 27 9367 20.60400000 3181675932 3181675932 -2.33300000
38.32705688 -5.30468321 -1.35116887 14 28 9368 38.71600000 3181675935 3181675935 -2.00000000
40.09708786 -1.60345602 -0.93378246 15 31 9369 40.14000000 3181675937 3181675937 -1.33300000
5.89240074 -0.53210300 -2.75885201 8 0 9376 6.52800000 3181675958 3181675958 -25.00000000
39.83675766 0.30593035 -0.69537365 25 1 9376 39.84400000 3181675958 3181675958 -1.00000000
39.90402985 -3.61048555 -1.16606498 25 2 9377 40.08400000 3181675960 3181675960 -1.66700000
9.00962448 -0.37288955 -2.52430367 2 3 9377 9.36400000 3181675960 3181675960 -15.63900000
11.87906742 -1.07689905 -2.38557076 3 4 9378 12.16400000 3181675962 3181675962 -11.31000000
40.22526932 -1.67187262 0.00000000 19 5 9378 40.26000000 3181675962 3181675962 0.00000000
39.91893768 -5.59603167 -0.46927536 19 6 9378 40.31200000 3181675965 3181675965 -0.66700000
14.11388206 -0.58661169 -2.19768763 2 7 9378 14.29600000 3181675965 3181675965 -8.84300000
16.45890045 -1.49498081 -2.10362864 2 8 9379 16.66000000 3181675967 3181675967 -7.25400000
40.23828888 0.28794408 0.23387140 25 9 9379 40.24000000 3181675967 3181675967 0.33300000
40.15736389 -3.65460634 -0.23435961 15 10 9380 40.32400000 3181675969 3181675969 -0.33300000
17.87282944 -0.74909347 -1.92689013 4 11 9380 17.99200000 3181675969 3181675969 -6.14800000
20.23973274 -2.84811115 -1.90795588 6 12 9381 20.52800000 3181675971 3181675971 -5.33300000
39.91784668 -1.68003273 0.92968816 18 13 9381 39.96400000 3181675971 3181675971 1.33300000
39.74075317 -5.59934568 0.46722651 17 14 9382 40.13600000 3181675974 3181675974 0.66700000
20.48365211 -0.86568218 -1.43363500 26 15 9382 20.55200000 3181675974 3181675974 -4.00000000
20.45813179 -1.87263691 -1.67708457 15 16 9383 20.61200000 3181675976 3181675976 -4.66700000
40.12617493 0.25912711 1.16781044 22 17 9383 40.14400000 3181675976 3181675976 1.66700000
40.01857758 -3.66310406 0.70144713 25 18 9383 40.19200000 3181675978 3181675978 1.00000000
20.49751854 0.13236904 -1.31368780 29 19 9383 20.54000000 3181675978 3181675978 -3.66700000
20.48954010 -2.89420557 -1.20510566 18 20 9384 20.72800000 3181675981 3181675981 -3.33300000
146.54647827 -6.24460888 8.54224968 42 21 9384 146.92800000 3181675981 3181675981 3.33300000
40.03001785 -3.67824173 1.63773537 17 22 9385 40.23200000 3181675983 3181675983 2.33300000
20.54690170 -0.87913299 -0.95798278 21 23 9385 20.58800000 3181675983 3181675983 -2.66700000
20.51696014 -1.88885510 -1.07979548 35 24 9386 20.63200000 3181675985 3181675985 -3.00000000
85.81304169 -7.91531944 7.03509760 28 26 9387 86.46400000 3181675988 3181675988 4.66700000
20.58658028 0.11857150 -0.83873278 24 27 9387 20.60400000 3181675988 3181675988 -2.33300000
38.31226349 -5.43899918 -1.35130847 7 28 9388 38.72000000 3181675990 3181675990 -2.00000000
40.09155273 -1.73641384 -0.93378246 26 31 9388 40.14000000 3181675992 3181675992 -1.33300000
5.89421320 -0.55197799 -2.76054239 6 0 9395 6.53200000 3181676013 3181676013 -25.00000000
40.09751129 0.17495951 -0.69991130 25 1 9395 40.10400000 3181676013 3181676013 -1.00000000
39.93164825 -3.74652719 -1.16722858 25 2 9396 40.12400000 3181676015 3181676015 -1.66700000
9.01603508 -0.40310860 -2.52646041 3 3 9396 9.37200000 3181676015 3181676015 -15.63900000
11.87933540 -1.11665261 -2.38635516 4 4 9397 12.16800000 3181676018 3181676018 -11.31000000
40.22350311 -1.80543458 0.00000000 19 5 9397 40.26400000 3181676018 3181676018 0.00000000
39.91895676 -5.73818636 -0.46950817 29 6 9398 40.33200000 3181676020 3181676020 -0.66700000
14.11964512 -0.63623059 -2.19891739 3 7 9398 14.30400000 3181676020 3181676020 -8.84300000
16.46175194 -1.55029643 -2.10463881 2 8 9398 16.66800000 3181676022 3181676022 -7.25400000
40.23102570 0.15447681 0.23382491 25 9 9398 40.23200000 3181676022 3181676022 0.33300000
40.20077515 -3.79301310 -0.23468508 22 10 9399 40.38000000 3181676024 3181676024 -0.33300000
17.88216591 -0.80889696 -1.92817521 3 11 9399 18.00400000 3181676024 3181676024 -6.14800000
20.25382805 -2.91862106 -1.91018653 6 12 9400 20.55200000 3181676027 3181676027 -5.33300000
40.09981155 -1.82092178 0.93406159 18 13 9400 40.15200000 3181676027 3181676027 1.33300000
39.73780060 -5.73338461 0.46741277 25 14 9401 40.15200000 3181676029 3181676029 0.66700000
20.47668266 -0.93342197 -1.43335605 24 15 9401 20.54800000 3181676029 3181676029 -4.00000000
20.45180893 -1.94046831 -1.67708457 26 16 9402 20.61200000 3181676031 3181676031 -4.66700000
39.94289017 0.12548470 1.16245770 22 17 9402 39.96000000 3181676031 3181676031 1.66700000
40.11702728 -3.81336951 0.70340180 17 18 9403 40.30400000 3181676034 3181676034 1.00000000
20.49386406 0.06080670 -1.31343198 31 19 9403 20.53600000 3181676034 3181676034 -3.66700000
20.48378181 -2.96270704 -1.20533824 18 20 9403 20.73200000 3181676036 3181676036 -3.33300000
40.38491821 -1.85505795 2.35439777 17 21 9403 40.49600000 3181676036 3181676036 3.33300000
39.92211151 -3.80187225 1.63382745 25 22 9404 40.13600000 3181676038 3181676038 2.33300000
20.55185509 -0.94763225 -0.95835501 20 23 9404 20.59600000 3181676038 3181676038 -2.66700000
20.51058388 -1.95688140 -1.07979548 31 24 9405 20.63200000 3181676041 3181676041 -3.00000000
85.64742279 -8.18656540 7.02370691 28 26 9406 86.32400000 3181676043 3181676043 4.66700000
20.58286285 0.05029352 -0.83857000 22 27 9406 20.60000000 3181676043 3181676043 -2.33300000
38.32566452 -5.57061720 -1.35242534 7 28 9407 38.75200000 3181676045 3181676045 -2.00000000
104.18598175 -9.97691441 19.08269501 28 30 9407 106.38800000 3181676048 3181676048 10.33300000
40.08157730 -1.86916649 -0.93368942 42 31 9407 40.13600000 3181676048 3181676048 -1.33300000
5.89575863 -0.57392889 -2.76223302 7 0 9416 6.53600000 3181676068 3181676068 -25.00000000
40.00589752 0.02792939 -0.69830567 17 1 9416 40.01200000 3181676068 3181676068 -1.00000000
39.96142197 -3.89712787 -1.16850853 25 2 9417 40.16800000 3181676071 3181676071 -1.66700000
9.02219200 -0.43652362 -2.52861691 3 3 9417 9.38000000 3181676071 3181676071 -15.63900000
11.87906742 -1.16056645 -2.38713956 3 4 9418 12.17200000 3181676073 3181676073 -11.31000000
40.22061157 -1.95304298 0.00000000 19 5 9418 40.26800000 3181676073 3181676073 0.00000000
39.88578415 -5.88270712 -0.46936849 29 6 9419 40.32000000 3181676075 3181676075 -0.66700000
14.11327076 -0.68778503 -2.19830251 2 7 9419 14.30000000 3181676075 3181676075 -8.84300000
16.46780777 -1.61178088 -2.10615396 2 8 9419 16.68000000 3181676077 3181676077 -7.25400000
40.23131943 0.00702169 0.23382491 25 9 9419 40.23200000 3181676077 3181676077 0.33300000
40.15475845 -3.93720841 -0.23449910 22 10 9420 40.34800000 3181676080 3181676080 -0.33300000
17.89496994 -0.87521005 -1.92988884 4 11 9420 18.02000000 3181676080 3181676080 -6.14800000
20.25875473 -2.99516559 -1.91167355 6 12 9421 20.56800000 3181676082 3181676082 -5.33300000
40.12881470 -1.96964705 0.93489909 12 13 9421 40.18800000 3181676082 3181676082 1.33300000
39.71256638 -5.87840652 0.46736622 25 14 9422 40.14800000 3181676084 3181676084 0.66700000
20.47710991 -1.00866282 -1.43363500 24 15 9422 20.55200000 3181676084 3181676084 -4.00000000
20.44059181 -2.01502371 -1.67675900 26 16 9423 20.60800000 3181676087 3181676087 -4.66700000
40.08302307 -0.02098742 1.16653037 22 17 9423 40.10000000 3181676087 3181676087 1.66700000
40.08357239 -3.95141912 0.70305276 17 18 9423 40.28400000 3181676089 3181676089 1.00000000
20.48995972 -0.01072852 -1.31317616 33 19 9423 20.53200000 3181676089 3181676089 -3.66700000
20.48463631 -3.03952217 -1.20603585 18 20 9424 20.74400000 3181676091 3181676091 -3.33300000
39.82438660 -3.93990541 1.63040805 25 22 9425 40.05200000 3181676094 3181676094 2.33300000
20.54824448 -1.02295220 -0.95835501 20 23 9425 20.59600000 3181676094 3181676094 -2.66700000
20.51122475 -2.03283119 -1.08021414 35 24 9426 20.64000000 3181676096 3181676096 -3.00000000
86.18415070 -8.55674934 7.07024717 28 26 9427 86.89600000 3181676098 3181676098 4.66700000
20.57891273 -0.02514190 -0.83840716 22 27 9427 20.59600000 3181676098 3181676098 -2.33300000
38.32871628 -5.71458721 -1.35326290 14 28 9428 38.77600000 3181676101 3181676101 -2.00000000
95.84328461 -9.53264427 17.56092834 28 30 9428 97.90400000 3181676103 3181676103 10.33300000
40.05848312 -2.01525640 -0.93331718 42 31 9428 40.12000000 3181676103 3181676103 -1.33300000
5.89011240 -0.59414160 -2.76054239 8 0 9436 6.53200000 3181676124 3181676124 -25.00000000
40.24571228 -0.11238752 -0.70249426 25 1 9436 40.25200000 3181676124 3181676124 -1.00000000
39.95553207 -4.03739929 -1.16874135 17 2 9437 40.17600000 3181676126 3181676126 -1.66700000
9.02061272 -0.46801427 -2.52861691 3 3 9437 9.38000000 3181676126 3181676126 -15.63900000
11.88274860 -1.20281506 -2.38870859 3 4 9438 12.18000000 3181676129 3181676129 -11.31000000
40.21754074 -2.09363508 0.00000000 19 5 9438 40.27200000 3181676129 3181676129 0.00000000
39.77509308 -6.00121641 -0.46829748 28 6 9438 40.22800000 3181676131 3181676131 -0.66700000
14.11880684 -0.73499346 -2.19953227 2 7 9438 14.30800000 3181676131 3181676131 -8.84300000
16.46602821 -1.66965473 -2.10665894 2 8 9439 16.68400000 3181676133 3181676133 -7.25400000
40.21110153 -0.13334554 0.23370868 25 9 9439 40.21200000 3181676133 3181676133 0.33300000
40.18852234 -4.08220100 -0.23477806 22 10 9440 40.39600000 3181676136 3181676136 -0.33300000
17.90372086 -0.93829423 -1.93117392 4 11 9440 18.03200000 3181676136 3181676136 -6.14800000
20.25998878 -3.06765223 -1.91278887 6 12 9441 20.58000000 3181676138 3181676138 -5.33300000
39.91004562 -2.09858155 0.92996728 12 13 9441 39.97600000 3181676138 3181676138 1.33300000
39.54153061 -5.99421310 0.46559677 25 14 9442 39.99600000 3181676140 3181676140 0.66700000
20.47744751 -1.08034527 -1.43391407 22 15 9442 20.55600000 3181676140 3181676140 -4.00000000
20.45326424 -2.08838725 -1.67838633 23 16 9443 20.62800000 3181676142 3181676142 -4.66700000
39.73885345 -0.15952285 1.15652323 22 17 9443 39.75600000 3181676142 3181676142 1.66700000
39.98598099 -4.08278179 0.70158672 25 18 9443 40.20000000 3181676145 3181676145 1.00000000
20.48979759 -0.08225176 -1.31317616 31 19 9443 20.53200000 3181676145 3181676145 -3.66700000
20.48574448 -3.11280799 -1.20673347 18 20 9444 20.75600000 3181676147 3181676147 -3.33300000
39.83821869 -4.08174610 1.63154781 25 22 9445 40.08000000 3181676149 3181676149 2.33300000
20.54853821 -1.09488535 -0.95854115 20 23 9445 20.60000000 3181676149 3181676149 -2.66700000
20.50797653 -2.10482407 -1.08042347 35 24 9446 20.64400000 3181676152 3181676152 -3.00000000
86.51068878 -8.89423180 7.09953833 28 26 9447 87.25600000 3181676154 3181676154 4.66700000
20.57869911 -0.09697556 -0.83840716 20 27 9447 20.59600000 3181676154 3181676154 -2.33300000
38.31643677 -5.84955120 -1.35354209 21 28 9448 38.78400000 3181676156 3181676156 -2.00000000
94.96391296 -9.78006458 17.40595436 28 30 9448 97.04000000 3181676159 3181676159 10.33300000
40.05519867 -2.15528941 -0.93341023 26 31 9448 40.12400000 3181676159 3181676159 -1.33300000
5.88800287 -0.61469829 -2.76054239 7 0 9456 6.53200000 3181676179 3181676179 -25.00000000
40.14908981 -0.25226751 -0.70081884 25 1 9456 40.15600000 3181676179 3181676179 -1.00000000
39.92131042 -4.17476654 -1.16815948 25 2 9457 40.15600000 3181676182 3181676182 -1.66700000
9.02277088 -0.49971223 -2.52969527 3 3 9457 9.38400000 3181676182 3181676182 -15.63900000
11.88627911 -1.24510348 -2.39027762 3 4 9458 12.18800000 3181676184 3181676184 -11.31000000
40.20599365 -2.23378587 0.00000000 19 5 9458 40.26800000 3181676184 3181676184 0.00000000
39.88434601 -6.16016817 -0.46983412 19 6 9458 40.36000000 3181676186 3181676186 -0.66700000
14.12799454 -0.78493059 -2.20137715 3 7 9458 14.32000000 3181676186 3181676186 -8.84300000
16.47983170 -1.72919214 -2.10918450 2 8 9459 16.70400000 3181676189 3181676189 -7.25400000
40.18638992 -0.27354431 0.23356919 25 9 9459 40.18800000 3181676189 3181676189 0.33300000
40.03877640 -4.20824480 -0.23398764 22 10 9460 40.26000000 3181676191 3181676191 -0.33300000
17.90827751 -1.00122809 -1.93203080 4 11 9460 18.04000000 3181676191 3181676191 -6.14800000
20.28064346 -3.14323401 -1.91576314 6 12 9461 20.61200000 3181676193 3181676193 -5.33300000
40.06218338 -2.24683785 0.93368942 18 13 9461 40.13600000 3181676193 3181676193 1.33300000
39.58755875 -6.14262819 0.46638834 17 14 9462 40.06400000 3181676195 3181676195 0.66700000
20.47753525 -1.15204251 -1.43419313 26 15 9462 20.56000000 3181676195 3181676195 -4.00000000
20.44981575 -2.16018844 -1.67871177 28 16 9463 20.63200000 3181676198 3181676198 -4.66700000
39.89398575 -0.29940662 1.16106141 22 17 9463 39.91200000 3181676198 3181676198 1.66700000
39.96751022 -4.22191381 0.70151693 17 18 9463 40.19600000 3181676200 3181676200 1.00000000
20.48938560 -0.15377401 -1.31317616 31 19 9463 20.53200000 3181676200 3181676200 -3.66700000
20.47870064 -3.18491149 -1.20696604 18 20 9464 20.76000000 3181676202 3181676202 -3.33300000
40.13562775 -2.27203870 2.34114218 16 21 9464 40.26800000 3181676202 3181676202 3.33300000
39.88334656 -4.22710133 1.63399029 25 22 9465 40.14000000 3181676205 3181676205 2.33300000
20.54060173 -1.16637993 -0.95835501 20 23 9465 20.59600000 3181676205 3181676205 -2.66700000
20.50844955 -2.17724085 -1.08084214 31 24 9466 20.65200000 3181676207 3181676207 -3.00000000
86.28485870 -9.17549896 7.08359098 28 26 9467 87.06000000 3181676209 3181676209 4.66700000
20.57423973 -0.16877525 -0.83824432 20 27 9467 20.59200000 3181676209 3181676209 -2.33300000
38.61570740 -6.03324890 -1.36484957 14 28 9468 39.10800000 3181676212 3181676212 -2.00000000
95.36744690 -10.15817165 17.48631096 28 30 9468 97.48800000 3181676214 3181676214 10.33300000
40.06340027 -2.29601002 -0.93378246 31 31 9468 40.14000000 3181676214 3181676214 -1.33300000
5.89302969 -0.63602555 -2.76392341 7 0 9476 6.54000000 3181676235 3181676235 -25.00000000
40.27593994 -0.39366329 -0.70305276 25 1 9476 40.28400000 3181676235 3181676235 -1.00000000
39.87071991 -4.31022453 -1.16711223 25 2 9477 40.12000000 3181676237 3181676237 -1.66700000
9.01712608 -0.53097814 -2.52861691 2 3 9477 9.38000000 3181676237 3181676237 -15.63900000
11.87796116 -1.28616452 -2.38949299 3 4 9478 12.18400000 3181676239 3181676239 -11.31000000
40.20993042 -2.37482500 0.00000000 19 5 9478 40.28000000 3181676239 3181676239 0.00000000
39.89025497 -6.30372334 -0.47016007 19 6 9478 40.38800000 3181676242 3181676242 -0.66700000
14.13305950 -0.83470780 -2.20260692 3 7 9478 14.32800000 3181676242 3181676242 -8.84300000
16.48947525 -1.78841829 -2.11120462 2 8 9479 16.72000000 3181676244 3181676244 -7.25400000
40.22118759 -0.41419002 0.23377842 25 9 9479 40.22400000 3181676244 3181676244 0.33300000
40.03577042 -4.34927654 -0.23405738 22 10 9480 40.27200000 3181676246 3181676246 -0.33300000
17.92055321 -1.06467700 -1.93374431 4 11 9480 18.05600000 3181676246 3181676246 -6.14800000
20.27348137 -3.21463108 -1.91613495 6 12 9481 20.61600000 3181676248 3181676248 -5.33300000
39.99022675 -2.38286161 0.93220055 18 13 9481 40.07200000 3181676248 3181676248 1.33300000
39.55402374 -6.27889585 0.46624866 17 14 9482 40.05200000 3181676251 3181676251 0.66700000
20.48135567 -1.22399151 -1.43475115 26 15 9482 20.56800000 3181676251 3181676251 -4.00000000
20.45007706 -2.23242378 -1.67936277 34 16 9483 20.64000000 3181676253 3181676253 -4.66700000
39.99264908 -0.43975985 1.16397047 15 17 9483 40.01200000 3181676253 3181676253 1.66700000
39.97562027 -4.37098169 0.70193577 25 18 9484 40.22000000 3181676255 3181676255 1.00000000
20.48469353 -0.22882573 -1.31292033 31 19 9484 20.52800000 3181676255 3181676255 -3.66700000
20.49111938 -3.26014066 -1.20836139 19 20 9484 20.78400000 3181676258 3181676258 -3.33300000
40.11549377 -2.41140556 2.34044433 16 21 9484 40.25600000 3181676258 3181676258 3.33300000
39.78491592 -4.35715675 1.63057077 25 22 9485 40.05600000 3181676260 3181676260 2.33300000
20.54438210 -1.23855376 -0.95872730 20 23 9485 20.60400000 3181676260 3181676260 -2.66700000
20.50866699 -2.24968672 -1.08126080 28 24 9486 20.66000000 3181676262 3181676262 -3.00000000
85.88771820 -9.43657589 7.05364895 28 26 9487 86.69200000 3181676265 3181676265 4.66700000
20.57752037 -0.24063845 -0.83840716 22 27 9487 20.59600000 3181676265 3181676265 -2.33300000
38.61019897 -6.17052984 -1.36540794 14 28 9488 39.12400000 3181676267 3181676267 -2.00000000
94.09537506 -10.35498142 17.25959015 28 30 9488 96.22400000 3181676269 3181676269 10.33300000
40.09904861 -2.43851352 -0.93480605 15 31 9488 40.18400000 3181676269 3181676269 -1.33300000
5.89088821 -0.65556401 -2.76392341 7 0 9495 6.54000000 3181676290 3181676290 -25.00000000
40.21043015 -0.52638334 -0.70193577 17 1 9495 40.22000000 3181676290 3181676290 -1.00000000
39.84428406 -4.44108820 -1.16676319 25 2 9496 40.10800000 3181676292 3181676292 -1.66700000
9.01916027 -0.56111622 -2.52969527 3 3 9496 9.38400000 3181676292 3181676292 -15.63900000
11.87752914 -1.32598138 -2.39027762 4 4 9497 12.18800000 3181676294 3181676294 -11.31000000
40.20981979 -2.50865102 0.00000000 19 5 9497 40.28800000 3181676294 3181676294 0.00000000
39.85221481 -6.44037533 -0.46997380 19 6 9498 40.37200000 3181676297 3181676297 -0.66700000
14.13400459 -0.88428307 -2.20322180 3 7 9498 14.33200000 3181676297 3181676297 -8.84300000
16.49528313 -1.84441233 -2.11272001 2 8 9498 16.73200000 3181676299 3181676299 -7.25400000
40.22359467 -0.54762048 0.23380166 25 9 9498 40.22800000 3181676299 3181676299 0.33300000
40.09665680 -4.49047422 -0.23449910 15 10 9499 40.34800000 3181676301 3181676301 -0.33300000
17.92883110 -1.12484491 -1.93502951 4 11 9499 18.06800000 3181676301 3181676301 -6.14800000
20.27843475 -3.28438973 -1.91762197 6 12 9500 20.63200000 3181676304 3181676304 -5.33300000
39.52712631 -2.48683596 0.92159253 12 13 9500 39.61600000 3181676304 3181676304 1.33300000
39.58431244 -6.41834974 0.46685401 25 14 9501 40.10400000 3181676306 3181676306 0.66700000
20.47320175 -1.29165220 -1.43447208 26 15 9501 20.56400000 3181676306 3181676306 -4.00000000
20.44256020 -2.30022645 -1.67936277 34 16 9502 20.64000000 3181676308 3181676308 -4.66700000
39.86703491 -0.57060403 1.16036320 22 17 9502 39.88800000 3181676308 3181676308 1.66700000
39.75502777 -4.47329283 0.69830567 25 18 9502 40.01200000 3181676311 3181676311 1.00000000
20.48786545 -0.29323620 -1.31317616 31 19 9502 20.53200000 3181676311 3181676311 -3.66700000
20.48807907 -3.32935476 -1.20882654 19 20 9503 20.79200000 3181676313 3181676313 -3.33300000
40.10329437 -2.54416728 2.34021187 5 21 9503 40.25200000 3181676313 3181676313 3.33300000
39.73847580 -4.48547840 1.62926817 17 22 9504 40.02400000 3181676315 3181676315 2.33300000
20.53617477 -1.30642092 -0.95854115 20 23 9504 20.60000000 3181676315 3181676315 -2.66700000
20.51300049 -2.31902957 -1.08188891 31 24 9505 20.67200000 3181676318 3181676318 -3.00000000
89.34992981 -10.11695576 7.34070253 28 26 9506 90.22000000 3181676320 3181676320 4.66700000
20.57261467 -0.30881467 -0.83824432 22 27 9506 20.59200000 3181676320 3181676320 -2.33300000
38.62503433 -6.30432749 -1.36666429 14 28 9507 39.16000000 3181676322 3181676322 -2.00000000
94.19158936 -10.69847202 17.28398323 28 30 9508 96.36000000 3181676324 3181676324 10.33300000
40.10625458 -2.57949710 -0.93517822 21 31 9508 40.20000000 3181676324 3181676324 -1.33300000
5.89564896 -0.67797911 -2.76730442 8 0 9516 6.54800000 3181676345 3181676345 -25.00000000
40.14025116 -0.67261928 -0.70074904 25 1 9516 40.15200000 3181676345 3181676345 -1.00000000
39.77213287 -4.58069038 -1.16513407 25 2 9517 40.05200000 3181676347 3181676347 -1.66700000
9.01704311 -0.59416932 -2.52969527 2 3 9517 9.38400000 3181676347 3181676347 -15.63900000
11.88427830 -1.37085414 -2.39263105 4 4 9518 12.20000000 3181676350 3181676350 -11.31000000
40.20035553 -2.65601039 0.00000000 13 5 9518 40.28800000 3181676350 3181676350 0.00000000
39.84807205 -6.58966064 -0.47020662 19 6 9519 40.39200000 3181676352 3181676352 -0.66700000
14.13461208 -0.93634212 -2.20383668 3 7 9519 14.33600000 3181676352 3181676352 -8.84300000
16.49235535 -1.90531361 -2.11322498 2 8 9519 16.73600000 3181676354 3181676354 -7.25400000
40.21731567 -0.69497448 0.23377842 25 9 9519 40.22400000 3181676354 3181676354 0.33300000
40.07595444 -4.63694620 -0.23447585 22 10 9520 40.34400000 3181676357 3181676357 -0.33300000
17.94046211 -1.19160414 -1.93674302 4 11 9520 18.08400000 3181676357 3181676357 -6.14800000
20.28590584 -3.36194777 -1.91948092 6 12 9521 20.65200000 3181676359 3181676359 -5.33300000
40.11227036 -2.67128587 0.93545741 18 13 9521 40.21200000 3181676359 3181676359 1.33300000
39.58419418 -6.56731796 0.46713337 17 14 9522 40.12800000 3181676361 3181676361 0.66700000
20.47629356 -1.36721325 -1.43503022 26 15 9522 20.57200000 3181676361 3181676361 -4.00000000
20.44191360 -2.37605739 -1.68001366 31 16 9523 20.64800000 3181676364 3181676364 -4.66700000
39.80471039 -0.71564204 1.15861773 22 17 9523 39.82800000 3181676364 3181676364 1.66700000
