# .PCD v0.7 - Point Cloud Data file format
VERSION 0.7
FIELDS x y z intensity laser_id azimuth distance_m adjustedtime timestamp vertical_angle
SIZE 4 4 4 1 1 2 8 8 4 8
TYPE F F F U U U F U U F
COUNT 1 1 1 1 1 1 1 1 1 1
WIDTH 508
HEIGHT 1
VIEWPOINT 0 0 0 1 0 0 0
POINTS 508
DATA ascii
19.86345673 -31.96169472 -1.75292051 12 23 14954 37.67200000 3185491352 3185491352 -2.66700000
19.76869774 -35.59039307 -2.13363218 19 24 14955 40.76800000 3185491355 3185491355 -3.00000000
64.55001831 -116.25982666 10.85564804 28 26 14956 133.42000000 3185491357 3185491357 4.66700000
38.39776993 -55.57768250 -2.75213790 57 27 14956 67.60800000 3185491357 3185491357 -2.33300000
38.28292847 -61.69594193 -1.68955529 22 31 14958 72.62800000 3185491361 3185491361 -1.33300000
3.12624788 -5.64919806 -3.01073241 14 0 14964 7.12400000 3185491382 3185491382 -25.00000000
38.16911697 -55.41201019 -1.17447710 28 1 14964 67.29600000 3185491382 3185491382 -1.00000000
38.80794525 -70.15570068 -2.33329344 28 2 14965 80.20800000 3185491384 3185491384 -1.66700000
5.64298010 -9.11895370 -3.00199127 6 3 14965 11.13600000 3185491384 3185491384 -15.63900000
7.33002138 -13.25642872 -3.02961993 1 4 14966 15.44800000 3185491387 3185491387 -11.31000000
38.01770020 -61.45989227 0.00000000 51 5 14966 72.26800000 3185491387 3185491387 0.00000000
37.62073898 -76.69181061 -0.99447447 29 6 14967 85.42800000 3185491389 3185491389 -0.66700000
9.71566868 -15.71260071 -2.87408853 3 7 14967 18.69600000 3185491389 3185491389 -8.84300000
11.31147003 -20.46535873 -2.97639465 5 8 14967 23.57200000 3185491391 3185491391 -7.25400000
38.62366486 -56.13479614 0.39602381 56 9 14967 68.14000000 3185491391 3185491391 0.33300000
36.65921783 -66.35330200 -0.44058955 28 10 14968 75.80800000 3185491394 3185491394 -0.33300000
13.62481785 -22.04324532 -2.79137754 3 11 14968 26.06400000 3185491394 3185491394 -6.14800000
14.41823196 -29.41827774 -3.05823159 4 12 14969 32.90400000 3185491396 3185491396 -5.33300000
39.18593597 -63.42267609 1.73477888 25 13 14969 74.57200000 3185491396 3185491396 1.33300000
37.77061844 -77.09942627 0.99950337 28 14 14970 85.86000000 3185491398 3185491398 0.66700000
19.74525070 -31.97028542 -2.62758684 10 15 14970 37.66800000 3185491398 3185491398 -4.00000000
17.05185890 -30.90213585 -2.88127875 6 16 14971 35.41200000 3185491401 3185491401 -4.66700000
43.14678192 -62.80243683 2.21751332 28 17 14971 76.22800000 3185491401 3185491401 1.66700000
37.87738800 -68.64308167 1.36847806 28 18 14971 78.41200000 3185491403 3185491403 1.00000000
19.91197014 -28.98293304 -2.25360775 19 19 14971 35.23600000 3185491403 3185491403 -3.66700000
19.74969292 -40.34978104 -2.61625600 10 20 14972 45.00000000 3185491405 3185491405 -3.33300000
39.97578049 -64.77687073 4.43298388 37 21 14972 76.24800000 3185491405 3185491405 3.33300000
40.53710175 -73.52379608 3.42055130 28 22 14973 84.02800000 3185491408 3185491408 2.33300000
19.86015320 -32.19401932 -1.76204062 12 23 14973 37.86800000 3185491408 3185491408 -2.66700000
19.77781677 -35.88664627 -2.14744902 19 24 14974 41.03200000 3185491410 3185491410 -3.00000000
63.93713760 -116.06119537 10.81724358 28 26 14975 132.94800000 3185491412 3185491412 4.66700000
38.51168823 -56.13974762 -2.77363133 57 27 14975 68.13600000 3185491412 3185491412 -2.33300000
38.16653061 -61.94187546 -1.69299829 44 31 14976 72.77600000 3185491417 3185491417 -1.33300000
3.09505939 -5.64154863 -3.00058961 16 0 14985 7.10000000 3185491437 3185491437 -25.00000000
38.27492523 -56.00389862 -1.18404102 28 1 14985 67.84400000 3185491437 3185491437 -1.00000000
38.63898849 -70.45873260 -2.33864617 28 2 14986 80.39200000 3185491440 3185491440 -1.66700000
7.29081202 -13.30040264 -3.03354216 1 4 14987 15.46800000 3185491442 3185491442 -11.31000000
37.87794876 -61.73860931 0.00000000 51 5 14987 72.43200000 3185491442 3185491442 0.00000000
37.33531570 -76.78669739 -0.99400884 29 6 14987 85.38800000 3185491444 3185491444 -0.66700000
9.67316341 -15.76663208 -2.87777781 3 7 14987 18.72000000 3185491444 3185491444 -8.84300000
11.24401188 -20.52059937 -2.97841477 5 8 14988 23.58800000 3185491447 3185491447 -7.25400000
38.66348267 -56.63606644 0.39855778 56 9 14988 68.57600000 3185491447 3185491447 0.33300000
36.60215759 -66.82751465 -0.44284457 28 10 14989 76.19600000 3185491449 3185491449 -0.33300000
13.60421181 -22.19136047 -2.80380082 3 11 14989 26.18000000 3185491449 3185491449 -6.14800000
14.32596874 -29.50316811 -3.06157756 4 12 14990 32.94000000 3185491451 3185491451 -5.33300000
38.86128235 -63.41585159 1.73068452 25 13 14990 74.39600000 3185491451 3185491451 1.33300000
37.55065155 -77.36688232 1.00117970 28 14 14991 86.00400000 3185491454 3185491454 0.66700000
19.73423958 -32.21597290 -2.64181709 10 15 14991 37.87200000 3185491454 3185491454 -4.00000000
17.00162125 -31.07984924 -2.89201880 6 16 14992 35.54400000 3185491456 3185491456 -4.66700000
42.84199142 -62.85113144 2.21367335 28 17 14992 76.09600000 3185491456 3185491456 1.66700000
37.51997757 -68.58847046 1.36463857 28 18 14992 78.19200000 3185491458 3185491458 1.00000000
19.90678406 -29.20414734 -2.26512027 19 19 14992 35.41600000 3185491458 3185491458 -3.66700000
19.71143913 -40.64825821 -2.63090706 10 20 14993 45.25200000 3185491461 3185491461 -3.33300000
39.72558594 -64.90251923 4.43158865 75 21 14993 76.22400000 3185491461 3185491461 3.33300000
40.36702728 -73.85424042 3.42901850 28 22 14994 84.23600000 3185491463 3185491463 2.33300000
19.85463142 -32.45064545 -1.77209127 12 23 14994 38.08400000 3185491463 3185491463 -2.66700000
19.76298141 -36.17272568 -2.16021895 30 24 14995 41.27600000 3185491465 3185491465 -3.00000000
63.39093781 -116.07431793 10.79674053 28 26 14996 132.69600000 3185491467 3185491467 4.66700000
38.54853821 -56.63735580 -2.79121685 57 27 14996 68.56800000 3185491467 3185491467 -2.33300000
38.22443390 -62.57254791 -1.70621181 22 31 14998 73.34400000 3185491472 3185491472 -1.33300000
3.04242873 -5.59181404 -2.96847057 16 0 15005 7.02400000 3185491493 3185491493 -25.00000000
38.27452469 -56.42510986 -1.19011450 28 1 15005 68.19200000 3185491493 3185491493 -1.00000000
38.81306839 -71.36592102 -2.36424589 28 2 15006 81.27200000 3185491495 3185491495 -1.66700000
3.58415747 -5.88564301 -1.92908132 219 3 15006 7.15600000 3185491495 3185491495 -15.63900000
7.28930140 -13.40847588 -3.05236959 1 4 15007 15.56400000 3185491497 3185491497 -11.31000000
37.73292542 -61.98662186 0.00000000 51 5 15007 72.56800000 3185491497 3185491497 0.00000000
37.14519119 -77.07869720 -0.99610418 29 6 15007 85.56800000 3185491500 3185491500 -0.66700000
9.62628937 -15.81380653 -2.88023758 3 7 15007 18.73600000 3185491500 3185491500 -8.84300000
11.17989159 -20.57366943 -2.98043513 2 8 15008 23.60400000 3185491502 3185491502 -7.25400000
38.61363220 -56.98923492 0.40009212 56 9 15008 68.84000000 3185491502 3185491502 0.33300000
36.37438965 -66.96541595 -0.44291431 28 10 15009 76.20800000 3185491504 3185491504 -0.33300000
13.55146694 -22.27948761 -2.80894136 3 11 15009 26.22800000 3185491504 3185491504 -6.14800000
14.29370880 -29.70013237 -3.07682037 4 12 15010 33.10400000 3185491507 3185491507 -5.33300000
38.85574722 -63.90647507 1.74036205 51 13 15010 74.81200000 3185491507 3185491507 1.33300000
38.96397018 -80.99732208 1.04639363 28 14 15011 89.88800000 3185491509 3185491509 0.66700000
19.73357582 -32.46879578 -2.65688467 10 15 15011 38.08800000 3185491509 3185491509 -4.00000000
16.93105125 -31.20909119 -2.89852810 6 16 15012 35.62400000 3185491511 3185491511 -4.66700000
42.51255798 -62.83802414 2.20797157 28 17 15012 75.90000000 3185491511 3185491511 1.66700000
37.27460861 -68.70847321 1.36442912 28 18 15012 78.18000000 3185491514 3185491514 1.00000000
19.89866829 -29.41231918 -2.27586508 20 19 15012 35.58400000 3185491514 3185491514 -3.66700000
19.73030281 -41.05153656 -2.65253472 10 20 15013 45.62400000 3185491516 3185491516 -3.33300000
39.49671936 -65.03737640 4.43135595 37 21 15013 76.22000000 3185491516 3185491516 3.33300000
40.00422668 -73.80144501 3.42006278 28 22 15014 84.01600000 3185491518 3185491518 2.33300000
19.84283638 -32.68711472 -1.78121138 12 23 15014 38.28000000 3185491518 3185491518 -2.66700000
19.75457764 -36.45924377 -2.17319822 20 24 15015 41.52400000 3185491520 3185491520 -3.00000000
63.33472443 -116.93991852 10.85662460 28 26 15016 133.43200000 3185491523 3185491523 4.66700000
38.47364807 -56.95372009 -2.80017233 28 27 15016 68.78800000 3185491523 3185491523 -2.33300000
38.66786957 -80.59774017 -3.12169027 28 28 15017 89.44800000 3185491525 3185491525 -2.00000000
38.23378372 -63.08177567 -1.71644759 23 31 15018 73.78400000 3185491527 3185491527 -1.33300000
2.97641158 -5.51625824 -2.92282796 15 0 15025 6.91600000 3185491548 3185491548 -25.00000000
38.21357727 -56.76074219 -1.19437289 28 1 15025 68.43600000 3185491548 3185491548 -1.00000000
38.71935272 -71.78952789 -2.37378764 28 2 15026 81.60000000 3185491550 3185491550 -1.66700000
3.56558299 -5.90141535 -1.93015957 218 3 15026 7.16000000 3185491550 3185491550 -15.63900000
7.24617529 -13.44074345 -3.05393839 3 4 15027 15.57200000 3185491553 3185491553 -11.31000000
37.51218414 -62.11110687 0.00000000 25 5 15027 72.56000000 3185491553 3185491553 0.00000000
36.88969803 -77.23676300 -0.99647671 29 6 15027 85.60000000 3185491555 3185491555 -0.66700000
9.58737755 -15.87437820 -2.88515687 3 7 15027 18.76800000 3185491555 3185491555 -8.84300000
11.11930180 -20.63352776 -2.98346567 5 8 15028 23.62800000 3185491557 3185491557 -7.25400000
38.71133804 -57.56513214 0.40318409 56 9 15028 69.37200000 3185491557 3185491557 0.33300000
36.71328735 -68.15547943 -0.44993511 28 10 15029 77.41600000 3185491560 3185491560 -0.33300000
13.48388863 -22.34367943 -2.81108332 3 11 15029 26.24800000 3185491560 3185491560 -6.14800000
14.20538044 -29.78219795 -3.08016634 4 12 15030 33.14000000 3185491562 3185491562 -5.33300000
38.72332001 -64.19238281 1.74445641 51 13 15030 74.98800000 3185491562 3185491562 1.33300000
38.75329590 -81.28447723 1.04834938 28 14 15031 90.05600000 3185491564 3185491564 0.66700000
19.72726440 -32.71516800 -2.67139387 10 15 15031 38.29600000 3185491564 3185491564 -4.00000000
16.87489510 -31.36630630 -2.90764070 6 16 15032 35.73600000 3185491567 3185491567 -4.66700000
42.13916016 -62.75699615 2.19994259 56 17 15032 75.62400000 3185491567 3185491567 1.66700000
37.15202332 -69.05653381 1.36875737 28 18 15032 78.42800000 3185491569 3185491569 1.00000000
19.88711357 -29.61747360 -2.28635406 20 19 15032 35.74800000 3185491569 3185491569 -3.66700000
19.69163895 -41.34006882 -2.66672063 10 20 15033 45.86800000 3185491571 3185491571 -3.33300000
40.52863312 -67.26468658 4.57344818 40 21 15033 78.66400000 3185491571 3185491571 3.33300000
40.02832413 -74.46516418 3.44432449 28 22 15034 84.61200000 3185491573 3185491573 2.33300000
19.83787537 -32.93759155 -1.79107606 12 23 15034 38.49200000 3185491573 3185491573 -2.66700000
19.75008583 -36.75669479 -2.18680549 20 24 15035 41.78400000 3185491576 3185491576 -3.00000000
63.45999146 -118.15424347 10.94872856 28 26 15036 134.56400000 3185491578 3185491578 4.66700000
38.47491837 -57.38644028 -2.81482697 28 27 15036 69.14800000 3185491578 3185491578 -2.33300000
38.66609573 -81.32069397 -3.14444470 28 28 15037 90.10000000 3185491580 3185491580 -2.00000000
38.12051392 -63.39305496 -1.72128630 23 31 15038 73.99200000 3185491583 3185491583 -1.33300000
2.97863317 -5.56445169 -2.94311357 14 0 15044 6.96400000 3185491603 3185491603 -25.00000000
38.33629608 -57.35264969 -1.20414627 28 1 15044 68.99600000 3185491603 3185491603 -1.00000000
3.54005051 -5.90329647 -1.92692471 110 3 15045 7.14800000 3185491606 3185491606 -15.63900000
7.20341396 -13.46815777 -3.05472302 3 4 15046 15.57600000 3185491608 3185491608 -11.31000000
37.67413330 -62.84927750 0.00000000 51 5 15046 73.27600000 3185491608 3185491608 0.00000000
36.72581100 -77.55387115 -0.99899119 29 6 15046 85.81600000 3185491610 3185491610 -0.66700000
9.55094051 -15.93320465 -2.89007616 2 7 15046 18.80000000 3185491610 3185491610 -8.84300000
11.06204224 -20.69128227 -2.98649597 5 8 15047 23.65200000 3185491613 3185491613 -7.25400000
38.73567581 -58.01586533 0.40543911 56 9 15047 69.76000000 3185491613 3185491613 0.33300000
37.04510880 -69.32107544 -0.45681641 28 10 15048 78.60000000 3185491615 3185491615 -0.33300000
13.46898365 -22.48721313 -2.82350659 3 11 15048 26.36400000 3185491615 3185491615 -6.14800000
14.10824299 -29.83274269 -3.08053827 4 12 15049 33.14400000 3185491617 3185491617 -5.33300000
38.39520264 -64.12830353 1.73924541 51 13 15049 74.76400000 3185491617 3185491617 1.33300000
38.58096313 -81.61865997 1.05100358 28 14 15050 90.28400000 3185491619 3185491619 0.66700000
19.72317696 -32.95502472 -2.68562412 10 15 15050 38.50000000 3185491619 3185491619 -4.00000000
16.81208611 -31.49947166 -2.91480088 6 16 15051 35.82400000 3185491622 3185491622 -4.66700000
41.95077896 -62.92633057 2.20098972 56 17 15051 75.66000000 3185491622 3185491622 1.66700000
37.76270294 -70.75297546 1.39989245 28 18 15051 80.21200000 3185491624 3185491624 1.00000000
19.88178825 -29.82275772 -2.29709888 13 19 15051 35.91600000 3185491624 3185491624 -3.66700000
19.71644402 -41.74816895 -2.68881345 10 20 15052 46.24800000 3185491626 3185491626 -3.33300000
40.32379913 -67.42955780 4.57554102 40 21 15052 78.70000000 3185491626 3185491626 3.33300000
39.89965057 -74.81966400 3.45458269 28 22 15053 84.86400000 3185491629 3185491629 2.33300000
19.83514786 -33.18153381 -1.80075443 13 23 15053 38.70000000 3185491629 3185491629 -2.66700000
19.74082756 -37.03348541 -2.19936633 20 24 15054 42.02400000 3185491631 3185491631 -3.00000000
63.03408432 -118.30070496 10.94287109 28 26 15055 134.49200000 3185491633 3185491633 4.66700000
38.39292145 -57.67673492 -2.82280564 28 27 15055 69.34400000 3185491633 3185491633 -2.33300000
38.63656616 -81.95831299 -3.16412807 28 28 15056 90.66400000 3185491636 3185491636 -2.00000000
37.91008759 -63.51911926 -1.72128630 46 31 15057 73.99200000 3185491638 3185491638 -1.33300000
2.97958779 -5.61324024 -2.96339917 13 0 15064 7.01200000 3185491659 3185491659 -25.00000000
38.24861908 -57.65608978 -1.20770657 28 1 15064 69.20000000 3185491659 3185491659 -1.00000000
7.16003323 -13.50015068 -3.05629182 3 4 15066 15.58400000 3185491663 3185491663 -11.31000000
37.61604309 -63.25200272 0.00000000 51 5 15066 73.59200000 3185491663 3185491663 0.00000000
37.53047180 -79.97358704 -1.02846646 29 6 15066 88.34800000 3185491666 3185491666 -0.66700000
9.50536633 -15.98343182 -2.89315057 2 7 15066 18.82000000 3185491666 3185491666 -8.84300000
11.03993034 -20.82442665 -3.00013304 5 8 15067 23.76000000 3185491668 3185491668 -7.25400000
38.66549301 -58.35078430 0.40683395 56 9 15067 70.00000000 3185491668 3185491668 0.33300000
37.82926941 -71.38678741 -0.46955612 28 10 15068 80.79200000 3185491670 3185491670 -0.33300000
13.40869045 -22.56486320 -2.82736206 3 11 15068 26.40000000 3185491670 3185491670 -6.14800000
14.04627323 -29.97196388 -3.08983254 4 12 15069 33.24400000 3185491672 3185491672 -5.33300000
38.08942795 -64.12441254 1.73552334 50 13 15069 74.60400000 3185491672 3185491672 1.33300000
38.52996826 -82.25267029 1.05742943 28 14 15070 90.83600000 3185491675 3185491675 0.66700000
19.71395493 -33.20208740 -2.70013356 10 15 15070 38.70800000 3185491675 3185491675 -4.00000000
16.77289581 -31.69186401 -2.92716837 6 16 15071 35.97600000 3185491677 3185491677 -4.66700000
43.73633575 -66.10346222 2.30676293 28 17 15071 79.29600000 3185491677 3185491677 1.66700000
37.45750427 -70.77478027 1.39772832 28 18 15071 80.08800000 3185491679 3185491679 1.00000000
19.87668419 -30.04178619 -2.30861139 13 19 15071 36.09600000 3185491679 3185491679 -3.66700000
19.71785736 -42.13139343 -2.70904589 10 20 15072 46.59600000 3185491682 3185491682 -3.33300000
40.66683578 -68.54524994 4.64158678 42 21 15072 79.83600000 3185491682 3185491682 3.33300000
40.01937485 -75.67923737 3.48779988 28 22 15073 85.68000000 3185491684 3185491684 2.33300000
19.83130074 -33.43959045 -1.81099129 13 23 15073 38.92000000 3185491684 3185491684 -2.66700000
19.73463821 -37.33525085 -2.21318293 21 24 15074 42.28800000 3185491686 3185491686 -3.00000000
62.95785522 -119.15802765 11.00177860 28 26 15075 135.21600000 3185491689 3185491689 4.66700000
38.32794571 -58.01715088 -2.83290100 28 27 15075 69.59200000 3185491689 3185491689 -2.33300000
38.59557724 -82.61784363 -3.18436956 28 28 15076 91.24400000 3185491691 3185491691 -2.00000000
38.21078491 -64.50807953 -1.74464250 24 31 15076 74.99600000 3185491693 3185491693 -1.33300000
2.98699212 -5.67493439 -2.99044681 22 0 15084 7.07600000 3185491714 3185491714 -25.00000000
38.27805328 -58.13999176 -1.21503651 28 1 15084 69.62000000 3185491714 3185491714 -1.00000000
5.48013783 -9.28489017 -3.01816583 7 3 15085 11.19600000 3185491716 3185491716 -15.63900000
37.68567657 -63.87557220 0.00000000 26 5 15086 74.16400000 3185491719 3185491719 0.00000000
37.77828598 -81.27488708 -1.04341352 29 6 15087 89.63200000 3185491721 3185491721 -0.66700000
9.46679783 -16.05220795 -2.89929962 2 7 15087 18.86000000 3185491721 3185491721 -8.84300000
10.97086525 -20.86985970 -3.00114322 5 8 15087 23.76800000 3185491723 3185491723 -7.25400000
38.56707001 -58.64581299 0.40794984 84 9 15087 70.19200000 3185491723 3185491723 0.33300000
37.57985306 -71.51840210 -0.46955612 28 10 15088 80.79200000 3185491725 3185491725 -0.33300000
13.34600067 -22.63893890 -2.83078909 3 11 15088 26.43200000 3185491725 3185491725 -6.14800000
13.99356842 -30.13278961 -3.10135770 4 12 15089 33.36800000 3185491728 3185491728 -5.33300000
37.84505844 -64.22252655 1.73459280 50 13 15089 74.56400000 3185491728 3185491728 1.33300000
38.32176590 -82.55718231 1.05961800 28 14 15090 91.02400000 3185491730 3185491730 0.66700000
19.71742630 -33.47354889 -2.71659613 10 15 15090 38.94400000 3185491730 3185491730 -4.00000000
16.68254852 -31.78905106 -2.93074822 6 16 15091 36.02000000 3185491732 3185491732 -4.66700000
41.67065811 -63.46164703 2.20948434 28 17 15091 75.95200000 3185491732 3185491732 1.66700000
37.17927170 -70.87617493 1.39703023 28 18 15092 80.04800000 3185491735 3185491735 1.00000000
19.86939240 -30.27128220 -2.32063532 14 19 15092 36.28400000 3185491735 3185491735 -3.66700000
19.67147255 -42.41732407 -2.72299910 10 20 15092 46.83600000 3185491737 3185491737 -3.33300000
40.57923508 -68.94489288 4.65902853 42 21 15092 80.13600000 3185491737 3185491737 3.33300000
39.81249619 -75.92819977 3.49284744 28 22 15093 85.80400000 3185491739 3185491739 2.33300000
19.82184029 -33.69113541 -1.82085598 13 23 15093 39.13200000 3185491739 3185491739 -2.66700000
19.72287178 -37.63034058 -2.22658086 21 24 15094 42.54400000 3185491742 3185491742 -3.00000000
61.02813339 -116.48834229 10.73555374 28 26 15095 131.94400000 3185491744 3185491744 4.66700000
38.21723175 -58.29096603 -2.83973980 28 27 15095 69.76000000 3185491744 3185491744 -2.33300000
38.39595795 -82.94433594 -3.19176841 28 28 15096 91.45600000 3185491746 3185491746 -2.00000000
38.21836472 -65.03755188 -1.75534356 24 31 15096 75.45600000 3185491749 3185491749 -1.33300000
2.98058319 -5.71103716 -3.00397062 14 0 15104 7.10800000 3185491769 3185491769 -25.00000000
38.18643951 -58.44400787 -1.21859682 28 1 15104 69.82400000 3185491769 3185491769 -1.00000000
5.45158672 -9.31061077 -3.02032232 6 3 15105 11.20400000 3185491772 3185491772 -15.63900000
7.02027178 -13.46286011 -3.03668022 24 4 15106 15.48400000 3185491774 3185491774 -11.31000000
37.51501465 -64.09648895 0.00000000 26 5 15106 74.26800000 3185491774 3185491774 0.00000000
37.62654114 -81.69326782 -1.04709220 29 6 15107 89.94800000 3185491776 3185491776 -0.66700000
9.42068768 -16.10221291 -2.90237427 2 7 15107 18.88000000 3185491776 3185491776 -8.84300000
10.90711880 -20.92562294 -3.00366855 5 8 15107 23.78800000 3185491778 3185491778 -7.25400000
38.45175552 -58.91741562 0.40890300 56 9 15107 70.35600000 3185491778 3185491778 0.33300000
37.33921814 -71.66687775 -0.46967238 28 10 15108 80.81200000 3185491781 3185491781 -0.33300000
13.27894115 -22.70598412 -2.83335948 3 11 15108 26.45600000 3185491781 3185491781 -6.14800000
13.93158627 -30.27552223 -3.11102390 4 12 15109 33.47200000 3185491783 3185491783 -5.33300000
37.73770142 -64.55447388 1.73998988 25 13 15109 74.79600000 3185491783 3185491783 1.33300000
37.94978714 -82.50875854 1.05728972 28 14 15110 90.82400000 3185491785 3185491785 0.66700000
19.70917320 -33.72821045 -2.73166347 10 15 15110 39.16000000 3185491785 3185491785 -4.00000000
16.63957024 -31.97794342 -2.94279027 6 16 15111 36.16800000 3185491788 3185491788 -4.66700000
41.41177368 -63.54977036 2.20750618 28 17 15111 75.88400000 3185491788 3185491788 1.66700000
39.95870209 -76.79267883 1.51102936 28 18 15111 86.58000000 3185491790 3185491790 1.00000000
19.86915016 -30.49084663 -2.33240366 14 19 15111 36.46800000 3185491790 3185491790 -3.66700000
19.67835426 -42.82317734 -2.74462700 10 20 15112 47.20800000 3185491792 3185491792 -3.33300000
40.50342941 -69.36888885 4.67809820 42 21 15112 80.46400000 3185491792 3185491792 3.33300000
42.27391052 -81.31134033 3.73367167 28 22 15113 91.72000000 3185491795 3185491795 2.33300000
19.82093430 -33.96027374 -1.83165121 13 23 15113 39.36400000 3185491795 3185491795 -2.66700000
19.71296883 -37.93289185 -2.24039769 21 24 15114 42.80800000 3185491797 3185491797 -3.00000000
60.35833740 -116.19474792 10.68901348 28 26 15115 131.37200000 3185491799 3185491799 4.66700000
38.14212799 -58.62166214 -2.84934688 28 27 15115 69.99600000 3185491799 3185491799 -2.33300000
38.21285629 -83.31040955 -3.20070267 28 28 15116 91.71200000 3185491802 3185491802 -2.00000000
38.05958176 -65.28802490 -1.75850725 24 31 15116 75.59200000 3185491804 3185491804 -1.33300000
2.92897439 -5.66023254 -2.97185159 14 0 15124 7.03200000 3185491825 3185491825 -25.00000000
38.18890762 -58.89573669 -1.22522879 28 1 15124 70.20400000 3185491825 3185491825 -1.00000000
5.42292261 -9.33624554 -3.02247906 6 3 15125 11.21200000 3185491827 3185491827 -15.63900000
6.98404312 -13.50818920 -3.04138684 15 4 15126 15.50800000 3185491830 3185491830 -11.31000000
37.74897766 -65.01574707 0.00000000 53 5 15126 75.18000000 3185491830 3185491830 0.00000000
37.66773605 -82.50161743 -1.05584621 29 6 15126 90.70000000 3185491832 3185491832 -0.66700000
9.38113117 -16.15729141 -2.90667868 2 7 15126 18.90800000 3185491832 3185491832 -8.84300000
10.84676075 -20.98824310 -3.00720406 5 8 15127 23.81600000 3185491834 3185491834 -7.25400000
38.30022049 -59.13521194 0.40948418 56 9 15127 70.45600000 3185491834 3185491834 0.33300000
37.08148193 -71.78256226 -0.46957937 28 10 15128 80.79600000 3185491837 3185491837 -0.33300000
13.24949360 -22.83819962 -2.84406924 3 11 15128 26.55600000 3185491837 3185491837 -6.14800000
13.84895134 -30.37470055 -3.11622882 4 12 15129 33.52800000 3185491839 3185491839 -5.33300000
37.81906891 -65.21508026 1.75422692 25 13 15129 75.40800000 3185491839 3185491839 1.33300000
38.11436081 -83.63433075 1.07000184 28 14 15130 91.91600000 3185491841 3185491841 0.66700000
19.69338036 -33.97286224 -2.74589372 11 15 15130 39.36400000 3185491841 3185491841 -4.00000000
16.60096169 -32.17755127 -2.95580864 7 16 15131 36.32800000 3185491843 3185491843 -4.66700000
41.15929413 -63.64693451 2.20587707 28 17 15131 75.82800000 3185491843 3185491843 1.66700000
39.51070023 -76.58337402 1.50418806 28 18 15131 86.18800000 3185491846 3185491846 1.00000000
19.85363960 -30.70080185 -2.34314847 14 19 15131 36.63600000 3185491846 3185491846 -3.66700000
19.68594933 -43.23686218 -2.76671982 10 20 15132 47.58800000 3185491848 3185491848 -3.33300000
40.37912750 -69.71372223 4.69181919 42 21 15132 80.70000000 3185491848 3185491848 3.33300000
39.92054749 -77.44410706 3.54967475 28 22 15133 87.20000000 3185491850 3185491850 2.33300000
19.81638718 -34.22635269 -1.84226024 13 23 15133 39.59200000 3185491850 3185491850 -2.66700000
19.70485115 -38.24293137 -2.25463295 21 24 15134 43.08000000 3185491853 3185491853 -3.00000000
59.86475372 -116.23460388 10.67339134 28 26 15135 131.18000000 3185491855 3185491855 4.66700000
38.17790985 -59.12714005 -2.86742091 28 27 15135 70.44000000 3185491855 3185491855 -2.33300000
38.36342239 -84.41499329 -3.23797536 28 28 15136 92.78000000 3185491857 3185491857 -2.00000000
38.53811646 -66.64248657 -1.79135489 25 31 15136 77.00400000 3185491860 3185491860 -1.33300000
2.90423417 -5.66074562 -2.96678019 15 0 15144 7.02000000 3185491880 3185491880 -25.00000000
38.30121994 -59.52308273 -1.23549080 28 1 15144 70.79200000 3185491880 3185491880 -1.00000000
5.39799213 -9.36846828 -3.02679205 6 3 15145 11.22800000 3185491883 3185491883 -15.63900000
37.38005447 -64.90101624 0.00000000 26 5 15146 74.89600000 3185491885 3185491885 0.00000000
37.93341446 -83.85705566 -1.07149184 29 6 15146 92.04400000 3185491887 3185491887 -0.66700000
9.33453751 -16.20706367 -2.90975308 2 7 15146 18.92800000 3185491887 3185491887 -8.84300000
10.78067017 -21.04010391 -3.00922441 2 8 15147 23.83200000 3185491890 3185491890 -7.25400000
38.68397903 -60.18714905 0.41583079 56 9 15147 71.54800000 3185491890 3185491890 0.33300000
36.83615875 -71.92224884 -0.46964914 28 10 15148 80.80800000 3185491892 3185491892 -0.33300000
13.18159485 -22.90499115 -2.84663963 3 11 15148 26.58000000 3185491892 3185491892 -6.14800000
13.78218937 -30.50996590 -3.12515140 4 12 15149 33.62400000 3185491894 3185491894 -5.33300000
37.77664185 -65.66906738 1.76288080 26 13 15149 75.78000000 3185491894 3185491894 1.33300000
44.36482620 -98.25719452 1.25509501 28 14 15150 107.81600000 3185491896 3185491896 0.66700000
19.68606186 -34.23511124 -2.76151919 11 15 15150 39.58800000 3185491896 3185491896 -4.00000000
16.49398613 -32.24595261 -2.95678496 7 16 15151 36.34000000 3185491899 3185491899 -4.66700000
41.04268646 -63.95510483 2.21157885 28 17 15151 76.02400000 3185491899 3185491899 1.66700000
39.27227402 -76.77779388 1.50530493 28 18 15151 86.25200000 3185491901 3185491901 1.00000000
19.84552574 -30.92445374 -2.35491657 21 19 15151 36.82000000 3185491901 3185491901 -3.66700000
19.63999367 -43.53827667 -2.78160334 10 20 15152 47.84400000 3185491903 3185491903 -3.33300000
39.43925476 -68.64240265 4.61042452 41 21 15152 79.30000000 3185491903 3185491903 3.33300000
39.76819611 -77.81430817 3.56025887 28 22 15153 87.46000000 3185491906 3185491906 2.33300000
19.79828453 -34.47202682 -1.85175264 13 23 15153 39.79600000 3185491906 3185491906 -2.66700000
19.69662476 -38.55693054 -2.26907778 22 24 15154 43.35600000 3185491908 3185491908 -3.00000000
59.46590805 -116.45706177 10.67469311 28 26 15155 131.19600000 3185491910 3185491910 4.66700000
38.36587524 -59.87586594 -2.89721847 28 27 15155 71.17200000 3185491910 3185491910 -2.33300000
38.31471252 -85.09516144 -3.25891495 28 28 15156 93.38000000 3185491913 3185491913 -2.00000000
38.63555908 -67.35240936 -1.80680156 26 31 15156 77.66800000 3185491915 3185491915 -1.33300000
2.90089226 -5.70316124 -2.98368502 18 0 15164 7.06000000 3185491936 3185491936 -25.00000000
38.33643341 -60.03731537 -1.24337924 28 1 15164 71.24400000 3185491936 3185491936 -1.00000000
5.36525726 -9.38725376 -3.02679205 6 3 15165 11.22800000 3185491938 3185491938 -15.63900000
6.91267061 -13.60207367 -3.05158496 1 4 15166 15.56000000 3185491940 3185491940 -11.31000000
37.14534378 -65.01721191 0.00000000 26 5 15166 74.88000000 3185491940 3185491940 0.00000000
37.85965729 -84.47805023 -1.07773149 29 6 15166 92.58000000 3185491943 3185491943 -0.66700000
9.29359245 -16.26700401 -2.91467237 2 7 15166 18.96000000 3185491943 3185491943 -8.84300000
10.71614647 -21.09529495 -3.01174974 5 8 15167 23.85200000 3185491945 3185491945 -7.25400000
38.52527618 -60.40275192 0.41638875 28 9 15167 71.64400000 3185491945 3185491945 0.33300000
36.65550613 -72.18948364 -0.47055578 28 10 15168 80.96400000 3185491947 3185491947 -0.33300000
13.12324905 -22.98885536 -2.85135174 3 11 15168 26.62400000 3185491947 3185491947 -6.14800000
13.73254681 -30.68512344 -3.13816357 4 12 15169 33.76400000 3185491949 3185491949 -5.33300000
37.54520035 -65.79705811 1.76278770 26 13 15169 75.77600000 3185491949 3185491949 1.33300000
44.05587006 -98.48813629 1.25607288 28 14 15170 107.90000000 3185491952 3185491952 0.66700000
19.76611710 -34.65369034 -2.78970098 11 15 15170 39.99200000 3185491952 3185491952 -4.00000000
16.40837288 -32.35666656 -2.96166682 7 16 15171 36.40000000 3185491954 3185491954 -4.66700000
40.73113632 -63.95970917 2.20680785 28 17 15171 75.86000000 3185491954 3185491954 1.66700000
39.73378372 -78.38737488 1.53399670 28 18 15172 87.89600000 3185491956 3185491956 1.00000000
19.83279991 -31.15525246 -2.36694074 21 19 15172 37.00800000 3185491956 3185491956 -3.66700000
19.64267921 -43.95291519 -2.80369616 10 20 15172 48.22400000 3185491959 3185491959 -3.33300000
39.19742966 -68.77618408 4.61019182 82 21 15172 79.29600000 3185491959 3185491959 3.33300000
39.53426361 -78.02751923 3.56367826 28 22 15173 87.54400000 3185491961 3185491961 2.33300000
19.79650497 -34.74923325 -1.86292005 13 23 15173 40.03600000 3185491961 3185491961 -2.66700000
19.69727325 -38.89271927 -2.28477859 22 24 15174 43.65600000 3185491963 3185491963 -3.00000000
58.99060822 -116.52876282 10.66232586 28 26 15175 131.04400000 3185491966 3185491966 4.66700000
38.17808151 -60.04314804 -2.89884686 28 27 15175 71.21200000 3185491966 3185491966 -2.33300000
38.36756897 -86.01331329 -3.28892851 28 28 15176 94.24000000 3185491968 3185491968 -2.00000000
38.73641968 -68.07772827 -1.82262051 26 31 15176 78.34800000 3185491970 3185491970 -1.33300000
2.89402509 -5.73914814 -2.99720860 13 0 15184 7.09200000 3185491991 3185491991 -25.00000000
38.37280273 -60.55927277 -1.25140738 28 1 15184 71.70400000 3185491991 3185491991 -1.00000000
5.34005594 -9.41932774 -3.03110528 6 3 15185 11.24400000 3185491993 3185491993 -15.63900000
6.89338541 -13.68216705 -3.06413651 3 4 15186 15.62400000 3185491995 3185491995 -11.31000000
37.26131439 -65.75200653 0.00000000 26 5 15186 75.57600000 3185491995 3185491995 0.00000000
37.72012711 -85.00011444 -1.08262074 29 6 15187 93.00000000 3185491998 3185491998 -0.66700000
9.24364948 -16.31815338 -2.91774702 2 7 15187 18.98000000 3185491998 3185491998 -8.84300000
10.69241714 -21.23180389 -3.02589178 5 8 15187 23.96400000 3185492000 3185492000 -7.25400000
38.57730865 -60.95258713 0.41924819 56 9 15187 72.13600000 3185492000 3185492000 0.33300000
36.49501801 -72.49920654 -0.47174141 28 10 15188 81.16800000 3185492002 3185492002 -0.33300000
13.07231712 -23.08643532 -2.85777760 3 11 15188 26.68400000 3185492002 3185492002 -6.14800000
13.64795017 -30.78384399 -3.14336848 4 12 15189 33.82000000 3185492005 3185492005 -5.33300000
39.21218491 -69.27908325 1.85239732 28 13 15189 79.62800000 3185492005 3185492005 1.33300000
42.67958450 -96.31195831 1.22641134 28 14 15190 105.35200000 3185492007 3185492007 0.66700000
19.74131203 -34.89265060 -2.80337310 11 15 15190 40.18800000 3185492007 3185492007 -4.00000000
16.36158371 -32.54553604 -2.97370887 7 16 15191 36.54800000 3185492009 3185492009 -4.66700000
40.49481201 -64.08121490 2.20610976 28 17 15191 75.83600000 3185492009 3185492009 1.66700000
41.31850433 -82.18843842 1.60569119 28 18 15191 92.00400000 3185492012 3185492012 1.00000000
19.83813095 -31.39294815 -2.37998796 22 19 15191 37.21200000 3185492012 3185492012 -3.66700000
19.64270782 -44.36809540 -2.82578897 10 20 15192 48.60400000 3185492014 3185492014 -3.33300000
39.03376007 -69.04815674 4.61926126 83 21 15192 79.45200000 3185492014 3185492014 3.33300000
39.91105270 -79.45791626 3.62262225 28 22 15193 88.99200000 3185492016 3185492016 2.33300000
19.79106522 -35.02336502 -1.87390137 13 23 15193 40.27200000 3185492016 3185492016 -2.66700000
19.68326950 -39.20398712 -2.29901385 22 24 15194 43.92800000 3185492019 3185492019 -3.00000000
58.73012161 -117.02615356 10.68901348 28 26 15195 131.37200000 3185492021 3185492021 4.66700000
38.05569839 -60.31463242 -2.90552282 28 27 15195 71.37600000 3185492021 3185492021 -2.33300000
38.37570190 -86.84510803 -3.31559181 28 28 15196 95.00400000 3185492023 3185492023 -2.00000000
38.67134476 -68.54663849 -1.83136749 27 31 15197 78.72400000 3185492025 3185492025 -1.33300000
2.89443588 -5.78762197 -3.01749444 13 0 15203 7.14000000 3185492046 3185492046 -25.00000000
38.16751099 -60.67941666 -1.25126779 28 1 15203 71.69600000 3185492046 3185492046 -1.00000000
5.31634521 -9.45041275 -3.03541851 6 3 15204 11.26000000 3185492048 3185492048 -15.63900000
6.85148191 -13.71196842 -3.06570554 3 4 15205 15.63200000 3185492051 3185492051 -11.31000000
37.16854477 -66.09834290 0.00000000 26 5 15205 75.83200000 3185492051 3185492051 0.00000000
37.61195374 -85.52015686 -1.08764970 29 6 15206 93.43200000 3185492053 3185492053 -0.66700000
9.20304203 -16.37283325 -2.92205143 2 7 15206 19.00800000 3185492053 3185492053 -8.84300000
10.63081646 -21.28489304 -3.02841711 5 8 15206 23.98400000 3185492055 3185492055 -7.25400000
38.52179718 -61.31387711 0.42085230 56 9 15206 72.41200000 3185492055 3185492055 0.33300000
37.76410675 -75.64386749 -0.49138567 28 10 15207 84.54800000 3185492058 3185492058 -0.33300000
13.04633808 -23.21980476 -2.86891580 3 11 15207 26.78800000 3185492058 3185492058 -6.14800000
13.59385586 -30.93832016 -3.15452170 4 12 15208 33.94000000 3185492060 3185492060 -5.33300000
39.16042709 -69.72602081 1.86086512 28 13 15208 79.99200000 3185492060 3185492060 1.33300000
42.31010818 -96.33943176 1.22496796 28 14 15209 105.22800000 3185492062 3185492062 0.66700000
19.65088844 -35.00315475 -2.80700040 5 15 15209 40.24000000 3185492062 3185492062 -4.00000000
16.31760788 -32.72805786 -2.98542523 7 16 15210 36.69200000 3185492065 3185492065 -4.66700000
40.33520508 -64.29982758 2.20901871 28 17 15210 75.93600000 3185492065 3185492065 1.66700000
39.99821854 -80.22401428 1.56471300 28 18 15210 89.65600000 3185492067 3185492067 1.00000000
19.83785820 -31.62425804 -2.39252353 22 19 15210 37.40800000 3185492067 3185492067 -3.66700000
19.64307785 -44.76940918 -2.84718418 10 20 15211 48.97200000 3185492069 3185492069 -3.33300000
38.96867371 -69.46977234 4.63879633 42 21 15211 79.78800000 3185492069 3185492069 3.33300000
40.37264252 -81.04582977 3.68889380 28 22 15212 90.62000000 3185492072 3185492072 2.33300000
19.79792976 -35.30836868 -1.88562727 14 23 15212 40.52400000 3185492072 3185492072 -2.66700000
19.68669319 -39.53722382 -2.31471467 22 24 15213 44.22800000 3185492074 3185492074 -3.00000000
58.53002167 -117.59858704 10.72351170 28 26 15214 131.79600000 3185492076 3185492076 4.66700000
38.16733551 -60.93841171 -2.92945862 28 27 15214 71.96400000 3185492076 3185492076 -2.33300000
38.33445740 -87.53580475 -3.33708978 28 28 15215 95.62000000 3185492078 3185492078 -2.00000000
38.61017227 -68.94342041 -1.83871865 27 31 15215 79.04000000 3185492081 3185492081 -1.33300000
2.87481332 -5.80144024 -3.01918483 14 0 15224 7.14400000 3185492101 3185492101 -25.00000000
38.22217941 -61.26340485 -1.26041281 28 1 15224 72.22000000 3185492101 3185492101 -1.00000000
5.28542471 -9.47656345 -3.03757524 8 3 15225 11.26800000 3185492104 3185492104 -15.63900000
6.81336164 -13.76159382 -3.07119679 3 4 15226 15.66000000 3185492106 3185492106 -11.31000000
36.80916595 -66.02450562 0.00000000 26 5 15226 75.59200000 3185492106 3185492106 0.00000000
37.38668442 -85.81959534 -1.08979166 29 6 15226 93.61600000 3185492108 3185492108 -0.66700000
9.16123104 -16.43247604 -2.92697072 2 7 15226 19.04000000 3185492108 3185492108 -8.84300000
10.55977154 -21.33794022 -3.03043747 5 8 15227 24.00000000 3185492111 3185492111 -7.25400000
38.49355316 -61.77036667 0.42301431 56 9 15227 72.78400000 3185492111 3185492111 0.33300000
37.67637253 -76.16539764 -0.49387318 28 10 15228 84.97600000 3185492113 3185492113 -0.33300000
12.97469330 -23.29178619 -2.87191439 3 11 15228 26.81600000 3185492113 3185492113 -6.14800000
13.51849937 -31.07558632 -3.16344428 4 12 15229 34.03600000 3185492115 3185492115 -5.33300000
38.13616562 -68.48902893 1.82410932 27 13 15229 78.41200000 3185492115 3185492115 1.33300000
41.36980438 -95.14403534 1.20783222 28 14 15230 103.75600000 3185492118 3185492118 0.66700000
19.60590935 -35.22486877 -2.81899858 5 15 15230 40.41200000 3185492118 3185492118 -4.00000000
16.22226524 -32.83768463 -2.98998165 7 16 15231 36.74800000 3185492120 3185492120 -4.66700000
39.95351791 -64.21298981 2.20098972 28 17 15231 75.66000000 3185492120 3185492120 1.66700000
40.92794418 -82.84780121 1.61295140 28 18 15231 92.42000000 3185492122 3185492122 1.00000000
19.82936859 -31.86960793 -2.40557098 22 19 15231 37.61200000 3185492122 3185492122 -3.66700000
19.59181976 -45.10114670 -2.86369562 10 20 15232 49.25600000 3185492125 3185492125 -3.33300000
39.37950134 -70.80915070 4.71856308 41 21 15232 81.16000000 3185492125 3185492125 3.33300000
39.45796204 -79.94247437 3.63206649 28 22 15233 89.22400000 3185492127 3185492127 2.33300000
19.78681183 -35.59372711 -1.89698088 14 23 15233 40.76800000 3185492127 3185492127 -2.66700000
19.67596817 -39.88136673 -2.33062482 23 24 15234 44.53200000 3185492129 3185492129 -3.00000000
58.18677139 -117.99110413 10.73978519 28 26 15235 131.99600000 3185492131 3185492131 4.66700000
38.27695847 -61.61428833 -2.95518565 28 27 15235 72.59600000 3185492131 3185492131 -2.33300000
38.18987656 -88.08283234 -3.35258532 28 28 15236 96.06400000 3185492134 3185492134 -2.00000000
38.34128189 -69.08417511 -1.83853245 27 31 15237 79.03200000 3185492136 3185492136 -1.33300000
2.86733150 -5.83747053 -3.03270864 15 0 15244 7.17600000 3185492157 3185492157 -25.00000000
37.97862625 -61.34884262 -1.25943542 28 1 15244 72.16400000 3185492157 3185492157 -1.00000000
5.25977087 -9.50843716 -3.04188848 6 3 15245 11.28400000 3185492159 3185492159 -15.63900000
6.77219534 -13.79937744 -3.07433462 3 4 15246 15.67600000 3185492161 3185492161 -11.31000000
36.59589386 -66.18409729 0.00000000 26 5 15246 75.62800000 3185492161 3185492161 0.00000000
37.62566757 -87.19820404 -1.10562348 29 6 15246 94.97600000 3185492164 3185492164 -0.66700000
9.11529064 -16.48510933 -2.93066001 2 7 15246 19.06400000 3185492164 3185492164 -8.84300000
10.50095177 -21.40673256 -3.03498292 5 8 15247 24.03600000 3185492166 3185492166 -7.25400000
38.38498688 -62.07786179 0.42419997 56 9 15247 72.98800000 3185492166 3185492166 0.33300000
37.51065063 -76.50115967 -0.49519828 28 10 15248 85.20400000 3185492168 3185492168 -0.33300000
12.90292645 -23.35433960 -2.87405634 3 11 15248 26.83600000 3185492168 3185492168 -6.14800000
13.43831062 -31.18842316 -3.17013621 4 12 15249 34.10800000 3185492171 3185492171 -5.33300000
37.87946320 -68.59022522 1.82327187 27 13 15249 78.37600000 3185492171 3185492171 1.33300000
41.05642319 -95.33194733 1.20839095 28 14 15250 103.80400000 3185492173 3185492173 0.66700000
19.51368713 -35.34898376 -2.82346296 5 15 15250 40.47600000 3185492173 3185492173 -4.00000000
16.17241287 -33.02659225 -3.00202370 7 16 15251 36.89600000 3185492175 3185492175 -4.66700000
39.53168869 -64.03225708 2.19005179 28 17 15251 75.28400000 3185492175 3185492175 1.66700000
40.81438828 -83.34934998 1.61993241 28 18 15251 92.82000000 3185492178 3185492178 1.00000000
19.82494736 -32.11186218 -2.41861820 22 19 15251 37.81600000 3185492178 3185492178 -3.66700000
19.58893394 -45.52873611 -2.88648605 10 20 15252 49.64800000 3185492180 3185492180 -3.33300000
40.45706558 -73.34835052 4.87832880 39 21 15252 83.90800000 3185492180 3185492180 3.33300000
39.17515945 -80.07254028 3.63174081 28 22 15253 89.21600000 3185492182 3185492182 2.33300000
19.78012657 -35.87602234 -1.90833449 15 23 15253 41.01200000 3185492182 3185492182 -2.66700000
19.66649437 -40.21535110 -2.34611630 23 24 15254 44.82800000 3185492184 3185492184 -3.00000000
58.34356308 -119.35755920 10.84555912 28 26 15255 133.29600000 3185492187 3185492187 4.66700000
38.25249481 -62.05712891 -2.97000313 28 27 15255 72.96000000 3185492187 3185492187 -2.33300000
38.18503189 -88.92086029 -3.37938809 28 28 15256 96.83200000 3185492189 3185492189 -2.00000000
37.30928421 -67.78125000 -1.80038095 26 31 15257 77.39200000 3185492191 3185492191 -1.33300000
2.85113287 -5.85346556 -3.03608966 15 0 15263 7.18400000 3185492212 3185492212 -25.00000000
38.01158142 -61.85949326 -1.26732397 28 1 15263 72.61600000 3185492212 3185492212 -1.00000000
5.23191738 -9.53258038 -3.04404497 6 3 15264 11.29200000 3185492214 3185492214 -15.63900000
6.73841190 -13.84644699 -3.07982588 3 4 15265 15.70400000 3185492217 3185492217 -11.31000000
36.64172363 -66.78904724 0.00000000 53 5 15265 76.18000000 3185492217 3185492217 0.00000000
37.55330276 -87.83001709 -1.11204934 29 6 15265 95.52800000 3185492219 3185492219 -0.66700000
9.07388115 -16.53950119 -2.93496442 2 7 15265 19.09200000 3185492219 3185492219 -8.84300000
10.44379234 -21.46998215 -3.03902364 2 8 15266 24.06800000 3185492221 3185492221 -7.25400000
38.30027390 -62.40253448 0.42554832 56 9 15266 73.22000000 3185492221 3185492221 0.33300000
37.26025391 -76.63232422 -0.49524480 28 10 15267 85.21200000 3185492224 3185492224 -0.33300000
12.83879185 -23.42141151 -2.87705517 3 11 15267 26.86400000 3185492224 3185492224 -6.14800000
13.39736557 -31.37932777 -3.18500733 4 12 15268 34.26800000 3185492226 3185492226 -5.33300000
37.75941086 -68.91185760 1.82848287 27 13 15268 78.60000000 3185492226 3185492226 1.33300000
41.45907211 -97.15244293 1.22971749 28 14 15269 105.63600000 3185492228 3185492228 0.66700000
19.47494888 -35.55698776 -2.83490300 5 15 15269 40.64000000 3185492228 3185492228 -4.00000000
16.07673454 -33.10873032 -3.00462723 7 16 15270 36.92800000 3185492231 3185492231 -4.66700000
39.29406357 -64.12208557 2.18865538 28 17 15270 75.23600000 3185492231 3185492231 1.66700000
39.29918671 -80.93347931 1.57043731 28 18 15270 89.98400000 3185492233 3185492233 1.00000000
19.82472420 -32.35100937 -2.43166566 15 19 15270 38.02000000 3185492233 3185492233 -3.66700000
19.59132004 -45.95343018 -2.90927672 10 20 15271 50.04000000 3185492235 3185492235 -3.33300000
40.30179214 -73.64324188 4.88902664 39 21 15271 84.09200000 3185492235 3185492235 3.33300000
39.37694168 -81.16570282 3.67537904 28 22 15272 90.28800000 3185492237 3185492237 2.33300000
19.77802086 -36.15525055 -1.91968799 15 23 15272 41.25600000 3185492237 3185492237 -2.66700000
19.66374779 -40.54991150 -2.36181712 23 24 15273 45.12800000 3185492240 3185492240 -3.00000000
57.98047638 -119.61853790 10.85174274 28 26 15274 133.37200000 3185492242 3185492242 4.66700000
38.15496063 -62.36091614 -2.97847033 28 27 15274 73.16800000 3185492242 3185492242 -2.33300000
37.90247345 -89.07642365 -3.38050485 28 28 15275 96.86400000 3185492244 3185492244 -2.00000000
37.17439651 -68.06954956 -1.80475438 26 31 15276 77.58000000 3185492247 3185492247 -1.33300000
2.82595468 -5.85358810 -3.03101826 14 0 15283 7.17200000 3185492267 3185492267 -25.00000000
38.13685608 -62.55182648 -1.27877271 28 1 15283 73.27200000 3185492267 3185492267 -1.00000000
37.97860336 -78.70269012 -2.54321074 28 2 15284 87.42400000 3185492270 3185492270 -1.66700000
5.20229387 -9.55755138 -3.04620171 6 3 15284 11.30000000 3185492270 3185492270 -15.63900000
6.69685411 -13.88401508 -3.08296371 5 4 15285 15.72000000 3185492272 3185492272 -11.31000000
36.31086731 -66.73735046 0.00000000 53 5 15285 75.97600000 3185492272 3185492272 0.00000000
37.58959961 -88.77085876 -1.12229359 29 6 15285 96.40800000 3185492274 3185492274 -0.66700000
9.02742672 -16.59190559 -2.93865395 2 7 15285 19.11600000 3185492274 3185492274 -8.84300000
10.41531277 -21.60281181 -3.05266047 5 8 15286 24.17600000 3185492277 3185492277 -7.25400000
38.16959381 -62.67933273 0.42652473 28 9 15286 73.38800000 3185492277 3185492277 0.33300000
36.97343063 -76.72228241 -0.49498907 28 10 15287 85.16800000 3185492279 3185492279 -0.33300000
12.80824375 -23.56042290 -2.88862157 3 11 15287 26.97200000 3185492279 3185492279 -6.14800000
13.30325985 -31.46258354 -3.18872499 4 12 15288 34.30800000 3185492281 3185492281 -5.33300000
37.26469040 -68.57592010 1.81610680 27 13 15288 78.06800000 3185492281 3185492281 1.33300000
41.32210922 -97.77552032 1.23577082 28 14 15289 106.15600000 3185492283 3185492283 0.66700000
19.44594193 -35.80006790 -2.84885430 5 15 15289 40.84000000 3185492283 3185492283 -4.00000000
16.04059601 -33.32989502 -3.01959825 7 16 15290 37.11200000 3185492286 3185492286 -4.66700000
39.07207489 -64.26227570 2.18877172 28 17 15290 75.24000000 3185492286 3185492286 1.66700000
38.94359207 -80.91880798 1.56750536 28 18 15290 89.81600000 3185492288 3185492288 1.00000000
19.81951523 -32.59737778 -2.44496870 15 19 15290 38.22800000 3185492288 3185492288 -3.66700000
19.59543610 -46.41148758 -2.93392754 11 20 15291 50.46400000 3185492290 3185492290 -3.33300000
40.05781937 -73.80804443 4.89065456 39 21 15291 84.12000000 3185492290 3185492290 3.33300000
39.20075989 -81.52597809 3.68547440 28 22 15292 90.53600000 3185492293 3185492293 2.33300000
19.76601601 -36.43479538 -1.93085551 15 23 15292 41.49600000 3185492293 3185492293 -2.66700000
19.65532112 -40.89552307 -2.37793660 24 24 15293 45.43600000 3185492295 3185492295 -3.00000000
58.65019226 -122.08414459 11.05678082 28 26 15294 135.89200000 3185492297 3185492297 4.66700000
38.05526352 -62.68846130 -2.98775148 28 27 15294 73.39600000 3185492297 3185492297 -2.33300000
37.94524002 -90.04810333 -3.41233325 28 28 15295 97.77600000 3185492300 3185492300 -2.00000000
38.08303070 -70.31571960 -1.86077201 28 31 15296 79.98800000 3185492302 3185492302 -1.33300000
2.81332827 -5.87976742 -3.03947043 11 0 15303 7.19200000 3185492323 3185492323 -25.00000000
38.20186615 -63.15338516 -1.28833663 28 1 15303 73.82000000 3185492323 3185492323 -1.00000000
38.01243973 -79.48043823 -2.56403971 28 2 15304 88.14000000 3185492325 3185492325 -1.66700000
5.17438889 -9.58582211 -3.04943657 6 3 15304 11.31200000 3185492325 3185492325 -15.63900000
6.65342379 -13.91792297 -3.08531713 5 4 15305 15.73200000 3185492327 3185492327 -11.31000000
36.08528519 -66.87776947 0.00000000 26 5 15305 75.99200000 3185492327 3185492327 0.00000000
37.49914169 -89.42530060 -1.12890565 29 6 15305 96.97600000 3185492330 3185492330 -0.66700000
8.98071575 -16.64418602 -2.94234347 2 7 15305 19.14000000 3185492330 3185492330 -8.84300000
10.35010624 -21.66051865 -3.05569100 5 8 15306 24.20000000 3185492332 3185492332 -7.25400000
38.06226730 -62.99706268 0.42778009 28 9 15306 73.60400000 3185492332 3185492332 0.33300000
37.40012741 -78.30545807 -0.50435787 28 10 15307 86.78000000 3185492334 3185492334 -0.33300000
12.74102211 -23.63299370 -2.89204860 3 11 15307 27.00400000 3185492334 3185492334 -6.14800000
13.26411247 -31.67781639 -3.20582676 5 12 15308 34.49200000 3185492336 3185492336 -5.33300000
37.60938263 -69.78983307 1.84476697 28 13 15308 79.30000000 3185492336 3185492336 1.33300000
40.06641006 -95.73490143 1.20820475 28 14 15309 103.78800000 3185492339 3185492339 0.66700000
19.39276695 -36.00122452 -2.85945725 5 15 15309 40.99200000 3185492339 3185492339 -4.00000000
15.94475079 -33.42886353 -3.02350378 7 16 15310 37.16000000 3185492341 3185492341 -4.66700000
38.83926010 -64.38457489 2.18830633 28 17 15310 75.22400000 3185492341 3185492341 1.66700000
37.96185303 -79.58867645 1.53916264 28 18 15310 88.19200000 3185492343 3185492343 1.00000000
19.80870438 -32.83726501 -2.45776033 15 19 15310 38.42800000 3185492343 3185492343 -3.66700000
19.57194328 -46.81118393 -2.95485759 12 20 15311 50.82400000 3185492346 3185492346 -3.33300000
39.87752914 -74.09159088 4.90018940 78 21 15311 84.28400000 3185492346 3185492346 3.33300000
39.39908218 -82.67614746 3.73122931 28 22 15312 91.66000000 3185492348 3185492348 2.33300000
19.75797844 -36.72525406 -1.94258130 15 23 15312 41.74800000 3185492348 3185492348 -2.66700000
19.64815521 -41.24878311 -2.39447474 24 24 15313 45.75200000 3185492350 3185492350 -3.00000000
57.32392502 -120.39835358 10.88591576 28 26 15314 133.79200000 3185492353 3185492353 4.66700000
38.13314056 -63.31392288 -3.01119900 28 27 15314 73.97200000 3185492353 3185492353 -2.33300000
37.67224503 -90.27961731 -3.41610241 28 28 15315 97.88400000 3185492355 3185492355 -2.00000000
