# .PCD v0.7 - Point Cloud Data file format
VERSION 0.7
FIELDS x y z intensity laser_id azimuth distance_m adjustedtime timestamp vertical_angle
SIZE 4 4 4 1 1 2 8 8 4 8
TYPE F F F U U U F U U F
COUNT 1 1 1 1 1 1 1 1 1 1
WIDTH 509
HEIGHT 1
VIEWPOINT 0 0 0 1 0 0 0
POINTS 509
DATA ascii
38.95938492 -27.74844170 1.11300170 26 13 12686 47.84400000 3182384977 3182384977 1.33300000
39.20957947 -34.16856003 0.60547602 58 14 12687 52.01200000 3182384979 3182384979 0.66700000
20.19714928 -14.39053631 -1.73414588 24 15 12687 24.86000000 3182384979 3182384979 -4.00000000
20.17627144 -15.92282772 -2.09822702 10 16 12688 25.78800000 3182384982 3182384982 -4.66700000
39.32101059 -25.22426224 1.35957515 28 17 12688 46.73600000 3182384982 3182384982 1.66700000
38.76331329 -30.59145546 0.86193943 27 18 12688 49.38800000 3182384984 3182384984 1.00000000
20.26694107 -13.00115776 -1.54316747 25 19 12688 24.12800000 3182384984 3182384984 -3.66700000
20.19751358 -17.61320686 -1.56068385 12 20 12689 26.84400000 3182384986 3182384986 -3.33300000
41.72468185 -29.75094032 2.98439217 20 21 12689 51.33200000 3182384986 3182384986 3.33300000
40.20370102 -31.75097084 2.08714366 39 22 12690 51.27200000 3182384989 3182384989 2.33300000
34.31846237 -24.47912025 -1.96361339 5 23 12690 42.20000000 3182384989 3182384989 -2.66700000
20.24490356 -15.99419975 -1.35215175 13 24 12691 25.83600000 3182384991 3182384991 -3.00000000
42.54480743 -33.62398529 4.42687845 38 26 12692 54.40800000 3182384993 3182384993 4.66700000
39.55643845 -25.41428566 -1.91552174 21 27 12692 47.05600000 3182384993 3182384993 -2.33300000
39.34828186 -34.36199188 -1.82426643 26 28 12693 52.27200000 3182384996 3182384996 -2.00000000
39.43472672 -28.17007637 -1.12770402 15 31 12694 48.47600000 3182384998 3182384998 -1.33300000
4.91721153 -3.89873147 -2.92620873 6 0 12701 6.92400000 3182385019 3182385019 -25.00000000
39.65415573 -25.56515503 -0.82354414 30 1 12701 47.18800000 3182385019 3182385019 -1.00000000
39.43605042 -31.27904701 -1.46488297 25 2 12702 50.35600000 3182385021 3182385021 -1.66700000
7.95641470 -5.70043516 -2.73996401 3 3 12702 10.16400000 3182385021 3182385021 -15.63900000
10.47456741 -8.31097412 -2.67425537 3 4 12703 13.63600000 3182385023 3182385023 -11.31000000
38.64681625 -27.69902229 0.00000000 25 5 12703 47.54800000 3182385023 3182385023 0.00000000
39.24937439 -34.39654541 -0.60757142 17 6 12703 52.19200000 3182385026 3182385026 -0.66700000
13.08466530 -9.37806702 -2.50452757 2 7 12703 16.29200000 3182385026 3182385026 -8.84300000
15.33157730 -12.16909504 -2.49152470 3 8 12704 19.73200000 3182385028 3182385028 -7.25400000
39.10506058 -25.24014854 0.27050972 19 9 12704 46.54400000 3182385028 3182385028 0.33300000
38.90002441 -30.88709068 -0.28868937 27 10 12705 49.67200000 3182385030 3182385030 -0.33300000
17.28946495 -12.40087605 -2.29187679 4 11 12705 21.40000000 3182385030 3182385030 -6.14800000
19.14588165 -16.79640007 -2.37750936 6 12 12706 25.58000000 3182385032 3182385032 -5.33300000
38.90777206 -27.91690445 1.11430442 26 13 12706 47.90000000 3182385032 3182385032 1.33300000
39.13816833 -34.34743118 0.60622102 38 14 12707 52.07600000 3182385035 3182385035 0.66700000
20.20514297 -14.50283146 -1.73916841 27 15 12707 24.93200000 3182385035 3182385035 -4.00000000
20.16426086 -16.02788925 -2.10278344 10 16 12708 25.84400000 3182385037 3182385037 -4.66700000
39.04132462 -25.23764038 1.35294259 57 17 12708 46.50800000 3182385037 3182385037 1.66700000
38.59993744 -30.68178368 0.86068290 27 18 12708 49.31600000 3182385039 3182385039 1.00000000
20.26501656 -13.09999466 -1.54649329 21 19 12708 24.18000000 3182385039 3182385039 -3.66700000
20.18991661 -17.73103333 -1.56486988 12 20 12709 26.91600000 3182385042 3182385042 -3.33300000
41.98057938 -30.15499687 3.01020598 31 21 12709 51.77600000 3182385042 3182385042 3.33300000
40.08949661 -31.88862610 2.08698082 38 22 12710 51.26800000 3182385044 3182385044 2.33300000
34.28472137 -24.63607216 -1.96659136 5 23 12710 42.26400000 3182385044 3182385044 -2.66700000
20.23583603 -16.10207748 -1.35529196 13 24 12711 25.89600000 3182385046 3182385046 -3.00000000
39.22257614 -25.39364815 -1.90363526 32 27 12712 46.76400000 3182385049 3182385049 -2.33300000
39.32715988 -34.58625412 -1.82887328 26 28 12713 52.40400000 3182385051 3182385051 -2.00000000
39.42874146 -28.36374283 -1.13021636 16 31 12713 48.58400000 3182385053 3182385053 -1.33300000
3.92168450 -3.12951922 -2.33961463 3 0 12719 5.53600000 3182385074 3182385074 -25.00000000
39.51661682 -25.65258598 -0.82235742 20 1 12719 47.12000000 3182385074 3182385074 -1.00000000
39.44383240 -31.48759651 -1.46883929 26 2 12720 50.49200000 3182385076 3182385076 -1.66700000
7.95096350 -5.73441553 -2.74427724 3 3 12720 10.18000000 3182385076 3182385076 -15.63900000
10.45453644 -8.34873486 -2.67582440 3 4 12721 13.64400000 3182385079 3182385079 -11.31000000
38.77694702 -27.97710419 0.00000000 25 5 12721 47.81600000 3182385079 3182385079 0.00000000
39.29105759 -34.66411209 -0.60999274 17 6 12722 52.40000000 3182385081 3182385081 -0.66700000
13.06631374 -9.43065834 -2.50698733 2 7 12722 16.30800000 3182385081 3182385081 -8.84300000
15.31497192 -12.23453712 -2.49506021 3 8 12722 19.76000000 3182385083 3182385083 -7.25400000
38.92495728 -25.29748535 0.26981229 28 9 12722 46.42400000 3182385083 3182385083 0.33300000
38.79654694 -31.00415039 -0.28864288 27 10 12723 49.66400000 3182385085 3182385085 -0.33300000
17.26654243 -12.46677208 -2.29401875 4 11 12723 21.42000000 3182385085 3182385085 -6.14800000
19.10197639 -16.86437416 -2.37862468 6 12 12724 25.59200000 3182385088 3182385088 -5.33300000
38.94630432 -28.13031578 1.11793351 26 13 12724 48.05600000 3182385088 3182385088 1.33300000
39.11701202 -34.54700089 0.60757142 39 14 12725 52.19200000 3182385090 3182385090 0.66700000
20.20152664 -14.59661674 -1.74279571 30 15 12725 24.98400000 3182385090 3182385090 -4.00000000
20.18852234 -16.15092850 -2.11059451 11 16 12726 25.94000000 3182385092 3182385092 -4.66700000
39.12604523 -25.46704292 1.35864425 19 17 12726 46.70400000 3182385092 3182385092 1.66700000
38.75403214 -31.01453209 0.86640728 27 18 12727 49.64400000 3182385095 3182385095 1.00000000
20.26829529 -13.19761848 -1.55007493 21 19 12727 24.23600000 3182385095 3182385095 -3.66700000
20.18797112 -17.84197235 -1.56905591 12 20 12727 26.98800000 3182385097 3182385097 -3.33300000
41.97947693 -30.35458946 3.01695013 32 21 12727 51.89200000 3182385097 3182385097 3.33300000
39.97663879 -32.00442123 2.08632946 25 22 12728 51.25200000 3182385099 3182385099 2.33300000
34.32046890 -24.82562256 -1.97310579 5 23 12728 42.40400000 3182385099 3182385099 -2.66700000
20.25374413 -16.22050476 -1.35989749 13 24 12729 25.98400000 3182385102 3182385102 -3.00000000
44.71790314 -32.35847092 6.77739811 20 25 12729 55.61200000 3182385102 3182385102 7.00000000
43.16716385 -34.58341980 4.51540279 41 26 12730 55.49600000 3182385104 3182385104 4.66700000
38.99528885 -25.42070961 -1.89647079 31 27 12730 46.58800000 3182385104 3182385104 -2.33300000
39.46377945 -34.92688370 -1.84032023 27 28 12731 52.73200000 3182385106 3182385106 -2.00000000
39.43660736 -28.55783463 -1.13300800 16 31 12731 48.70400000 3182385109 3182385109 -1.33300000
3.92769051 -3.15681577 -2.34975743 5 0 12739 5.56000000 3182385129 3182385129 -25.00000000
39.49711609 -25.83634377 -0.82382339 20 1 12739 47.20400000 3182385129 3182385129 -1.00000000
39.57361221 -31.81800270 -1.47779918 27 2 12740 50.80000000 3182385132 3182385132 -1.66700000
7.92778206 -5.75987053 -2.74319887 2 3 12740 10.17600000 3182385132 3182385132 -15.63900000
10.43144321 -8.39009380 -2.67739320 3 4 12741 13.65200000 3182385134 3182385134 -11.31000000
38.82141876 -28.21576500 0.00000000 17 5 12741 47.99200000 3182385134 3182385134 0.00000000
39.18476868 -34.81433487 -0.61022556 35 6 12742 52.42000000 3182385136 3182385136 -0.66700000
13.04929924 -9.48783207 -2.51006174 2 7 12742 16.32800000 3182385136 3182385136 -8.84300000
15.30617905 -12.31528378 -2.50061584 3 8 12742 19.80400000 3182385138 3182385138 -7.25400000
38.97360992 -25.52305031 0.27076542 29 9 12742 46.58800000 3182385138 3182385138 0.33300000
38.68497086 -31.13687897 -0.28861964 18 10 12743 49.66000000 3182385141 3182385141 -0.33300000
17.25186539 -12.54802132 -2.29787421 4 11 12743 21.45600000 3182385141 3182385141 -6.14800000
19.12633133 -17.00504494 -2.38903427 6 12 12744 25.70400000 3182385143 3182385143 -5.33300000
38.88991165 -28.29667854 1.11914313 26 13 12744 48.10800000 3182385143 3182385143 1.33300000
38.93043137 -34.62485504 0.60654700 39 14 12745 52.10400000 3182385145 3182385145 0.66700000
20.19884491 -14.70226765 -1.74698114 27 15 12745 25.04400000 3182385145 3182385145 -4.00000000
20.17548370 -16.25632095 -2.11515093 11 16 12746 25.99600000 3182385148 3182385148 -4.66700000
39.03691101 -25.60346222 1.35864425 28 17 12746 46.70400000 3182385148 3182385148 1.66700000
38.78488159 -31.25077438 0.86940908 27 18 12746 49.81600000 3182385150 3182385150 1.00000000
20.26447487 -13.29102993 -1.55314493 21 19 12746 24.28400000 3182385150 3182385150 -3.66700000
20.19417572 -17.97339439 -1.57440472 12 20 12747 27.08000000 3182385152 3182385152 -3.33300000
42.11211777 -30.67492104 3.03415918 22 21 12747 52.18800000 3182385152 3182385152 3.33300000
40.65182877 -32.77846909 2.12752533 29 22 12748 52.26400000 3182385155 3182385155 2.33300000
34.27558136 -24.97586250 -1.97552538 5 23 12748 42.45600000 3182385155 3182385155 -2.66700000
20.24363708 -16.32872391 -1.36303759 13 24 12749 26.04400000 3182385157 3182385157 -3.00000000
43.19200897 -34.85155869 4.53069925 42 26 12750 55.68400000 3182385159 3182385159 4.66700000
38.81612396 -25.49742889 -1.89207435 21 27 12750 46.48000000 3182385159 3182385159 -2.33300000
39.43413162 -35.14688110 -1.84464777 27 28 12751 52.85600000 3182385162 3182385162 -2.00000000
39.41421890 -28.75188065 -1.13524127 16 31 12751 48.80000000 3182385164 3182385164 -1.33300000
3.93299794 -3.18487883 -2.35990047 5 0 12760 5.58400000 3182385185 3182385185 -25.00000000
39.54572678 -26.07560349 -0.82682520 20 1 12760 47.37600000 3182385185 3182385185 -1.00000000
39.60896301 -32.08615494 -1.48350084 41 2 12761 50.99600000 3182385187 3182385187 -1.66700000
7.91283369 -5.79343987 -2.74535561 3 3 12761 10.18400000 3182385187 3182385187 -15.63900000
10.40976334 -8.43567848 -2.67974663 3 4 12762 13.66400000 3182385190 3182385190 -11.31000000
38.89200211 -28.48549652 0.00000000 17 5 12762 48.20800000 3182385190 3182385190 0.00000000
39.18819809 -35.06291580 -0.61218131 36 6 12762 52.58800000 3182385192 3182385192 -0.66700000
13.02885532 -9.54266644 -2.51252151 2 7 12762 16.34400000 3182385192 3182385192 -8.84300000
15.27943325 -12.38629341 -2.50364637 3 8 12763 19.82800000 3182385194 3182385194 -7.25400000
38.93988800 -25.70538902 0.27118388 19 9 12763 46.66000000 3182385194 3182385194 0.33300000
39.00864410 -31.63369370 -0.29189757 19 10 12764 50.22400000 3182385197 3182385197 -0.33300000
17.22821236 -12.62762547 -2.30087304 4 11 12764 21.48400000 3182385197 3182385197 -6.14800000
19.08464432 -17.09363174 -2.39163685 6 12 12765 25.73200000 3182385199 3182385199 -5.33300000
38.88591003 -28.51232910 1.12202775 26 13 12765 48.23200000 3182385199 3182385199 1.33300000
38.78538895 -34.75129318 0.60626763 38 14 12766 52.08000000 3182385201 3182385201 0.66700000
20.19308472 -14.81160259 -1.75116646 30 15 12766 25.10400000 3182385201 3182385201 -4.00000000
20.16838455 -16.37287521 -2.12068367 11 16 12767 26.06400000 3182385203 3182385203 -4.66700000
38.82940674 -25.67139626 1.35468805 28 17 12767 46.56800000 3182385203 3182385203 1.66700000
38.99921417 -31.65991211 0.87680888 43 18 12767 50.24000000 3182385206 3182385206 1.00000000
20.25891304 -13.39383221 -1.55647063 25 19 12767 24.33600000 3182385206 3182385206 -3.66700000
20.17870712 -18.09260750 -1.57835817 12 20 12768 27.14800000 3182385208 3182385208 -3.33300000
42.39213181 -31.11734200 3.06253099 22 21 12768 52.67600000 3182385208 3182385208 3.33300000
34.30297470 -25.18882370 -1.98241198 5 23 12769 42.60400000 3182385210 3182385210 -2.66700000
20.23635292 -16.44563675 -1.36659646 13 24 12770 26.11200000 3182385213 3182385213 -3.00000000
45.23867798 -36.77758789 4.75949621 25 26 12771 58.49600000 3182385215 3182385215 4.66700000
38.69242096 -25.61966705 -1.89060891 21 27 12771 46.44400000 3182385215 3182385215 -2.33300000
39.32884598 -35.31254196 -1.84576464 27 28 12772 52.88800000 3182385217 3182385217 -2.00000000
39.42456436 -28.98141479 -1.13859117 16 31 12772 48.94400000 3182385220 3182385220 -1.33300000
3.97523427 -3.24212193 -2.39201927 5 0 12780 5.66000000 3182385240 3182385240 -25.00000000
39.41115952 -26.18471336 -0.82591766 20 1 12780 47.32400000 3182385240 3182385240 -1.00000000
39.62374115 -32.32785034 -1.48827171 28 2 12781 51.16000000 3182385243 3182385243 -1.66700000
7.89566231 -5.82331181 -2.74643373 3 3 12781 10.18800000 3182385243 3182385243 -15.63900000
10.39240932 -8.48188400 -2.68288445 4 4 12782 13.68000000 3182385245 3182385245 -11.31000000
38.84383011 -28.65907669 0.00000000 26 5 12782 48.27200000 3182385245 3182385245 0.00000000
39.23196793 -35.34942627 -0.61478889 37 6 12782 52.81200000 3182385247 3182385247 -0.66700000
12.99546623 -9.58808804 -2.51252151 2 7 12782 16.34400000 3182385247 3182385247 -8.84300000
15.24532509 -12.44708157 -2.50516152 3 8 12783 19.84000000 3182385250 3182385250 -7.25400000
38.92652512 -25.89211082 0.27171859 19 9 12783 46.75200000 3182385250 3182385250 0.33300000
39.19538879 -32.01256943 -0.29412934 31 10 12784 50.60800000 3182385252 3182385252 -0.33300000
17.20322609 -12.70185947 -2.30344343 4 11 12784 21.50800000 3182385252 3182385252 -6.14800000
19.03964615 -17.17348480 -2.39349556 6 12 12785 25.75200000 3182385254 3182385254 -5.33300000
38.86656189 -28.70728874 1.12435412 26 13 12785 48.33200000 3182385254 3182385254 1.33300000
38.93704987 -35.13297653 0.61055154 59 14 12786 52.44800000 3182385256 3182385256 0.66700000
20.20223618 -14.92705250 -1.75646806 24 15 12786 25.18000000 3182385256 3182385256 -4.00000000
20.16666603 -16.48859978 -2.12654185 11 16 12787 26.13600000 3182385259 3182385259 -4.66700000
39.00576782 -25.98411560 1.36399698 19 17 12787 46.88800000 3182385259 3182385259 1.66700000
39.21666336 -32.06418991 0.88420874 45 18 12787 50.66400000 3182385261 3182385261 1.00000000
20.25854683 -13.49545097 -1.56005228 21 19 12787 24.39200000 3182385261 3182385261 -3.66700000
20.18063354 -18.22180939 -1.58347440 12 20 12788 27.23600000 3182385263 3182385263 -3.33300000
42.29930878 -31.27699852 3.06369376 34 21 12788 52.69600000 3182385263 3182385263 3.33300000
40.17186737 -32.86858749 2.11466169 28 22 12789 51.94800000 3182385266 3182385266 2.33300000
34.29193497 -25.36543655 -1.98687899 5 23 12789 42.70000000 3182385266 3182385266 -2.66700000
20.23446274 -16.56171608 -1.37036467 13 24 12790 26.18400000 3182385268 3182385268 -3.00000000
45.01131821 -36.85445786 4.74908161 51 26 12791 58.36800000 3182385270 3182385270 4.66700000
38.61272812 -25.76122665 -1.89109743 21 27 12791 46.45600000 3182385270 3182385270 -2.33300000
39.41586685 -35.63996887 -1.85567605 28 28 12792 53.17200000 3182385273 3182385273 -2.00000000
39.42278671 -29.19262886 -1.14147580 16 31 12792 49.06800000 3182385275 3182385275 -1.33300000
3.98687506 -3.27369094 -2.40554309 6 0 12799 5.69200000 3182385296 3182385296 -25.00000000
39.58337021 -26.48875427 -0.83136284 30 1 12799 47.63600000 3182385296 3182385296 -1.00000000
39.62445450 -32.54789352 -1.49234438 42 2 12800 51.30000000 3182385298 3182385298 -1.66700000
7.88867760 -5.85864925 -2.75074697 3 3 12800 10.20400000 3182385298 3182385298 -15.63900000
10.37634659 -8.52626038 -2.68602252 3 4 12801 13.69600000 3182385300 3182385300 -11.31000000
38.73252869 -28.77580261 0.00000000 26 5 12801 48.25200000 3182385300 3182385300 0.00000000
39.27450562 -35.62443924 -0.61730337 18 6 12801 53.02800000 3182385303 3182385303 -0.66700000
12.98580837 -9.64762974 -2.51682591 1 7 12801 16.37200000 3182385303 3182385303 -8.84300000
15.22235680 -12.51268673 -2.50819206 3 8 12802 19.86400000 3182385305 3182385305 -7.25400000
38.78063202 -25.98097992 0.27130014 29 9 12802 46.68000000 3182385305 3182385305 0.33300000
39.14462662 -32.18809891 -0.29454780 31 10 12803 50.68000000 3182385307 3182385307 -0.33300000
17.18654251 -12.77782059 -2.30687046 4 11 12803 21.54000000 3182385307 3182385307 -6.14800000
19.00617981 -17.25794601 -2.39646983 6 12 12804 25.78400000 3182385309 3182385309 -5.33300000
38.77436066 -28.83840370 1.12444711 17 13 12804 48.33600000 3182385309 3182385309 1.33300000
38.94467926 -35.37485504 0.61250722 40 14 12805 52.61600000 3182385312 3182385312 0.66700000
20.19424248 -15.02492809 -1.76009536 27 15 12805 25.23200000 3182385312 3182385312 -4.00000000
20.16420364 -16.59845734 -2.13207459 18 16 12806 26.20400000 3182385314 3182385314 -4.66700000
39.06547546 -26.21133995 1.36911690 28 17 12806 47.06400000 3182385314 3182385314 1.66700000
39.24960709 -32.32037735 0.88748980 45 18 12807 50.85200000 3182385316 3182385316 1.00000000
20.25771713 -13.59722996 -1.56363392 21 19 12807 24.44800000 3182385316 3182385316 -3.66700000
20.17624092 -18.33966446 -1.58789289 12 20 12807 27.31200000 3182385319 3182385319 -3.33300000
42.09606934 -31.34316826 3.05648470 67 21 12807 52.57200000 3182385319 3182385319 3.33300000
40.22923279 -33.13883972 2.12345457 43 22 12808 52.16400000 3182385321 3182385321 2.33300000
34.30376816 -25.55061722 -1.99246275 5 23 12808 42.82000000 3182385321 3182385321 -2.66700000
20.22875404 -16.66937065 -1.37371421 13 24 12809 26.24800000 3182385323 3182385323 -3.00000000
43.91473389 -32.72111511 6.72426271 19 25 12809 55.17600000 3182385323 3182385323 7.00000000
43.63066483 -35.96634293 4.61596918 45 26 12810 56.73200000 3182385326 3182385326 4.66700000
38.63987732 -25.96492004 -1.89663363 21 27 12810 46.59200000 3182385326 3182385326 -2.33300000
39.41275787 -35.87542725 -1.86112034 28 28 12811 53.32800000 3182385328 3182385328 -2.00000000
39.41552734 -29.39013100 -1.14408123 16 31 12811 49.18000000 3182385330 3182385330 -1.33300000
3.98602295 -3.29752493 -2.41230512 9 0 12820 5.70800000 3182385351 3182385351 -25.00000000
39.64848709 -26.74324036 -0.83478349 20 1 12820 47.83200000 3182385351 3182385351 -1.00000000
39.48949432 -32.68016052 -1.49176264 28 2 12821 51.28000000 3182385353 3182385353 -1.66700000
7.87331963 -5.89213896 -2.75290370 3 3 12821 10.21200000 3182385353 3182385353 -15.63900000
10.35711193 -8.57423973 -2.68916035 3 4 12822 13.71200000 3182385355 3182385355 -11.31000000
38.62359619 -28.91517448 0.00000000 17 5 12822 48.24800000 3182385355 3182385355 0.00000000
39.24961472 -35.87752533 -0.61907279 38 6 12823 53.18000000 3182385358 3182385358 -0.66700000
12.96448612 -9.70926666 -2.51990032 1 7 12823 16.39200000 3182385358 3182385358 -8.84300000
15.19167328 -12.58104897 -2.51071739 3 8 12823 19.88400000 3182385360 3182385360 -7.25400000
38.69840622 -26.13189697 0.27139312 29 9 12823 46.69600000 3182385360 3182385360 0.33300000
38.99558640 -32.30583572 -0.29431531 21 10 12824 50.64000000 3182385362 3182385362 -0.33300000
17.15869141 -12.85503387 -2.30944085 4 11 12824 21.56400000 3182385362 3182385362 -6.14800000
18.97512436 -17.35705948 -2.40055943 6 12 12825 25.82800000 3182385365 3182385365 -5.33300000
38.86999893 -29.13141441 1.13030946 26 13 12825 48.58800000 3182385365 3182385365 1.33300000
38.88262939 -35.57946014 0.61357820 40 14 12826 52.70800000 3182385367 3182385367 0.66700000
20.19011879 -15.13714027 -1.76455975 27 15 12826 25.29600000 3182385367 3182385367 -4.00000000
20.15846825 -16.71806145 -2.13793278 11 16 12827 26.27600000 3182385369 3182385369 -4.66700000
39.14799118 -26.47529984 1.37540042 19 17 12827 47.28000000 3182385369 3182385369 1.66700000
39.18888092 -32.50058746 0.88867652 46 18 12827 50.92000000 3182385372 3182385372 1.00000000
20.24650383 -13.69245815 -1.56644809 21 19 12827 24.49200000 3182385372 3182385372 -3.66700000
20.17367744 -18.47281837 -1.59300923 12 20 12828 27.40000000 3182385374 3182385374 -3.33300000
41.68704224 -31.27676964 3.03508949 33 21 12828 52.20400000 3182385374 3182385374 3.33300000
41.62371826 -34.54440689 2.20372939 36 22 12829 54.13600000 3182385376 3182385376 2.33300000
34.28339005 -25.73134232 -1.99674356 5 23 12829 42.91200000 3182385376 3182385376 -2.66700000
20.23513794 -16.79953384 -1.37831974 13 24 12830 26.33600000 3182385379 3182385379 -3.00000000
40.87937164 -33.95076370 4.33802843 17 26 12831 53.31600000 3182385381 3182385381 4.66700000
38.62717819 -26.16239929 -1.90070438 21 27 12831 46.69200000 3182385381 3182385381 -2.33300000
39.33403778 -36.06827164 -1.86363316 28 28 12832 53.40000000 3182385383 3182385383 -2.00000000
39.39508820 -29.61093712 -1.14677978 16 31 12833 49.29600000 3182385385 3182385385 -1.33300000
3.98342276 -3.31768513 -2.41737652 9 0 12839 5.72000000 3182385406 3182385406 -25.00000000
39.45702744 -26.80490303 -0.83261943 20 1 12839 47.70800000 3182385406 3182385406 -1.00000000
39.51913834 -32.92610550 -1.49699891 29 2 12840 51.46000000 3182385408 3182385408 -1.66700000
7.85681343 -5.92053366 -2.75398183 3 3 12840 10.21600000 3182385408 3182385408 -15.63900000
10.33163548 -8.61104965 -2.68994474 4 4 12841 13.71600000 3182385411 3182385411 -11.31000000
38.88204575 -29.31036377 0.00000000 26 5 12841 48.69200000 3182385411 3182385411 0.00000000
38.98326111 -35.87207031 -0.61674458 37 6 12842 52.98000000 3182385413 3182385413 -0.66700000
12.93852997 -9.75696468 -2.52113008 1 7 12842 16.40000000 3182385413 3182385413 -8.84300000
15.17425156 -12.65168571 -2.51475787 3 8 12842 19.91600000 3182385415 3182385415 -7.25400000
38.80998611 -26.39504814 0.27278799 19 9 12842 46.93600000 3182385415 3182385415 0.33300000
38.92203140 -32.46315765 -0.29457104 21 10 12843 50.68400000 3182385418 3182385418 -0.33300000
17.14771652 -12.93581390 -2.31372452 4 11 12843 21.60400000 3182385418 3182385418 -6.14800000
18.98191643 -17.47924042 -2.40873837 6 12 12844 25.91600000 3182385420 3182385420 -5.33300000
38.99023819 -29.42395210 1.13663697 27 13 12844 48.86000000 3182385420 3182385420 1.33300000
39.02331161 -35.94667435 0.61767590 41 14 12845 53.06000000 3182385422 3182385422 0.66700000
20.19076729 -15.24247742 -1.76902413 25 15 12845 25.36000000 3182385422 3182385422 -4.00000000
20.15800285 -16.83081055 -2.14379120 11 16 12846 26.34800000 3182385425 3182385425 -4.66700000
39.14259338 -26.66124344 1.37830949 29 17 12846 47.38000000 3182385425 3182385425 1.66700000
39.07781982 -32.62779999 0.88860673 46 18 12846 50.91600000 3182385427 3182385427 1.00000000
20.25047493 -13.79323006 -1.57028556 22 19 12846 24.55200000 3182385427 3182385427 -3.66700000
20.17396736 -18.59645271 -1.59789288 12 20 12847 27.48400000 3182385429 3182385429 -3.33300000
41.51937103 -31.36669350 3.03043842 21 21 12847 52.12400000 3182385429 3182385429 3.33300000
40.54282761 -33.87502670 2.15243816 47 22 12848 52.87600000 3182385432 3182385432 2.33300000
34.28712845 -25.91234207 -2.00195503 5 23 12848 43.02400000 3182385432 3182385432 -2.66700000
20.23142052 -16.91009331 -1.38187861 13 24 12849 26.40400000 3182385434 3182385434 -3.00000000
44.30828857 -37.04748154 4.71490860 24 26 12850 57.94800000 3182385436 3182385436 4.66700000
38.61284637 -26.33989716 -1.90428662 21 27 12850 46.78000000 3182385436 3182385436 -2.33300000
39.44626999 -36.41271973 -1.87466133 29 28 12851 53.71600000 3182385438 3182385438 -2.00000000
39.39116287 -29.80211067 -1.14938521 16 31 12851 49.40800000 3182385441 3182385441 -1.33300000
3.97459507 -3.33389926 -2.41906691 9 0 12859 5.72400000 3182385461 3182385461 -25.00000000
39.64375305 -27.13448143 -0.83855325 20 1 12859 48.04800000 3182385461 3182385461 -1.00000000
39.48053360 -33.12810135 -1.49990797 29 2 12860 51.56000000 3182385464 3182385464 -1.66700000
7.84530354 -5.95490980 -2.75721669 4 3 12860 10.22800000 3182385464 3182385464 -15.63900000
10.27748013 -8.62688732 -2.68366909 3 4 12861 13.68400000 3182385466 3182385466 -11.31000000
38.55649567 -29.27658272 0.00000000 26 5 12861 48.41200000 3182385466 3182385466 0.00000000
38.89343262 -36.02832413 -0.61721021 37 6 12861 53.02000000 3182385468 3182385468 -0.66700000
12.92184258 -9.81176758 -2.52420473 1 7 12861 16.42000000 3182385468 3182385468 -8.84300000
15.16038322 -12.73009300 -2.51980877 3 8 12862 19.95600000 3182385471 3182385471 -7.25400000
38.81660461 -26.59819031 0.27348542 19 9 12862 47.05600000 3182385471 3182385471 0.33300000
38.89423370 -32.67085648 -0.29522195 21 10 12863 50.79600000 3182385473 3182385473 -0.33300000
17.13095665 -13.01724720 -2.31758022 4 11 12863 21.64000000 3182385473 3182385473 -6.14800000
18.94123077 -17.56435013 -2.41134095 6 12 12864 25.94400000 3182385475 3182385475 -5.33300000
38.95096207 -29.60827255 1.13849807 27 13 12864 48.94000000 3182385475 3182385475 1.33300000
38.99143219 -36.16971588 0.61916596 62 14 12865 53.18800000 3182385478 3182385478 0.66700000
20.18190384 -15.34667683 -1.77293050 25 15 12865 25.41600000 3182385478 3182385478 -4.00000000
20.15100288 -16.94469070 -2.14932394 11 16 12866 26.41600000 3182385480 3182385480 -4.66700000
39.12511444 -26.84974861 1.38098586 29 17 12866 47.47200000 3182385480 3182385480 1.66700000
38.93307877 -32.73826981 0.88790864 30 18 12866 50.87600000 3182385482 3182385482 1.00000000
20.26473808 -13.90674877 -1.57514632 22 19 12866 24.62800000 3182385482 3182385482 -3.66700000
20.16453552 -18.71837807 -1.60231137 12 20 12867 27.56000000 3182385485 3182385485 -3.33300000
41.70198441 -31.73390579 3.05183339 22 21 12867 52.49200000 3182385485 3182385485 3.33300000
34.35225296 -26.15045929 -2.01107526 5 23 12868 43.22000000 3182385487 3182385487 -2.66700000
20.22422028 -17.02434349 -1.38543749 13 24 12869 26.47200000 3182385489 3182385489 -3.00000000
43.80657196 -33.35958481 6.76082373 20 25 12869 55.47600000 3182385489 3182385489 7.00000000
41.40361786 -34.86508179 4.41874170 57 26 12870 54.30800000 3182385491 3182385491 4.66700000
38.59313202 -26.52432442 -1.90786886 21 27 12870 46.86800000 3182385491 3182385491 -2.33300000
39.48581696 -36.70532990 -1.88261843 29 28 12871 53.94400000 3182385494 3182385494 -2.00000000
39.38979340 -30.02871513 -1.15254903 16 31 12872 49.54400000 3182385496 3182385496 -1.33300000
3.96788692 -3.35312438 -2.42244792 10 0 12880 5.73200000 3182385517 3182385517 -25.00000000
39.11277390 -26.98209572 -0.82940817 20 1 12880 47.52400000 3182385517 3182385517 -1.00000000
39.42297363 -33.32678986 -1.50235152 29 2 12881 51.64400000 3182385519 3182385519 -1.66700000
7.82342529 -5.98362398 -2.75721669 3 3 12881 10.22800000 3182385519 3182385519 -15.63900000
10.26076698 -8.67716122 -2.68759131 4 4 12882 13.70400000 3182385521 3182385521 -11.31000000
38.83650589 -29.71423721 0.00000000 27 5 12882 48.90000000 3182385521 3182385521 0.00000000
39.03307724 -36.42441559 -0.62154073 38 6 12882 53.39200000 3182385524 3182385524 -0.66700000
12.89521122 -9.86626720 -2.52604938 1 7 12882 16.43200000 3182385524 3182385524 -8.84300000
15.11968231 -12.79069901 -2.52081871 3 8 12883 19.96400000 3182385526 3182385526 -7.25400000
38.67935944 -26.71300316 0.27320644 29 9 12883 47.00800000 3182385526 3182385526 0.33300000
39.14673615 -33.12842941 -0.29805818 23 10 12884 51.28400000 3182385528 3182385528 -0.33300000
17.10523605 -13.09687233 -2.32057881 4 11 12884 21.66800000 3182385528 3182385528 -6.14800000
18.89127731 -17.64724922 -2.41319990 6 12 12885 25.96400000 3182385531 3182385531 -5.33300000
38.92472458 -29.81405830 1.14091742 27 13 12885 49.04400000 3182385531 3182385531 1.33300000
39.00179672 -36.44619751 0.62144756 62 14 12886 53.38400000 3182385533 3182385533 0.66700000
20.18253326 -15.46422863 -1.77795303 25 15 12886 25.48800000 3182385533 3182385533 -4.00000000
20.14655876 -17.06739616 -2.15550756 11 16 12887 26.49200000 3182385535 3182385535 -4.66700000
39.16455460 -27.08849525 1.38587308 19 17 12887 47.64000000 3182385535 3182385535 1.66700000
38.76705170 -32.84196854 0.88686150 30 18 12887 50.81600000 3182385538 3182385538 1.00000000
20.24974442 -14.00590801 -1.57796037 26 19 12887 24.67200000 3182385538 3182385538 -3.66700000
20.16871071 -18.86034584 -1.60812533 12 20 12888 27.66000000 3182385540 3182385540 -3.33300000
40.87239456 -31.33982849 2.99950838 31 21 12888 51.59200000 3182385540 3182385540 3.33300000
34.28787994 -26.30051041 -2.01293635 5 23 12889 43.26000000 3182385542 3182385542 -2.66700000
20.22566414 -17.15261078 -1.38983369 13 24 12890 26.55600000 3182385544 3182385544 -3.00000000
38.60407639 -26.74069786 -1.91324222 21 27 12891 47.00000000 3182385547 3182385547 -2.33300000
39.50275040 -36.99189377 -1.88987756 30 28 12892 54.15200000 3182385549 3182385549 -2.00000000
39.39680481 -30.26301956 -1.15599191 16 31 12893 49.69200000 3182385551 3182385551 -1.33300000
3.96285629 -3.37027049 -2.42582893 10 0 12898 5.74000000 3182385572 3182385572 -25.00000000
39.28075027 -27.28050423 -0.83478349 20 1 12898 47.83200000 3182385572 3182385572 -1.00000000
39.43379974 -33.54892731 -1.50677335 30 2 12899 51.79600000 3182385574 3182385574 -1.66700000
7.81374502 -6.01522160 -2.76045179 3 3 12899 10.24000000 3182385574 3182385574 -15.63900000
10.24839115 -8.72206497 -2.69151378 4 4 12900 13.72400000 3182385577 3182385577 -11.31000000
38.64471817 -29.76044083 0.00000000 27 5 12900 48.77600000 3182385577 3182385577 0.00000000
38.76975632 -36.40722275 -0.61916596 38 6 12900 53.18800000 3182385579 3182385579 -0.66700000
12.88607216 -9.92361164 -2.53035378 1 7 12900 16.46000000 3182385579 3182385579 -8.84300000
15.11265945 -12.86643028 -2.52637458 3 8 12901 20.00800000 3182385581 3182385581 -7.25400000
38.67734909 -26.89147186 0.27378762 19 9 12901 47.10800000 3182385581 3182385581 0.33300000
39.13686752 -33.33164978 -0.29877886 24 10 12902 51.40800000 3182385584 3182385584 -0.33300000
17.15220833 -13.21851921 -2.33257365 4 11 12902 21.78000000 3182385584 3182385584 -6.14800000
18.87346840 -17.74197197 -2.41803288 6 12 12903 26.01600000 3182385586 3182385586 -5.33300000
38.84037018 -29.94352150 1.14119661 18 13 12903 49.05600000 3182385586 3182385586 1.33300000
39.00656891 -36.68088531 0.62335670 63 14 12904 53.54800000 3182385588 3182385588 0.66700000
20.18756676 -15.56898403 -1.78269649 23 15 12904 25.55600000 3182385588 3182385588 -4.00000000
20.15958405 -17.18750763 -2.16266775 23 16 12905 26.58000000 3182385591 3182385591 -4.66700000
39.17441559 -27.27765846 1.38924754 29 17 12905 47.75600000 3182385591 3182385591 1.66700000
38.61194611 -32.91948700 0.88567472 30 18 12905 50.74800000 3182385593 3182385593 1.00000000
20.24822998 -14.09910870 -1.58128619 22 19 12905 24.72400000 3182385593 3182385593 -3.66700000
20.15879822 -18.97013664 -1.61207879 12 20 12906 27.72800000 3182385595 3182385595 -3.33300000
39.42262268 -33.63441849 2.11124229 28 22 12907 51.86400000 3182385597 3182385597 2.33300000
34.31578445 -26.49356270 -2.01945066 5 23 12907 43.40000000 3182385597 3182385597 -2.66700000
20.21725273 -17.25496292 -1.39297378 13 24 12908 26.61600000 3182385600 3182385600 -3.00000000
41.06225204 -35.05808640 4.40767622 37 26 12909 54.17200000 3182385602 3182385602 4.66700000
38.65428543 -26.95557404 -1.91991818 21 27 12909 47.16400000 3182385602 3182385602 -2.33300000
39.50853348 -37.23096085 -1.89574063 30 28 12910 54.32000000 3182385604 3182385604 -2.00000000
39.37746429 -30.44534111 -1.15822518 16 31 12911 49.78800000 3182385607 3182385607 -1.33300000
3.95598292 -3.38948989 -2.42920971 10 0 12919 5.74800000 3182385627 3182385627 -25.00000000
39.67525482 -27.77059364 -0.84532475 20 1 12919 48.43600000 3182385627 3182385627 -1.00000000
39.30146408 -33.68542862 -1.50642419 30 2 12920 51.78400000 3182385630 3182385630 -1.66700000
7.79468966 -6.04618073 -2.76152992 3 3 12920 10.24400000 3182385630 3182385630 -15.63900000
10.22528744 -8.76722717 -2.69386721 4 4 12921 13.73600000 3182385632 3182385632 -11.31000000
38.75027466 -30.06862831 0.00000000 27 5 12921 49.04800000 3182385632 3182385632 0.00000000
38.85397720 -36.75522995 -0.62265825 39 6 12921 53.48800000 3182385634 3182385634 -0.66700000
12.85273647 -9.97319794 -2.53096867 1 7 12921 16.46400000 3182385634 3182385634 -8.84300000
15.08045959 -12.93465042 -2.52889991 3 8 12922 20.02800000 3182385637 3182385637 -7.25400000
38.71283340 -27.12716293 0.27474079 29 9 12922 47.27200000 3182385637 3182385637 0.33300000
39.14800644 -33.58947372 -0.29980177 24 10 12923 51.58400000 3182385639 3182385639 -0.33300000
17.10992622 -13.28617477 -2.33343053 4 11 12923 21.78800000 3182385639 3182385639 -6.14800000
18.88928413 -17.88770485 -2.42844272 6 12 12924 26.12800000 3182385641 3182385641 -5.33300000
38.77772903 -30.12247467 1.14259243 27 13 12924 49.11600000 3182385641 3182385641 1.33300000
38.89799881 -36.84836197 0.62377578 63 14 12925 53.58400000 3182385643 3182385643 0.66700000
20.17762947 -15.67959595 -1.78688180 23 15 12925 25.61600000 3182385643 3182385643 -4.00000000
20.14181709 -17.30024529 -2.16754961 15 16 12926 26.64000000 3182385646 3182385646 -4.66700000
39.19527054 -27.50603676 1.39355290 19 17 12926 47.90400000 3182385646 3182385646 1.66700000
38.58508301 -33.14156723 0.88783884 15 18 12926 50.87200000 3182385648 3182385648 1.00000000
20.25196648 -14.21220875 -1.58563530 22 19 12926 24.79200000 3182385648 3182385648 -3.66700000
20.15578842 -19.10708046 -1.61742759 13 20 12927 27.82000000 3182385650 3182385650 -3.33300000
40.71171188 -31.65898323 3.00346184 21 21 12927 51.66000000 3182385650 3182385650 3.33300000
39.26877213 -33.75263214 2.10961413 41 22 12928 51.82400000 3182385653 3182385653 2.33300000
34.28467941 -26.67067909 -2.02335930 5 23 12928 43.48400000 3182385653 3182385653 -2.66700000
20.22656631 -17.39145088 -1.39799809 13 24 12929 26.71200000 3182385655 3182385655 -3.00000000
40.92441559 -35.20055008 4.40669966 37 26 12930 54.16000000 3182385657 3182385657 4.66700000
38.66640472 -27.17520523 -1.92545438 22 27 12930 47.30000000 3182385657 3182385657 -2.33300000
39.36311340 -37.36725998 -1.89532185 30 28 12931 54.30800000 3182385660 3182385660 -2.00000000
39.38548660 -30.68285179 -1.16176116 25 31 12932 49.94000000 3182385662 3182385662 -1.33300000
3.94961667 -3.40801501 -2.43259072 10 0 12939 5.75600000 3182385683 3182385683 -25.00000000
39.59441757 -27.92044067 -0.84567380 10 1 12939 48.45600000 3182385683 3182385683 -1.00000000
39.45907211 -34.06015778 -1.51701319 31 2 12940 52.14800000 3182385685 3182385685 -1.66700000
7.77960777 -6.07809544 -2.76368666 3 3 12940 10.25200000 3182385685 3182385685 -15.63900000
10.20352745 -8.81055737 -2.69622040 3 4 12941 13.74800000 3182385687 3182385687 -11.31000000
38.66714096 -30.22095108 0.00000000 27 5 12941 49.07600000 3182385687 3182385687 0.00000000
38.98608398 -37.13892365 -0.62684906 40 6 12941 53.84800000 3182385690 3182385690 -0.66700000
12.82718754 -10.02530289 -2.53281355 2 7 12941 16.47600000 3182385690 3182385690 -8.84300000
15.05023098 -13.00018215 -2.53142524 3 8 12942 20.04800000 3182385692 3182385692 -7.25400000
38.71920776 -27.33364105 0.27546147 29 9 12942 47.39600000 3182385692 3182385692 0.33300000
39.03960037 -33.73376465 -0.29987150 36 10 12943 51.59600000 3182385694 3182385694 -0.33300000
17.07910919 -13.35806942 -2.33557248 4 11 12943 21.80800000 3182385694 3182385694 -6.14800000
18.84402275 -17.97002220 -2.43067336 6 12 12944 26.15200000 3182385696 3182385696 -5.33300000
38.72588730 -30.29954338 1.14417434 27 13 12944 49.18400000 3182385696 3182385696 1.33300000
38.80097198 -37.01428604 0.62428802 42 14 12945 53.62800000 3182385699 3182385699 0.66700000
20.17305183 -15.78928375 -1.79134619 23 15 12945 25.68000000 3182385699 3182385699 -4.00000000
20.14462471 -17.42522049 -2.17438412 11 16 12946 26.72400000 3182385701 3182385701 -4.66700000
39.14798737 -27.67730904 1.39529836 19 17 12946 47.96400000 3182385701 3182385701 1.66700000
39.44616699 -34.12116623 0.91038734 51 18 12946 52.16400000 3182385703 3182385703 1.00000000
20.25438499 -14.31968498 -1.58972859 22 19 12946 24.85600000 3182385703 3182385703 -3.66700000
20.15540314 -19.24073982 -1.62277639 13 20 12947 27.91200000 3182385706 3182385706 -3.33300000
40.34945679 -31.60391426 2.98485732 31 21 12947 51.34000000 3182385706 3182385706 3.33300000
39.11747360 -33.86072540 2.10782290 41 22 12948 51.78000000 3182385708 3182385708 2.33300000
34.31403351 -26.88630295 -2.03061819 5 23 12948 43.64000000 3182385708 3182385708 -2.66700000
20.21707153 -17.50640106 -1.40155685 13 24 12949 26.78000000 3182385710 3182385710 -3.00000000
40.85854721 -35.39278412 4.41288376 37 26 12950 54.23600000 3182385713 3182385713 4.66700000
38.70178223 -27.40239143 -1.93196750 33 27 12950 47.46000000 3182385713 3182385713 -2.33300000
39.35958099 -37.62597656 -1.90146422 31 28 12951 54.48400000 3182385715 3182385715 -2.00000000
39.35903549 -30.87252235 -1.16399443 17 31 12951 50.03600000 3182385717 3182385717 -1.33300000
3.95197773 -3.43298078 -2.44104314 9 0 12958 5.77600000 3182385738 3182385738 -25.00000000
39.20813751 -27.84317970 -0.83939093 30 1 12958 48.09600000 3182385738 3182385738 -1.00000000
39.41833878 -34.25376129 -1.51980591 31 2 12959 52.24400000 3182385740 3182385740 -1.66700000
7.76849174 -6.11100483 -2.76692152 3 3 12959 10.26400000 3182385740 3182385740 -15.63900000
10.18313599 -8.85206509 -2.69857383 3 4 12960 13.76000000 3182385743 3182385743 -11.31000000
38.59186172 -30.36879921 0.00000000 27 5 12960 49.10800000 3182385743 3182385743 0.00000000
38.69168472 -37.11695480 -0.62419486 39 6 12961 53.62000000 3182385745 3182385745 -0.66700000
12.80453682 -10.07979584 -2.53527308 1 7 12961 16.49200000 3182385745 3182385745 -8.84300000
15.03997517 -13.07866001 -2.53698111 3 8 12961 20.09200000 3182385747 3182385747 -7.25400000
38.62509155 -27.45957184 0.27543822 29 9 12961 47.39200000 3182385747 3182385747 0.33300000
39.09048462 -34.00480270 -0.30112687 25 10 12962 51.81200000 3182385749 3182385749 -0.33300000
17.05346489 -13.42939472 -2.33814287 4 11 12962 21.83200000 3182385749 3182385749 -6.14800000
18.81018639 -18.05723572 -2.43401933 6 12 12963 26.18800000 3182385752 3182385752 -5.33300000
38.90163040 -30.64556122 1.15236294 18 13 12963 49.53600000 3182385752 3182385752 1.33300000
38.77898407 -37.23971558 0.62591773 42 14 12964 53.76800000 3182385754 3182385754 0.66700000
20.18012810 -15.90301991 -1.79664779 25 15 12964 25.75600000 3182385754 3182385754 -4.00000000
20.13784218 -17.53643608 -2.17991686 11 16 12965 26.79200000 3182385756 3182385756 -4.66700000
39.16999054 -27.88814163 1.39937103 30 17 12965 48.10400000 3182385756 3182385756 1.66700000
39.17604065 -34.12730408 0.90689683 33 18 12966 51.96400000 3182385759 3182385759 1.00000000
20.24004173 -14.41577244 -1.59254277 22 19 12966 24.90000000 3182385759 3182385759 -3.66700000
20.15195084 -19.36557770 -1.62766004 13 20 12966 27.99600000 3182385761 3182385761 -3.33300000
40.28833008 -31.77216339 2.98811316 31 21 12966 51.39600000 3182385761 3182385761 3.33300000
39.64978409 -34.55216599 2.14266849 30 22 12967 52.63600000 3182385763 3182385763 2.33300000
34.30938721 -27.06676292 -2.03564358 6 23 12967 43.74800000 3182385763 3182385763 -2.66700000
20.21310616 -17.62059402 -1.40532506 13 24 12968 26.85200000 3182385766 3182385766 -3.00000000
40.93626404 -35.69839859 4.43403816 38 26 12969 54.49600000 3182385768 3182385768 4.66700000
38.66276932 -27.56770515 -1.93457282 11 27 12969 47.52400000 3182385768 3182385768 -2.33300000
39.31524277 -37.83390427 -1.90537298 31 28 12970 54.59600000 3182385770 3182385770 -2.00000000
39.38511276 -31.10448837 -1.16780961 25 31 12970 50.20000000 3182385773 3182385773 -1.33300000
3.94755292 -3.45460463 -2.44611454 9 0 12979 5.78800000 3182385793 3182385793 -25.00000000
38.98873901 -27.90290451 -0.83687782 10 1 12979 47.95200000 3182385793 3182385793 -1.00000000
39.46701431 -34.55075836 -1.52655482 32 2 12980 52.47600000 3182385796 3182385796 -1.66700000
7.75509739 -6.14661455 -2.77015638 3 3 12980 10.27600000 3182385796 3182385796 -15.63900000
10.16242599 -8.89966488 -2.70171189 3 4 12981 13.77600000 3182385798 3182385798 -11.31000000
38.52417374 -30.54483414 0.00000000 27 5 12981 49.16400000 3182385798 3182385798 0.00000000
38.67330551 -37.37247467 -0.62610400 39 6 12982 53.78400000 3182385800 3182385800 -0.66700000
12.77989292 -10.13648415 -2.53773284 1 7 12982 16.50800000 3182385800 3182385800 -8.84300000
15.00686169 -13.14676952 -2.53950644 3 8 12982 20.11200000 3182385802 3182385802 -7.25400000
38.76480103 -27.77334404 0.27715853 19 9 12982 47.68800000 3182385802 3182385802 0.33300000
39.01071167 -34.18739319 -0.30147558 25 10 12983 51.87200000 3182385805 3182385805 -0.33300000
17.02282143 -13.50664043 -2.34071302 4 11 12983 21.85600000 3182385805 3182385805 -6.14800000
18.82403946 -18.20357895 -2.44442892 6 12 12984 26.30000000 3182385807 3182385807 -5.33300000
38.64810181 -30.67606163 1.14817560 27 13 12984 49.35600000 3182385807 3182385807 1.33300000
38.70260239 -37.43999481 0.62689561 43 14 12985 53.85200000 3182385809 3182385809 0.66700000
20.16857910 -16.01409531 -1.80083311 23 15 12985 25.81600000 3182385809 3182385809 -4.00000000
20.12737656 -17.65745163 -2.18577528 11 16 12986 26.86400000 3182385812 3182385812 -4.66700000
39.06426239 -28.02918816 1.39925468 20 17 12986 48.10000000 3182385812 3182385812 1.66700000
39.33026123 -34.50385666 0.91324955 34 18 12986 52.32800000 3182385814 3182385814 1.00000000
20.23500443 -14.51891518 -1.59612441 22 19 12986 24.95600000 3182385814 3182385814 -3.66700000
20.14395905 -19.50041199 -1.63277626 13 20 12987 28.08400000 3182385816 3182385816 -3.33300000
40.13721848 -31.89228821 2.98555493 20 21 12987 51.35200000 3182385816 3182385816 3.33300000
34.26938248 -27.23957062 -2.03918004 6 23 12988 43.82400000 3182385819 3182385819 -2.66700000
20.21441841 -17.75255013 -1.40993071 14 24 12989 26.94000000 3182385821 3182385821 -3.00000000
40.66138458 -35.72189713 4.41841650 57 26 12990 54.30400000 3182385823 3182385823 4.66700000
38.61339951 -27.74654198 -1.93717802 22 27 12990 47.58800000 3182385823 3182385823 -2.33300000
39.38584137 -38.18086624 -1.91556358 31 28 12991 54.88800000 3182385826 3182385826 -2.00000000
39.38036346 -31.33577919 -1.17106652 25 31 12991 50.34000000 3182385828 3182385828 -1.33300000
3.93818998 -3.47076011 -2.44780493 8 0 12999 5.79200000 3182385848 3182385848 -25.00000000
39.42314529 -28.42241096 -0.84832656 20 1 12999 48.60800000 3182385848 3182385848 -1.00000000
39.45114136 -34.78085709 -1.53062749 32 2 13000 52.61600000 3182385850 3182385850 -1.66700000
7.73660517 -6.17605066 -2.77123475 3 3 13000 10.28000000 3182385850 3182385850 -15.63900000
10.14600658 -8.94805622 -2.70563412 3 4 13001 13.79600000 3182385853 3182385853 -11.31000000
38.68299866 -30.89128685 0.00000000 18 5 13001 49.50400000 3182385853 3182385853 0.00000000
38.70111084 -37.64833069 -0.62857193 40 6 13001 53.99600000 3182385855 3182385855 -0.66700000
12.76165199 -10.19114017 -2.54080725 1 7 13001 16.52800000 3182385855 3182385855 -8.84300000
14.97575665 -13.21219921 -2.54203176 3 8 13002 20.13200000 3182385857 3182385857 -7.25400000
38.81357193 -28.01383209 0.27820468 30 9 13002 47.86800000 3182385857 3182385857 0.33300000
39.01409912 -34.43187714 -0.30242875 39 10 13003 52.03600000 3182385860 3182385860 -0.33300000
17.05324173 -13.62804890 -2.35142279 4 11 13003 21.95600000 3182385860 3182385860 -6.14800000
18.77465057 -18.28306961 -2.44628787 6 12 13004 26.32000000 3182385862 3182385862 -5.33300000
38.88749313 -31.08795166 1.15850437 18 13 13004 49.80000000 3182385862 3182385862 1.33300000
38.70346832 -37.70325089 0.62903756 43 14 13005 54.03600000 3182385864 3182385864 0.66700000
20.16241837 -16.12427521 -1.80529749 24 15 13005 25.88000000 3182385864 3182385864 -4.00000000
20.12836075 -17.78303337 -2.19260979 11 16 13006 26.94800000 3182385866 3182385866 -4.66700000
39.14440918 -28.29419899 1.40565455 20 17 13006 48.32000000 3182385866 3182385866 1.66700000
39.04173660 -34.49264908 0.90934020 51 18 13006 52.10400000 3182385869 3182385869 1.00000000
20.23919868 -14.62921429 -1.60047352 22 19 13006 25.02400000 3182385869 3182385869 -3.66700000
20.13295364 -19.62635612 -1.63742733 13 20 13007 28.16400000 3182385871 3182385871 -3.33300000
39.97576523 -31.99227715 2.98183417 30 21 13007 51.28800000 3182385871 3182385871 3.33300000
39.37157822 -34.80853653 2.14104009 30 22 13008 52.59600000 3182385873 3182385873 2.33300000
34.32693100 -27.48139000 -2.04830003 6 23 13008 44.02000000 3182385873 3182385873 -2.66700000
20.20618629 -17.87063599 -1.41369879 14 24 13009 27.01200000 3182385876 3182385876 -3.00000000
40.54241562 -35.86889648 4.41906738 38 26 13010 54.31200000 3182385878 3182385878 4.66700000
38.66199493 -27.98661804 -1.94450533 22 27 13010 47.76800000 3182385878 3182385878 -2.33300000
39.30095291 -38.36558914 -1.91793668 32 28 13011 54.95600000 3182385880 3182385880 -2.00000000
39.36435699 -31.54807663 -1.17385805 17 31 13011 50.46000000 3182385883 3182385883 -1.33300000
3.92665887 -3.48380041 -2.44780493 6 0 13018 5.79200000 3182385903 3182385903 -25.00000000
39.48402405 -28.66577148 -0.85167742 20 1 13018 48.80000000 3182385903 3182385903 -1.00000000
39.33857727 -34.91414642 -1.53074396 33 2 13019 52.62000000 3182385906 3182385906 -1.66700000
7.71908426 -6.20408535 -2.77231312 5 3 13019 10.28400000 3182385906 3182385906 -15.63900000
10.12801075 -8.99206829 -2.70877194 3 4 13020 13.81200000 3182385908 3182385908 -11.31000000
38.49306107 -30.94921494 0.00000000 27 5 13020 49.39200000 3182385908 3182385908 0.00000000
38.73608398 -37.93317413 -0.63117951 41 6 13020 54.22000000 3182385910 3182385910 -0.66700000
12.74318790 -10.24578571 -2.54388189 1 7 13020 16.54800000 3182385910 3182385910 -8.84300000
14.95262909 -13.28023243 -2.54556727 5 8 13021 20.16000000 3182385913 3182385913 -7.25400000
38.81105804 -28.20823479 0.27885562 30 9 13021 47.98000000 3182385913 3182385913 0.33300000
38.86680984 -34.53183746 -0.30217302 39 10 13022 51.99200000 3182385915 3182385915 -0.33300000
17.01725006 -13.69200420 -2.35270786 4 11 13022 21.96800000 3182385915 3182385915 -6.14800000
18.72529411 -18.35637856 -2.44777489 6 12 13023 26.33600000 3182385917 3182385917 -5.33300000
39.01159668 -31.39977455 1.16529727 28 13 13023 50.09200000 3182385917 3182385917 1.33300000
38.64676666 -37.89859772 0.63015509 43 14 13024 54.13200000 3182385919 3182385919 0.66700000
20.17721367 -16.24610138 -1.81143606 24 15 13024 25.96800000 3182385919 3182385919 -4.00000000
20.12587929 -17.90002441 -2.19879341 11 16 13025 27.02400000 3182385922 3182385922 -4.66700000
38.96632004 -28.36267471 1.40262914 20 17 13025 48.21600000 3182385922 3182385922 1.66700000
38.96598816 -34.65647888 0.91024768 51 18 13025 52.15600000 3182385924 3182385924 1.00000000
20.24544144 -14.73618412 -1.60482264 23 19 13025 25.09200000 3182385924 3182385924 -3.66700000
20.13616371 -19.76013756 -1.64300871 13 20 13026 28.26000000 3182385926 3182385926 -3.33300000
39.78860855 -32.05952454 2.97578764 30 21 13026 51.18400000 3182385926 3182385926 3.33300000
39.37833405 -35.04784775 2.14771605 31 22 13027 52.76000000 3182385929 3182385929 2.33300000
34.26671982 -27.62014580 -2.05016136 6 23 13027 44.06000000 3182385929 3182385929 -2.66700000
20.20648193 -17.99066925 -1.41788578 14 24 13028 27.09200000 3182385931 3182385931 -3.00000000
39.42591095 -35.11486435 4.31003904 16 26 13029 52.97200000 3182385933 3182385933 4.66700000
38.63034058 -28.15940285 -1.94759917 33 27 13029 47.84400000 3182385933 3182385933 -2.33300000
39.30467224 -38.62459183 -1.92435825 32 28 13030 55.14000000 3182385936 3182385936 -2.00000000
39.52716446 -31.89440155 -1.18186057 26 31 13030 50.80400000 3182385938 3182385938 -1.33300000
3.92799091 -3.50956273 -2.45625734 6 0 13038 5.81200000 3182385959 3182385959 -25.00000000
39.58064270 -28.94743919 -0.85593581 20 1 13038 49.04400000 3182385959 3182385959 -1.00000000
39.40725327 -35.22177887 -1.53819108 33 2 13039 52.87600000 3182385961 3182385961 -1.66700000
7.70636272 -6.23826265 -2.77554798 3 3 13039 10.29600000 3182385961 3182385961 -15.63900000
