# .PCD v0.7 - Point Cloud Data file format
VERSION 0.7
FIELDS x y z intensity laser_id azimuth distance_m adjustedtime timestamp vertical_angle
SIZE 4 4 4 1 1 2 8 8 4 8
TYPE F F F U U U F U U F
COUNT 1 1 1 1 1 1 1 1 1 1
WIDTH 522
HEIGHT 1
VIEWPOINT 0 0 0 1 0 0 0
POINTS 522
DATA ascii
16.59464264 15.67632294 -1.59630716 2 15 4803 22.88400000 3184963156 3184963156 -4.00000000
15.91042328 13.61762619 -1.70963025 2 16 4804 21.01200000 3184963158 3184963158 -4.66700000
39.35615540 40.98291016 1.65362227 22 17 4804 56.84400000 3184963158 3184963158 1.66700000
40.14377213 34.34665298 0.92218518 36 18 4805 52.84000000 3184963160 3184963160 1.00000000
16.58420944 17.26367188 -1.53421342 3 19 4805 23.98800000 3184963160 3184963160 -3.66700000
19.33596992 14.97150707 -1.42417347 3 20 4805 24.49600000 3184963163 3184963163 -3.33300000
39.73817444 37.51288605 3.18252993 38 21 4805 54.74000000 3184963163 3184963163 3.33300000
39.83709335 34.07221985 2.13566685 45 22 4806 52.46400000 3184963165 3184963165 2.33300000
19.53719902 18.43669510 -1.25131500 4 23 4806 26.89200000 3184963165 3184963165 -2.66700000
19.93804741 17.04676437 -1.37476087 9 24 4807 26.26800000 3184963167 3184963167 -3.00000000
99.05435181 93.44207001 16.71998596 28 25 4807 137.19600000 3184963167 3184963167 7.00000000
42.53799438 36.35656738 4.56812716 43 26 4808 56.14400000 3184963170 3184963170 4.66700000
20.11516953 20.91736221 -1.18230224 8 27 4808 29.04400000 3184963170 3184963170 -2.33300000
20.81899643 16.09655380 -0.91897357 10 28 4809 26.33200000 3184963172 3184963172 -2.00000000
20.92745781 19.72793579 -0.66923404 18 31 4809 28.76800000 3184963174 3184963174 -1.33300000
3.98474956 3.39488673 -2.44104314 5 0 4817 5.77600000 3184963195 3184963195 -25.00000000
20.92801476 21.69431496 -0.52615517 13 1 4817 30.14800000 3184963195 3184963195 -1.00000000
20.86329651 17.76861954 -0.79754609 12 2 4818 27.41600000 3184963197 3184963197 -1.66700000
6.57681561 6.18036270 -2.52646041 6 3 4818 9.37200000 3184963197 3184963197 -15.63900000
8.96862316 7.63559628 -2.35576081 1 4 4819 12.01200000 3184963199 3184963199 -11.31000000
40.22955704 37.79128265 0.00000000 30 5 4819 55.19600000 3184963199 3184963199 0.00000000
34.83620071 26.82748604 -0.51188171 11 6 4820 43.97200000 3184963202 3184963202 -0.66700000
10.11018085 9.49409199 -2.15771842 2 7 4820 14.03600000 3184963202 3184963202 -8.84300000
12.20796013 10.38978863 -2.04049444 2 8 4820 16.16000000 3184963204 3184963204 -7.25400000
40.40065002 41.83609772 0.33802089 49 9 4820 58.16000000 3184963204 3184963204 0.33300000
39.61129761 33.69993591 -0.30226600 13 10 4821 52.00800000 3184963206 3184963206 -0.33300000
12.90892696 12.11804962 -1.90718424 1 11 4821 17.80800000 3184963206 3184963206 -6.14800000
15.41846848 11.86524773 -1.81612706 2 12 4822 19.54000000 3184963209 3184963209 -5.33300000
40.08681107 37.61769867 1.27919352 26 13 4822 54.98800000 3184963209 3184963209 1.33300000
40.18572235 30.91366768 0.59024948 17 14 4823 50.70400000 3184963211 3184963211 0.66700000
16.63471031 15.60465145 -1.59491205 2 15 4823 22.86400000 3184963211 3184963211 -4.00000000
15.94267178 13.54909611 -1.70800304 2 16 4824 20.99200000 3184963213 3184963213 -4.66700000
39.69631577 41.04935074 1.66188407 46 17 4824 57.12800000 3184963213 3184963213 1.66700000
40.28487778 34.23665237 0.92281342 36 18 4824 52.87600000 3184963216 3184963216 1.00000000
16.64136696 17.20858002 -1.53421342 3 19 4824 23.98800000 3184963216 3184963216 -3.66700000
19.36278534 14.88445091 -1.42231297 3 20 4825 24.46400000 3184963218 3184963218 -3.33300000
39.90674973 37.40945053 3.18555331 25 21 4825 54.79200000 3184963218 3184963218 3.33300000
39.81260681 33.81135941 2.12801385 29 22 4826 52.27600000 3184963220 3184963220 2.33300000
19.59560585 18.36292076 -1.25094271 4 23 4826 26.88400000 3184963220 3184963220 -2.66700000
19.99133873 16.97189331 -1.37434220 9 24 4827 26.26000000 3184963223 3184963223 -3.00000000
97.09092712 90.95148468 16.33487892 28 25 4827 134.03600000 3184963223 3184963223 7.00000000
42.81662750 36.33684158 4.58439970 44 26 4828 56.34400000 3184963225 3184963225 4.66700000
20.19362259 20.85276222 -1.18262792 12 27 4828 29.05200000 3184963225 3184963225 -2.33300000
20.81480789 15.97753620 -0.91632116 10 28 4829 26.25600000 3184963227 3184963227 -2.00000000
20.93246651 19.58825684 -0.66709381 18 31 4830 28.67600000 3184963229 3184963229 -1.33300000
3.99103999 3.37627411 -2.43766212 6 0 4837 5.76800000 3184963250 3184963250 -25.00000000
20.92001152 21.53507042 -0.52406085 13 1 4837 30.02800000 3184963250 3184963250 -1.00000000
20.86718750 17.64662933 -0.79533517 12 2 4838 27.34000000 3184963252 3184963252 -1.66700000
6.59553289 6.15473938 -2.52538204 6 3 4838 9.36800000 3184963252 3184963252 -15.63900000
8.98923111 7.59917879 -2.35419202 1 4 4839 12.00400000 3184963255 3184963255 -11.31000000
40.25008011 37.54694366 0.00000000 30 5 4839 55.04400000 3184963255 3184963255 0.00000000
34.94551849 26.71786690 -0.51211452 11 6 4840 43.99200000 3184963257 3184963257 -0.66700000
10.13747883 9.45335197 -2.15648866 2 7 4840 14.02800000 3184963257 3184963257 -8.84300000
12.23809147 10.34198856 -2.03948426 2 8 4840 16.15200000 3184963259 3184963259 -7.25400000
40.54922485 41.69768524 0.33804414 73 9 4840 58.16400000 3184963259 3184963259 0.33300000
39.58813477 33.44272614 -0.30119660 25 10 4841 51.82400000 3184963262 3184963262 -0.33300000
12.93951130 12.06206799 -1.90547073 1 11 4841 17.79200000 3184963262 3184963262 -6.14800000
15.44396877 11.79926586 -1.81426823 2 12 4842 19.52000000 3184963264 3184963264 -5.33300000
40.15644073 37.42028809 1.27723944 26 13 4842 54.90400000 3184963264 3184963264 1.33300000
40.59218597 31.00140572 0.59462655 36 14 4843 51.08000000 3184963266 3184963266 0.66700000
16.69783974 15.55464935 -1.59574914 2 15 4843 22.87600000 3184963266 3184963266 -4.00000000
15.99596310 13.49850559 -1.70865393 2 16 4844 21.00000000 3184963269 3184963269 -4.66700000
39.92025757 40.99360275 1.66525853 46 17 4844 57.24400000 3184963269 3184963269 1.66700000
40.30327606 34.01070786 0.92050970 53 18 4844 52.74400000 3184963271 3184963271 1.00000000
16.68462372 17.13322830 -1.53267848 3 19 4844 23.96400000 3184963271 3184963271 -3.66700000
19.42097282 14.82161713 -1.42277813 3 20 4845 24.47200000 3184963273 3184963273 -3.33300000
39.87048721 37.11483383 3.17229748 38 21 4845 54.56400000 3184963273 3184963273 3.33300000
39.75317764 33.52274323 2.11856961 14 22 4846 52.04400000 3184963276 3184963276 2.33300000
19.63325882 18.26990891 -1.24926758 4 23 4846 26.84800000 3184963276 3184963276 -2.66700000
20.03824425 16.89170837 -1.37350488 9 24 4847 26.24400000 3184963278 3184963278 -3.00000000
43.46419525 40.43185043 7.28876162 27 25 4847 59.80800000 3184963278 3184963278 7.00000000
42.65053558 35.94053650 4.55315590 43 26 4848 55.96000000 3184963280 3184963280 4.66700000
20.12119102 20.63335419 -1.17416084 8 27 4848 28.84400000 3184963280 3184963280 -2.33300000
20.81322098 15.86116695 -0.91380841 10 28 4849 26.18400000 3184963282 3184963282 -2.00000000
20.92115784 19.44794464 -0.66467446 17 31 4849 28.57200000 3184963285 3184963285 -1.33300000
3.99724936 3.35765862 -2.43428111 6 0 4857 5.76000000 3184963305 3184963305 -25.00000000
20.91954422 21.38472366 -0.52217603 12 1 4857 29.92000000 3184963305 3184963305 -1.00000000
20.86435699 17.51968765 -0.79289162 12 2 4858 27.25600000 3184963308 3184963308 -1.66700000
6.61132574 6.12644291 -2.52322531 6 3 4858 9.36000000 3184963308 3184963308 -15.63900000
9.02171040 7.57279778 -2.35576081 1 4 4859 12.01200000 3184963310 3184963310 -11.31000000
40.26058578 37.29476547 0.00000000 30 5 4859 54.88000000 3184963310 3184963310 0.00000000
34.93517685 26.52685547 -0.51067102 11 6 4859 43.86800000 3184963312 3184963312 -0.66700000
10.16877174 9.41968250 -2.15648866 2 7 4859 14.02800000 3184963312 3184963312 -8.84300000
12.27107716 10.29665661 -2.03897929 2 8 4860 16.14800000 3184963315 3184963315 -7.25400000
40.40627670 41.26152802 0.33564964 47 9 4860 57.75200000 3184963315 3184963315 0.33300000
39.67704773 33.28119659 -0.30098739 12 10 4861 51.78800000 3184963317 3184963317 -0.33300000
12.97570038 12.01142406 -1.90461385 1 11 4861 17.78400000 3184963317 3184963317 -6.14800000
15.48506165 11.74528408 -1.81426823 2 12 4862 19.52000000 3184963319 3184963319 -5.33300000
40.27801132 37.27173996 1.27696025 13 13 4862 54.89200000 3184963319 3184963319 1.33300000
40.67784500 30.84260750 0.59430057 18 14 4863 51.05200000 3184963322 3184963322 0.66700000
16.74324608 15.48813915 -1.59491205 2 15 4863 22.86400000 3184963322 3184963322 -4.00000000
16.03381729 13.43490601 -1.70767760 2 16 4864 20.98800000 3184963324 3184963324 -4.66700000
40.07150650 40.86256790 1.66560757 46 17 4864 57.25600000 3184963324 3184963324 1.66700000
40.30525970 33.77220535 0.91785693 35 18 4864 52.59200000 3184963326 3184963326 1.00000000
16.74153328 17.07203293 -1.53242266 3 19 4864 23.96000000 3184963326 3184963326 -3.66700000
19.50441933 14.77785015 -1.42510366 3 20 4865 24.51200000 3184963329 3184963329 -3.33300000
39.95581436 36.93477631 3.16880918 38 21 4865 54.50400000 3184963329 3184963329 3.33300000
40.21315765 33.67114639 2.13680649 15 22 4866 52.49200000 3184963331 3184963331 2.33300000
19.68517494 18.19041824 -1.24852312 4 23 4866 26.83200000 3184963331 3184963331 -2.66700000
20.08789635 16.81396675 -1.37287676 9 24 4867 26.23200000 3184963333 3184963333 -3.00000000
43.48549271 40.16943359 7.26877499 54 25 4867 59.64400000 3184963333 3184963333 7.00000000
42.69011688 35.71980667 4.54404306 64 26 4868 55.84800000 3184963335 3184963335 4.66700000
20.17909050 20.54873466 -1.17334664 8 27 4868 28.82400000 3184963335 3184963335 -2.33300000
20.81745338 15.74982834 -0.91157484 10 28 4869 26.12000000 3184963338 3184963338 -2.00000000
20.91882515 19.30333710 -0.66234815 21 31 4870 28.47200000 3184963340 3184963340 -1.33300000
4.00616169 3.34136319 -2.43259072 6 0 4877 5.75600000 3184963361 3184963361 -25.00000000
20.92389679 21.24034119 -0.52043074 12 1 4877 29.82000000 3184963361 3184963361 -1.00000000
20.85782433 17.39042282 -0.79033160 15 2 4878 27.16800000 3184963363 3184963363 -1.66700000
6.63267088 6.10332775 -2.52322531 6 3 4878 9.36000000 3184963363 3184963363 -15.63900000
9.03001213 7.52619267 -2.35105419 1 4 4879 11.98800000 3184963365 3184963365 -11.31000000
40.27276611 37.04568100 0.00000000 29 5 4879 54.72000000 3184963365 3184963365 0.00000000
35.01797867 26.39752388 -0.51053137 11 6 4879 43.85600000 3184963368 3184963368 -0.66700000
10.18995476 9.37342644 -2.15402913 2 7 4879 14.01200000 3184963368 3184963368 -8.84300000
12.30999279 10.25629997 -2.03948426 2 8 4880 16.15200000 3184963370 3184963370 -7.25400000
40.45737457 41.02624893 0.33488247 47 9 4880 57.62000000 3184963370 3184963370 0.33300000
39.66389084 33.03498077 -0.30001098 24 10 4881 51.62000000 3184963372 3184963372 -0.33300000
13.01462078 11.96336555 -1.90418553 1 11 4881 17.78000000 3184963372 3184963372 -6.14800000
15.51960278 11.68636799 -1.81352460 2 12 4882 19.51200000 3184963375 3184963375 -5.33300000
40.20469666 36.94422150 1.27053964 25 13 4882 54.61600000 3184963375 3184963375 1.33300000
40.65104294 30.59939957 0.59234488 18 14 4883 50.88400000 3184963377 3184963377 0.66700000
16.79720688 15.42960072 -1.59491205 2 15 4883 22.86400000 3184963377 3184963377 -4.00000000
16.06835747 13.36865616 -1.70637572 2 16 4884 20.97200000 3184963379 3184963379 -4.66700000
40.08747482 40.59442139 1.66037130 45 17 4884 57.07600000 3184963379 3184963379 1.66700000
40.25995636 33.49573898 0.91415703 34 18 4884 52.38000000 3184963382 3184963382 1.00000000
16.79261017 17.00496864 -1.53165519 3 19 4884 23.94800000 3184963382 3184963382 -3.66700000
19.52716255 14.68807316 -1.42301071 3 20 4885 24.47600000 3184963384 3184963384 -3.33300000
40.04037094 36.75457382 3.16532087 37 21 4885 54.44400000 3184963384 3184963384 3.33300000
40.03541183 33.28528214 2.12117505 14 22 4886 52.10800000 3184963386 3184963386 2.33300000
19.73677444 18.11078644 -1.24777865 4 23 4886 26.81600000 3184963386 3184963386 -2.66700000
20.14339256 16.74119186 -1.37266743 9 24 4887 26.22800000 3184963388 3184963388 -3.00000000
43.54352570 39.94225311 7.25512552 27 25 4887 59.53200000 3184963388 3184963388 7.00000000
42.40976334 35.23427963 4.50108242 41 26 4888 55.32000000 3184963391 3184963391 4.66700000
20.24788666 20.47533035 -1.17318380 8 27 4888 28.82000000 3184963391 3184963391 -2.33300000
20.81157303 15.63145065 -0.90892249 10 28 4889 26.04400000 3184963393 3184963393 -2.00000000
20.91826820 19.16806221 -0.66020793 21 31 4890 28.38000000 3184963395 3184963395 -1.33300000
4.00721121 3.31741023 -2.42582893 6 0 4898 5.74000000 3184963416 3184963416 -25.00000000
20.92272568 21.08402061 -0.51847607 12 1 4898 29.70800000 3184963416 3184963416 -1.00000000
20.86289787 17.26542282 -0.78812075 19 2 4899 27.09200000 3184963418 3184963418 -1.66700000
6.65215206 6.07637882 -2.52214718 6 3 4899 9.35600000 3184963418 3184963418 -15.63900000
9.06660271 7.50054598 -2.35340738 1 4 4900 12.00000000 3184963421 3184963421 -11.31000000
40.29012299 36.78993988 0.00000000 43 5 4900 54.56000000 3184963421 3184963421 0.00000000
35.17534637 26.31452179 -0.51141608 11 6 4900 43.93200000 3184963423 3184963423 -0.66700000
10.21548557 9.32802010 -2.15218425 2 7 4900 14.00000000 3184963423 3184963423 -8.84300000
12.33832836 10.20352554 -2.03796911 2 8 4901 16.14000000 3184963425 3184963425 -7.25400000
40.45242691 40.72161102 0.33360386 46 9 4901 57.40000000 3184963425 3184963425 0.33300000
13.06719494 11.92362690 -1.90547073 1 11 4902 17.79200000 3184963428 3184963428 -6.14800000
15.57828236 11.64132786 -1.81538355 2 12 4903 19.53200000 3184963430 3184963430 -5.33300000
40.31324387 36.77236176 1.26970220 25 13 4903 54.58000000 3184963430 3184963430 1.33300000
40.75971985 30.44780731 0.59229833 18 14 4904 50.88000000 3184963432 3184963432 0.66700000
16.84774971 15.36255455 -1.59435391 2 15 4904 22.85600000 3184963432 3184963432 -4.00000000
16.12339592 13.31475067 -1.70702660 2 16 4905 20.98000000 3184963435 3184963435 -4.66700000
39.93991089 40.14958572 1.64815331 44 17 4905 56.65600000 3184963435 3184963435 1.66700000
40.39787292 33.36068726 0.91450608 34 18 4905 52.40000000 3184963437 3184963437 1.00000000
16.84074783 16.92915726 -1.53037596 3 19 4905 23.92800000 3184963437 3184963437 -3.66700000
19.55526733 14.59729481 -1.42115021 3 20 4906 24.44400000 3184963439 3184963439 -3.33300000
39.97114944 36.42198944 3.14927459 37 21 4906 54.16800000 3184963439 3184963439 3.33300000
40.14789200 33.13069153 2.12068653 28 22 4907 52.09600000 3184963441 3184963441 2.33300000
19.79416084 18.03025436 -1.24722028 4 23 4907 26.80400000 3184963441 3184963441 -2.66700000
20.20461655 16.66724968 -1.37266743 9 24 4908 26.22800000 3184963444 3184963444 -3.00000000
43.35497665 39.47766495 7.19955349 52 25 4908 59.07600000 3184963444 3184963444 7.00000000
42.81237030 35.30434418 4.53004837 42 26 4909 55.67600000 3184963446 3184963446 4.66700000
20.30305099 20.38115883 -1.17204404 8 27 4909 28.79200000 3184963446 3184963446 -2.33300000
20.81103134 15.51206493 -0.90640974 10 28 4910 25.97200000 3184963448 3184963448 -2.00000000
20.92330170 19.03206635 -0.65816075 24 31 4911 28.29200000 3184963451 3184963451 -1.33300000
4.01539040 3.30180120 -2.42413831 6 0 4917 5.73600000 3184963471 3184963471 -25.00000000
20.91903877 20.94095612 -0.51666105 12 1 4917 29.60400000 3184963471 3184963471 -1.00000000
20.86135101 17.14790535 -0.78590989 23 2 4918 27.01600000 3184963474 3184963474 -1.66700000
6.67226553 6.05428648 -2.52214718 6 3 4918 9.35600000 3184963474 3184963474 -15.63900000
9.09445572 7.47292900 -2.35419202 1 4 4919 12.00400000 3184963476 3184963476 -11.31000000
40.26080322 36.51907349 0.00000000 29 5 4919 54.35600000 3184963476 3184963476 0.00000000
35.30415344 26.22874069 -0.51202142 11 6 4919 43.98400000 3184963478 3184963478 -0.66700000
10.25221729 9.29940414 -2.15341401 2 7 4919 14.00800000 3184963478 3184963478 -8.84300000
12.37516212 10.16507339 -2.03847432 2 8 4920 16.14400000 3184963481 3184963481 -7.25400000
40.46279526 40.46279526 0.33258095 46 9 4920 57.22400000 3184963481 3184963481 0.33300000
39.50404358 32.43744278 -0.29708177 11 10 4921 51.11600000 3184963483 3184963483 -0.33300000
13.09487629 11.86954498 -1.90375710 1 11 4921 17.77600000 3184963483 3184963483 -6.14800000
15.60400867 11.58011055 -1.81389642 2 12 4922 19.51600000 3184963485 3184963485 -5.33300000
40.30161285 36.51764679 1.26551485 38 13 4922 54.40000000 3184963485 3184963485 1.33300000
40.70306015 30.19570541 0.59001666 17 14 4923 50.68400000 3184963487 3184963487 0.66700000
16.89564514 15.30392265 -1.59407496 2 15 4923 22.85200000 3184963487 3184963487 -4.00000000
16.14588356 13.24351120 -1.70474839 2 16 4924 20.95200000 3184963490 3184963490 -4.66700000
39.83518219 39.77959824 1.63837886 21 17 4924 56.32000000 3184963490 3184963490 1.66700000
40.19905472 32.97290421 0.90752512 33 18 4924 52.00000000 3184963492 3184963492 1.00000000
16.89961815 16.87603951 -1.53063178 3 19 4924 23.93200000 3184963492 3184963492 -3.66700000
19.62602043 14.54901314 -1.42277813 3 20 4925 24.47200000 3184963494 3184963494 -3.33300000
39.99993515 36.20616913 3.14206529 37 21 4925 54.04400000 3184963494 3184963494 3.33300000
40.10916901 32.87575912 2.11287069 42 22 4926 51.90400000 3184963497 3184963497 2.33300000
19.82421303 17.93770599 -1.24535894 7 23 4926 26.76400000 3184963497 3184963497 -2.66700000
20.25668716 16.59762573 -1.37245810 9 24 4927 26.22400000 3184963499 3184963499 -3.00000000
43.30898666 39.17388535 7.17030478 52 25 4927 58.83600000 3184963499 3184963499 7.00000000
43.06491089 35.27333069 4.54436874 42 26 4928 55.85200000 3184963501 3184963501 4.66700000
20.36486626 20.30807686 -1.17171836 8 27 4928 28.78400000 3184963501 3184963501 -2.33300000
20.80773544 15.40253544 -0.90403658 10 28 4929 25.90400000 3184963504 3184963504 -2.00000000
20.92102242 18.90359497 -0.65611362 24 31 4930 28.20400000 3184963506 3184963506 -1.33300000
4.01846647 3.28088665 -2.41906691 7 0 4937 5.72400000 3184963527 3184963527 -25.00000000
20.91542625 20.79167938 -0.51477617 12 1 4937 29.49600000 3184963527 3184963527 -1.00000000
20.85912895 17.02441788 -0.78358263 19 2 4938 26.93600000 3184963529 3184963529 -1.66700000
6.69049644 6.02838039 -2.52106881 6 3 4938 9.35200000 3184963529 3184963529 -15.63900000
9.11744690 7.43865824 -2.35340738 1 4 4939 12.00000000 3184963531 3184963531 -11.31000000
40.27806473 36.27926254 0.00000000 42 5 4939 54.20800000 3184963531 3184963531 0.00000000
35.65944672 26.30002022 -0.51583970 11 6 4939 44.31200000 3184963534 3184963534 -0.66700000
10.27286816 9.25297928 -2.15095448 2 7 4939 13.99200000 3184963534 3184963534 -8.84300000
12.40134525 10.11429024 -2.03695893 2 8 4940 16.13200000 3184963536 3184963536 -7.25400000
40.56689453 40.28466797 0.33227873 45 9 4940 57.17200000 3184963536 3184963536 0.33300000
39.51782608 32.21846771 -0.29633784 22 10 4941 50.98800000 3184963538 3184963538 -0.33300000
13.14214134 11.82908440 -1.90461385 1 11 4941 17.78400000 3184963538 3184963538 -6.14800000
15.57379341 11.47360134 -1.80571735 2 12 4942 19.42800000 3184963540 3184963540 -5.33300000
40.19696808 36.16811371 1.25825667 37 13 4942 54.08800000 3184963540 3184963540 1.33300000
40.76634598 30.02260780 0.58941132 35 14 4943 50.63200000 3184963543 3184963543 0.66700000
16.94006157 15.23684692 -1.59323788 2 15 4943 22.84000000 3184963543 3184963543 -4.00000000
16.19819641 13.19210625 -1.70539939 2 16 4944 20.96000000 3184963545 3184963545 -4.66700000
39.96243668 39.62904358 1.63791347 43 17 4944 56.30400000 3184963545 3184963545 1.66700000
40.05031586 32.61771011 0.90159130 49 18 4944 51.66000000 3184963547 3184963547 1.00000000
16.95275497 16.81132317 -1.53012013 3 19 4944 23.92400000 3184963547 3184963547 -3.66700000
19.66060638 14.46858311 -1.42161536 3 20 4945 24.45200000 3184963550 3184963550 -3.33300000
39.83205414 35.80205154 3.11904216 24 21 4945 53.64800000 3184963550 3184963550 3.33300000
39.93849564 32.50345612 2.09789038 26 22 4946 51.53600000 3184963552 3184963552 2.33300000
19.87184715 17.85504532 -1.24442840 7 23 4946 26.74400000 3184963552 3184963552 -2.66700000
20.31140137 16.52429390 -1.37224877 9 24 4947 26.22000000 3184963554 3184963554 -3.00000000
41.76483154 37.51293182 6.89293003 22 25 4947 56.56000000 3184963554 3184963554 7.00000000
42.95270920 34.93162155 4.51963377 62 26 4948 55.54800000 3184963557 3184963557 4.66700000
20.42995071 20.23124123 -1.17139268 8 27 4948 28.77600000 3184963557 3184963557 -2.33300000
20.80016708 15.28483200 -0.90138417 10 28 4949 25.82800000 3184963559 3184963559 -2.00000000
20.91217232 18.77000809 -0.65388036 23 31 4949 28.10800000 3184963561 3184963561 -1.33300000
4.02707863 3.26455665 -2.41737652 8 0 4957 5.72000000 3184963582 3184963582 -25.00000000
20.92241287 20.65392113 -0.51317054 12 1 4957 29.40400000 3184963582 3184963582 -1.00000000
20.85008812 16.89612198 -0.78102267 15 2 4958 26.84800000 3184963584 3184963584 -1.66700000
6.71149874 6.00498962 -2.52106881 6 3 4958 9.35200000 3184963584 3184963584 -15.63900000
9.14945221 7.41172504 -2.35497642 1 4 4959 12.00800000 3184963587 3184963587 -11.31000000
40.25836563 36.00777817 0.00000000 28 5 4959 54.01200000 3184963587 3184963587 0.00000000
35.75560379 26.16914558 -0.51583970 11 6 4960 44.31200000 3184963589 3184963589 -0.66700000
10.30376720 9.21263123 -2.15033960 2 7 4960 13.98800000 3184963589 3184963589 -8.84300000
12.43040752 10.06594563 -2.03594875 2 8 4960 16.12400000 3184963591 3184963591 -7.25400000
40.55916595 39.99677277 0.33106986 67 9 4960 56.96400000 3184963591 3184963591 0.33300000
39.58963394 32.04761124 -0.29603565 22 10 4961 50.93600000 3184963593 3184963593 -0.33300000
13.17445660 11.77518654 -1.90332878 1 11 4961 17.77200000 3184963593 3184963593 -6.14800000
15.68447208 11.47089291 -1.81389642 2 12 4962 19.51600000 3184963596 3184963596 -5.33300000
40.21263885 35.92899704 1.25481379 12 13 4962 53.94000000 3184963596 3184963596 1.33300000
40.71913910 29.76917648 0.58722281 35 14 4963 50.44400000 3184963598 3184963598 0.66700000
16.99314499 15.17762184 -1.59323788 2 15 4963 22.84000000 3184963598 3184963598 -4.00000000
16.24724579 13.13799000 -1.70572484 2 16 4964 20.96400000 3184963600 3184963600 -4.66700000
40.07203674 39.46125412 1.63674986 43 17 4964 56.26400000 3184963600 3184963600 1.66700000
40.11672211 32.42795563 0.90040457 48 18 4965 51.59200000 3184963603 3184963603 1.00000000
16.94029427 16.67626572 -1.52346861 3 19 4965 23.82000000 3184963603 3184963603 -3.66700000
19.70454216 14.39515495 -1.42115021 3 20 4965 24.44400000 3184963605 3184963605 -3.33300000
39.90911865 35.62025070 3.11532140 36 21 4965 53.58400000 3184963605 3184963605 3.33300000
39.99575424 32.31863403 2.09495950 26 22 4966 51.46400000 3184963607 3184963607 2.33300000
19.91616249 17.76960945 -1.24331164 7 23 4966 26.72000000 3184963607 3184963607 -2.66700000
20.35963631 16.44576454 -1.37162077 9 24 4967 26.20800000 3184963610 3184963610 -3.00000000
43.39771652 38.70673370 7.14008093 51 25 4967 58.58800000 3184963610 3184963610 7.00000000
42.80142212 34.56106949 4.49099350 61 26 4968 55.19600000 3184963612 3184963612 4.66700000
20.45200157 20.11216545 -1.16862464 8 27 4968 28.70800000 3184963612 3184963612 -2.33300000
20.81141090 15.18150616 -0.89956945 10 28 4969 25.77600000 3184963614 3184963614 -2.00000000
20.90890312 18.63570023 -0.65174013 23 31 4969 28.01600000 3184963617 3184963617 -1.33300000
4.02997732 3.24366045 -2.41230512 8 0 4977 5.70800000 3184963637 3184963637 -25.00000000
20.92012596 20.50797081 -0.51135552 12 1 4977 29.30000000 3184963637 3184963637 -1.00000000
20.84975052 16.77561569 -0.77881175 15 2 4978 26.77200000 3184963640 3184963640 -1.66700000
6.72953987 5.97896719 -2.51999044 6 3 4978 9.34800000 3184963640 3184963640 -15.63900000
9.16609955 7.37236738 -2.35262299 1 4 4979 11.99600000 3184963642 3184963642 -11.31000000
40.22231293 35.72359467 0.00000000 27 5 4979 53.79600000 3184963642 3184963642 0.00000000
35.84673309 26.04417610 -0.51583970 11 6 4980 44.31200000 3184963644 3184963644 -0.66700000
10.32699585 9.16873550 -2.14849496 2 7 4980 13.97600000 3184963644 3184963644 -8.84300000
12.46237564 10.02000713 -2.03544378 2 8 4980 16.12000000 3184963646 3184963646 -7.25400000
40.52134705 39.68143463 0.32962850 44 9 4980 56.71600000 3184963646 3184963646 0.33300000
39.58590317 31.81650925 -0.29517546 21 10 4981 50.78800000 3184963649 3184963649 -0.33300000
13.21250439 11.72648716 -1.90290034 1 11 4981 17.76800000 3184963649 3184963649 -6.14800000
15.72441673 11.41607380 -1.81389642 2 12 4982 19.51600000 3184963651 3184963651 -5.33300000
40.22713089 35.69021225 1.25137079 24 13 4982 53.79200000 3184963651 3184963651 1.33300000
40.51528549 29.40367699 0.58279920 34 14 4983 50.06400000 3184963653 3184963653 0.66700000
17.02512360 15.09967899 -1.59128463 2 15 4983 22.81200000 3184963653 3184963653 -4.00000000
16.28678894 13.07620525 -1.70507395 2 16 4984 20.95600000 3184963656 3184963656 -4.66700000
40.17809296 39.29038620 1.63546979 42 17 4984 56.22000000 3184963656 3184963656 1.66700000
40.20532608 32.27972412 0.89998567 32 18 4984 51.56800000 3184963658 3184963658 1.00000000
16.99835587 16.62278938 -1.52372444 3 19 4984 23.82400000 3184963658 3184963658 -3.66700000
19.76760101 14.33566284 -1.42208040 3 20 4985 24.46000000 3184963660 3184963660 -3.33300000
40.02723694 35.47542572 3.11485624 36 21 4985 53.57600000 3184963660 3184963660 3.33300000
39.89010620 32.00374985 2.08356142 25 22 4986 51.18400000 3184963663 3184963663 2.33300000
19.96610641 17.68938255 -1.24256718 7 23 4986 26.70400000 3184963663 3184963663 -2.66700000
20.41068649 16.36959648 -1.37120211 9 24 4987 26.20000000 3184963665 3184963665 -3.00000000
43.23237991 38.28915024 7.09084606 24 25 4987 58.18400000 3184963665 3184963665 7.00000000
42.79427338 34.30921173 4.47764969 40 26 4988 55.03200000 3184963667 3184963667 4.66700000
20.50492668 20.02389717 -1.16764760 8 27 4988 28.68400000 3184963667 3184963667 -2.33300000
20.81571007 15.07359886 -0.89747548 13 28 4989 25.71600000 3184963670 3184963670 -2.00000000
20.91393471 18.50959396 -0.64987910 23 31 4989 27.93600000 3184963672 3184963672 -1.33300000
4.03844309 3.22731018 -2.41061449 7 0 4997 5.70400000 3184963693 3184963693 -25.00000000
20.93140411 20.37623596 -0.50988948 12 1 4997 29.21600000 3184963693 3184963693 -1.00000000
20.86132431 16.66530228 -0.77706635 15 2 4998 26.71200000 3184963695 3184963695 -1.66700000
6.75036907 5.95544004 -2.51999044 6 3 4998 9.34800000 3184963695 3184963695 -15.63900000
9.19790745 7.34522200 -2.35419202 1 4 4999 12.00400000 3184963698 3184963698 -11.31000000
40.22976685 35.47978973 0.00000000 27 5 4999 53.64000000 3184963698 3184963698 0.00000000
36.01399231 25.98366547 -0.51700377 11 6 4999 44.41200000 3184963700 3184963700 -0.66700000
10.36030769 9.13705349 -2.14910984 2 7 4999 13.98000000 3184963700 3184963700 -8.84300000
12.50037766 9.97891998 -2.03594875 2 8 5000 16.12400000 3184963702 3184963702 -7.25400000
40.55351257 39.43656921 0.32876834 65 9 5000 56.56800000 3184963702 3184963702 0.33300000
39.60605240 31.60578156 -0.29450130 21 10 5001 50.67200000 3184963705 3184963705 -0.33300000
13.25335693 11.68029594 -1.90290034 1 11 5001 17.76800000 3184963705 3184963705 -6.14800000
15.75770855 11.35645866 -1.81315291 2 12 5002 19.50800000 3184963707 3184963707 -5.33300000
40.28245544 35.48877716 1.24923062 24 13 5002 53.70000000 3184963707 3184963707 1.33300000
40.53654480 29.20362473 0.58163506 34 14 5003 49.96400000 3184963709 3184963709 0.66700000
16.98190308 14.95576668 -1.58235586 2 15 5003 22.68400000 3184963709 3184963709 -4.00000000
16.32921791 13.01678848 -1.70474839 2 16 5004 20.95200000 3184963711 3184963711 -4.66700000
40.33507538 39.16939545 1.63628435 43 17 5004 56.24800000 3184963711 3184963711 1.66700000
39.87992859 31.79017067 0.89021236 31 18 5004 51.00800000 3184963714 3184963714 1.00000000
17.04768562 16.55500984 -1.52295697 3 19 5004 23.81200000 3184963714 3184963714 -3.66700000
19.69761086 14.18025112 -1.41347587 3 20 5005 24.31200000 3184963716 3184963716 -3.33300000
39.68918228 34.92921448 3.07904243 23 21 5005 52.96000000 3184963716 3184963716 3.33300000
39.75461578 31.66758919 2.07069802 36 22 5006 50.86800000 3184963718 3184963718 2.33300000
20.00973129 17.60374451 -1.24145043 7 23 5006 26.68000000 3184963718 3184963718 -2.66700000
20.47082710 16.30073929 -1.37141144 9 24 5007 26.20400000 3184963721 3184963721 -3.00000000
42.44753265 37.33046722 6.94070292 45 25 5007 56.95200000 3184963721 3184963721 7.00000000
42.99798965 34.22665787 4.48643684 40 26 5008 55.14000000 3184963723 3184963723 4.66700000
20.56895828 19.94663620 -1.16732192 8 27 5008 28.67600000 3184963723 3184963723 -2.33300000
20.80652809 14.95651340 -0.89482307 10 28 5009 25.64000000 3184963725 3184963725 -2.00000000
20.91233444 18.37840271 -0.64783192 23 31 5009 27.84800000 3184963728 3184963728 -1.33300000
4.03832436 3.20418048 -2.40385270 6 0 5017 5.68800000 3184963748 3184963748 -25.00000000
20.92189026 20.22521591 -0.50793481 12 1 5017 29.10400000 3184963748 3184963748 -1.00000000
20.85358429 16.54020309 -0.77462274 18 2 5018 26.62800000 3184963751 3184963751 -1.66700000
6.76821899 5.92930222 -2.51891208 7 3 5018 9.34400000 3184963751 3184963751 -15.63900000
9.21734428 7.30819702 -2.35262299 1 4 5019 11.99600000 3184963753 3184963753 -11.31000000
40.26911163 35.26535797 0.00000000 40 5 5019 53.52800000 3184963753 3184963753 0.00000000
36.28982162 25.99054337 -0.51965797 11 6 5019 44.64000000 3184963755 3184963755 -0.66700000
10.38619232 9.09562588 -2.14787984 2 7 5019 13.97200000 3184963755 3184963755 -8.84300000
12.52269554 9.92536640 -2.03392863 2 8 5020 16.10800000 3184963758 3184963758 -7.25400000
40.68517303 39.28921509 0.32872185 43 9 5020 56.56000000 3184963758 3184963758 0.33300000
39.64402771 31.41020584 -0.29396659 31 10 5021 50.58000000 3184963760 3184963760 -0.33300000
13.30302715 11.64181900 -1.90418553 2 11 5021 17.78000000 3184963760 3184963760 -6.14800000
15.72923279 11.25272179 -1.80534554 2 12 5022 19.42400000 3184963762 3184963762 -5.33300000
40.10811996 35.08728409 1.24001837 23 13 5022 53.30400000 3184963762 3184963762 1.33300000
40.56015396 29.00610733 0.58051753 33 14 5023 49.86800000 3184963764 3184963764 0.66700000
17.04301643 14.90427780 -1.58319294 2 15 5023 22.69600000 3184963764 3184963764 -4.00000000
16.37455559 12.95971012 -1.70474839 2 16 5024 20.95200000 3184963767 3184963767 -4.66700000
40.31901932 38.88126373 1.63011718 63 17 5024 56.03600000 3184963767 3184963767 1.66700000
40.00319672 31.66069794 0.89049160 46 18 5024 51.02400000 3184963769 3184963769 1.00000000
17.09675026 16.48708916 -1.52218950 3 19 5024 23.80000000 3184963769 3184963769 -3.66700000
19.75673676 14.11837292 -1.41417360 3 20 5025 24.32400000 3184963771 3184963771 -3.33300000
39.60639954 34.61177826 3.06322885 22 21 5025 52.68800000 3184963771 3184963771 3.33300000
39.81789398 31.49143791 2.06825542 24 22 5026 50.80800000 3184963774 3184963774 2.33300000
20.05902100 17.52327538 -1.24070585 4 23 5026 26.66400000 3184963774 3184963774 -2.66700000
20.42419624 16.14743042 -1.36450303 9 24 5027 26.07200000 3184963776 3184963776 -3.00000000
42.41011810 37.03582764 6.91340399 44 25 5027 56.72800000 3184963776 3184963776 7.00000000
43.12658691 34.08377457 4.48741341 40 26 5028 55.15200000 3184963778 3184963778 4.66700000
20.62118721 19.85807991 -1.16634500 8 27 5028 28.65200000 3184963778 3184963778 -2.33300000
20.80654335 14.84664345 -0.89258951 10 28 5029 25.57600000 3184963781 3184963781 -2.00000000
20.91609955 18.25270653 -0.64597088 27 31 5029 27.76800000 3184963783 3184963783 -1.33300000
4.03809357 3.18109131 -2.39709067 5 0 5037 5.67200000 3184963804 3184963804 -25.00000000
20.92023277 20.08281898 -0.50618958 12 1 5037 29.00400000 3184963804 3184963804 -1.00000000
20.85151100 16.42030907 -0.77241188 18 2 5038 26.55200000 3184963806 3184963806 -1.66700000
6.78015661 5.89805651 -2.51567721 6 3 5038 9.33200000 3184963806 3184963806 -15.63900000
9.24588108 7.27840376 -2.35340738 1 4 5039 12.00000000 3184963808 3184963808 -11.31000000
40.28934097 35.03533554 0.00000000 39 5 5039 53.39200000 3184963808 3184963808 0.00000000
36.49768066 25.94713974 -0.52133429 11 6 5039 44.78400000 3184963811 3184963811 -0.66700000
10.41191292 9.05412865 -2.14665008 2 7 5039 13.96400000 3184963811 3184963811 -8.84300000
12.55414677 9.87913990 -2.03342342 2 8 5040 16.10400000 3184963813 3184963813 -7.25400000
40.83361816 39.15803146 0.32881483 43 9 5040 56.57600000 3184963813 3184963813 0.33300000
39.60567093 31.15539742 -0.29287395 30 10 5041 50.39200000 3184963815 3184963815 -0.33300000
13.32857418 11.58226871 -1.90204358 1 11 5041 17.76000000 3184963815 3184963815 -6.14800000
15.83985424 11.24847889 -1.81352460 2 12 5042 19.51200000 3184963817 3184963817 -5.33300000
40.24544907 34.96017838 1.24048364 24 13 5042 53.32400000 3184963817 3184963817 1.33300000
40.57962036 28.80646896 0.57935345 33 14 5043 49.76800000 3184963820 3184963820 0.66700000
17.09493828 14.84469604 -1.58319294 2 15 5043 22.69600000 3184963820 3184963820 -4.00000000
16.43223190 12.91232586 -1.70605028 2 16 5044 20.96800000 3184963822 3184963822 -4.66700000
40.03288269 38.33654022 1.61312830 40 17 5044 55.45200000 3184963822 3184963822 1.66700000
40.10010147 31.49904251 0.89007270 31 18 5045 51.00000000 3184963824 3184963824 1.00000000
17.14552879 16.41327286 -1.52116609 3 19 5045 23.78400000 3184963824 3184963824 -3.66700000
19.78961372 14.03777122 -1.41301072 3 20 5045 24.30400000 3184963827 3184963827 -3.33300000
39.71189499 34.46022797 3.06206584 34 21 5045 52.66800000 3184963827 3184963827 3.33300000
39.83327484 31.27820587 2.06337070 23 22 5046 50.68800000 3184963829 3184963829 2.33300000
20.10799408 17.44267654 -1.23996139 4 23 5046 26.64800000 3184963829 3184963829 -2.66700000
20.36732101 15.98724747 -1.35696661 9 24 5047 25.92800000 3184963831 3184963831 -3.00000000
42.72211075 37.04622650 6.94314003 45 25 5047 56.97200000 3184963831 3184963831 7.00000000
43.08220291 33.80505371 4.47048950 40 26 5048 54.94400000 3184963834 3184963834 4.66700000
20.66438293 19.76111794 -1.16487956 8 27 5048 28.61600000 3184963834 3184963834 -2.33300000
20.80604744 14.73695469 -0.89035594 13 28 5049 25.51200000 3184963836 3184963836 -2.00000000
20.91924286 18.12720871 -0.64410985 27 31 5049 27.68800000 3184963838 3184963838 -1.33300000
4.01776171 3.14240885 -2.37849569 3 0 5057 5.62800000 3184963859 3184963859 -25.00000000
20.92073250 19.94344139 -0.50451416 12 1 5057 28.90800000 3184963859 3184963859 -1.00000000
20.85200500 16.30309677 -0.77031732 22 2 5058 26.48000000 3184963861 3184963861 -1.66700000
6.80070305 5.87435341 -2.51567721 6 3 5058 9.33200000 3184963861 3184963861 -15.63900000
9.26504993 7.24125481 -2.35183859 1 4 5059 11.99200000 3184963863 3184963863 -11.31000000
40.31148148 34.80821609 0.00000000 39 5 5059 53.26000000 3184963863 3184963863 0.00000000
36.77883530 25.94461250 -0.52398843 12 6 5060 45.01200000 3184963866 3184963866 -0.66700000
10.43904400 9.01074123 -2.14542031 2 7 5060 13.95600000 3184963866 3184963866 -8.84300000
12.61669636 9.85724354 -2.03796911 2 8 5060 16.14000000 3184963868 3184963868 -7.25400000
40.83681107 38.88836670 0.32774544 43 9 5060 56.39200000 3184963868 3184963868 0.33300000
39.61645508 30.94063377 -0.29215327 29 10 5061 50.26800000 3184963870 3184963870 -0.33300000
13.36892223 11.53567314 -1.90204358 1 11 5061 17.76000000 3184963870 3184963870 -6.14800000
15.79764175 11.13575363 -1.80423021 2 12 5062 19.41200000 3184963873 3184963873 -5.33300000
40.30062103 34.76202011 1.23843658 23 13 5062 53.23600000 3184963873 3184963873 1.33300000
40.57857132 28.59322357 0.57790995 49 14 5063 49.64400000 3184963875 3184963875 0.66700000
17.13758659 14.77711582 -1.58235586 2 15 5063 22.68400000 3184963875 3184963875 -4.00000000
16.45834541 12.84017467 -1.70409751 2 16 5064 20.94400000 3184963877 3184963877 -4.66700000
40.06215286 38.09737778 1.60893929 59 17 5064 55.30800000 3184963877 3184963877 1.66700000
39.91738510 31.14202690 0.88372004 30 18 5064 50.63600000 3184963880 3184963880 1.00000000
17.18540001 16.34257317 -1.51988697 3 19 5064 23.76400000 3184963880 3184963880 -3.66700000
19.84502411 13.97320461 -1.41347587 3 20 5065 24.31200000 3184963882 3184963882 -3.33300000
39.71698761 34.22234726 3.05322886 33 21 5065 52.51600000 3184963882 3184963882 3.33300000
39.85395432 31.07016754 2.05881143 35 22 5066 50.57600000 3184963884 3184963884 2.33300000
20.15361977 17.35934258 -1.23903072 4 23 5066 26.62800000 3184963884 3184963884 -2.66700000
20.41040039 15.90623283 -1.35612929 9 24 5067 25.91200000 3184963887 3184963887 -3.00000000
42.90832901 36.94609070 6.95240211 45 25 5067 57.04800000 3184963887 3184963887 7.00000000
43.15905762 33.62261200 4.46625853 39 26 5068 54.89200000 3184963889 3184963889 4.66700000
20.72454262 19.68060875 -1.16439104 8 27 5068 28.60400000 3184963889 3184963889 -2.33300000
20.81157875 14.63204956 -0.88840157 10 28 5069 25.45600000 3184963891 3184963891 -2.00000000
20.91884422 17.99304581 -0.64206266 19 31 5070 27.60000000 3184963893 3184963893 -1.33300000
3.96857643 3.08167291 -2.34299564 2 0 5077 5.54400000 3184963914 3184963914 -25.00000000
20.92051506 19.80430603 -0.50283873 12 1 5077 28.81200000 3184963914 3184963914 -1.00000000
20.84877586 16.18362808 -0.76810646 18 2 5078 26.40400000 3184963916 3184963916 -1.66700000
6.81824350 5.84807110 -2.51459908 6 3 5078 9.32800000 3184963916 3184963916 -15.63900000
9.29026985 7.20886946 -2.35183859 1 4 5079 11.99200000 3184963919 3184963919 -11.31000000
40.28697968 34.54231644 0.00000000 38 5 5079 53.06800000 3184963919 3184963919 0.00000000
36.86917496 25.81607246 -0.52398843 12 6 5080 45.01200000 3184963921 3184963921 -0.66700000
10.46443176 8.96910286 -2.14419055 2 7 5080 13.94800000 3184963921 3184963921 -8.84300000
12.65416336 9.81557465 -2.03847432 2 8 5080 16.14400000 3184963923 3184963923 -7.25400000
40.82699585 38.60816956 0.32658306 21 9 5080 56.19200000 3184963923 3184963923 0.33300000
39.67680359 30.76539230 -0.29180455 29 10 5081 50.20800000 3184963926 3184963926 -0.33300000
13.40306759 11.48376083 -1.90118682 1 11 5081 17.75200000 3184963926 3184963926 -6.14800000
15.84620571 11.08739185 -1.80534554 2 12 5082 19.42400000 3184963928 3184963928 -5.33300000
40.27289581 34.49366760 1.23387694 35 13 5082 53.04000000 3184963928 3184963928 1.33300000
40.17665863 28.10066223 0.57078558 32 14 5083 49.03200000 3184963930 3184963930 0.66700000
17.19815636 14.72498989 -1.58319294 2 15 5083 22.69600000 3184963930 3184963930 -4.00000000
16.41481400 12.71428967 -1.69498467 2 16 5084 20.83200000 3184963933 3184963933 -4.66700000
40.11931229 37.88592529 1.60591388 39 17 5084 55.20400000 3184963933 3184963933 1.66700000
40.33887100 31.24495506 0.89063120 15 18 5084 51.03200000 3184963935 3184963935 1.00000000
17.23073196 16.27152252 -1.51886368 3 19 5084 23.74800000 3184963935 3184963935 -3.66700000
19.90022469 13.90842247 -1.41394103 3 20 5085 24.32000000 3184963937 3184963937 -3.33300000
39.63898087 33.91475677 3.03811264 22 21 5085 52.25600000 3184963937 3184963937 3.33300000
39.83890533 30.83545685 2.05246115 34 22 5086 50.42000000 3184963940 3184963940 2.33300000
20.19890976 17.27590179 -1.23810017 4 23 5086 26.60800000 3184963940 3184963940 -2.66700000
20.45316124 15.82511330 -1.35529196 9 24 5087 25.89600000 3184963942 3184963942 -3.00000000
43.45346451 37.15213013 7.01967430 47 25 5087 57.60000000 3184963942 3184963942 7.00000000
43.39599228 33.56443787 4.47862625 40 26 5088 55.04400000 3184963944 3184963944 4.66700000
20.79311371 19.60814667 -1.16439104 8 27 5088 28.60400000 3184963944 3184963944 -2.33300000
20.80679703 14.52042294 -0.88602841 10 28 5089 25.38800000 3184963946 3184963946 -2.00000000
20.92063141 17.87422180 -0.64029467 19 31 5089 27.52400000 3184963949 3184963949 -1.33300000
3.95867896 3.05299830 -2.33116221 4 0 5096 5.51600000 3184963969 3184963969 -25.00000000
20.91323471 19.66632843 -0.50109351 12 1 5096 28.71200000 3184963969 3184963969 -1.00000000
20.84532928 16.07045937 -0.76601195 15 2 5097 26.33200000 3184963972 3184963972 -1.66700000
6.84053087 5.82792664 -2.51567721 6 3 5097 9.33200000 3184963972 3184963972 -15.63900000
9.31723118 7.18041658 -2.35262299 3 4 5098 11.99600000 3184963974 3184963974 -11.31000000
40.21250153 34.24773026 0.00000000 25 5 5098 52.82000000 3184963974 3184963974 0.00000000
37.07487106 25.78690338 -0.52575791 12 6 5098 45.16400000 3184963976 3184963976 -0.66700000
10.48653984 8.93105888 -2.14296055 2 7 5098 13.94000000 3184963976 3184963976 -8.84300000
12.68035603 9.76871490 -2.03746414 1 8 5099 16.13600000 3184963979 3184963979 -7.25400000
40.80319977 38.33015823 0.32537419 41 9 5099 55.98400000 3184963979 3184963979 0.33300000
39.65184402 30.53602982 -0.29087466 18 10 5100 50.04800000 3184963981 3184963981 -0.33300000
13.45621872 11.45213985 -1.90332878 2 11 5100 17.77200000 3184963981 3184963981 -6.14800000
15.86980343 11.02569294 -1.80385852 2 12 5101 19.40800000 3184963983 3184963983 -5.33300000
40.19212723 34.19408798 1.22792161 23 13 5101 52.78400000 3184963983 3184963983 1.33300000
40.42402649 28.07450867 0.57297409 32 14 5102 49.22000000 3184963986 3184963986 0.66700000
17.24081230 14.66270733 -1.58263493 2 15 5102 22.68800000 3184963986 3184963986 -4.00000000
16.46320534 12.66464806 -1.69563568 2 16 5103 20.84000000 3184963988 3184963988 -4.66700000
40.19806671 37.70891190 1.60405207 58 17 5103 55.14000000 3184963988 3184963988 1.66700000
40.45177078 31.11833000 0.89084065 31 18 5103 51.04400000 3184963990 3184963990 1.00000000
17.28750801 16.21702385 -1.51911950 3 19 5103 23.75200000 3184963990 3184963990 -3.66700000
19.95279884 13.84690762 -1.41440606 3 20 5104 24.32800000 3184963993 3184963993 -3.33300000
39.73905563 33.77277756 3.03718257 33 21 5104 52.24000000 3184963993 3184963993 3.33300000
39.96945953 30.72509766 2.05392647 23 22 5105 50.45600000 3184963995 3184963995 2.33300000
20.24999809 17.20365143 -1.23772788 7 23 5105 26.60000000 3184963995 3184963995 -2.66700000
20.48652267 15.74259758 -1.35403585 9 24 5106 25.87200000 3184963997 3184963997 -3.00000000
43.40393448 36.86133957 6.99188805 23 25 5106 57.37200000 3184963997 3184963997 7.00000000
43.53235245 33.43977737 4.48122978 40 26 5107 55.07600000 3184963999 3184963999 4.66700000
20.81427002 19.49810219 -1.16194856 12 27 5107 28.54400000 3184963999 3184963999 -2.33300000
20.80554771 14.41719151 -0.88393444 10 28 5108 25.32800000 3184964002 3184964002 -2.00000000
20.91885757 17.74675941 -0.63834059 19 31 5109 27.44000000 3184964004 3184964004 -1.33300000
3.95439124 3.02883220 -2.32271004 5 0 5115 5.49600000 3184964025 3184964025 -25.00000000
20.91111565 19.53407669 -0.49948788 11 1 5115 28.62000000 3184964025 3184964025 -1.00000000
20.84771347 15.96235466 -0.76415014 11 2 5116 26.26800000 3184964027 3184964027 -1.66700000
6.85393858 5.80023432 -2.51352072 6 3 5116 9.32400000 3184964027 3184964027 -15.63900000
9.34099102 7.14947987 -2.35262299 1 4 5117 11.99600000 3184964029 3184964029 -11.31000000
40.24339676 34.04444122 0.00000000 25 5 5117 52.71200000 3184964029 3184964029 0.00000000
37.36423111 25.80474091 -0.52864486 12 6 5117 45.41200000 3184964032 3184964032 -0.66700000
10.51308060 8.89368248 -2.14234567 2 7 5117 13.93600000 3184964032 3184964032 -8.84300000
12.71583271 9.72902298 -2.03796911 2 8 5118 16.14000000 3184964034 3184964034 -7.25400000
40.80141068 38.07456589 0.32435128 20 9 5118 55.80800000 3184964034 3184964034 0.33300000
39.66710281 30.33876038 -0.29024696 27 10 5119 49.94000000 3184964036 3184964036 -0.33300000
13.48804665 11.40231895 -1.90247202 2 11 5119 17.76400000 3184964036 3184964036 -6.14800000
15.90299988 10.97074509 -1.80348670 2 12 5120 19.40400000 3184964039 3184964039 -5.33300000
40.24421310 34.00899506 1.22606051 23 13 5120 52.70400000 3184964039 3184964039 1.33300000
40.52019501 27.94257545 0.57302070 32 14 5121 49.22400000 3184964041 3184964041 0.66700000
17.29238892 14.60802937 -1.58291388 2 15 5121 22.69200000 3184964041 3184964041 -4.00000000
16.48927116 12.59788227 -1.69400835 2 16 5122 20.82000000 3184964043 3184964043 -4.66700000
39.93092728 37.21014023 1.58845949 18 17 5122 54.60400000 3184964043 3184964043 1.66700000
40.08439636 30.62466812 0.88050878 14 18 5122 50.45200000 3184964046 3184964046 1.00000000
17.33827019 16.15688705 -1.51886368 3 19 5122 23.74800000 3184964046 3184964046 -3.66700000
19.98874283 13.77386856 -1.41370845 3 20 5123 24.31600000 3184964048 3184964048 -3.33300000
39.88134766 33.66657257 3.03950810 33 21 5123 52.28000000 3184964048 3184964048 3.33300000
40.03936005 30.56813431 2.05229831 22 22 5124 50.41600000 3184964050 3184964050 2.33300000
20.30082893 17.13125038 -1.23735559 7 23 5124 26.59200000 3184964050 3184964050 -2.66700000
20.53226280 15.66972828 -1.35361719 9 24 5125 25.86400000 3184964052 3184964052 -3.00000000
43.39544296 36.60712814 6.97092628 46 25 5125 57.20000000 3184964052 3184964052 7.00000000
43.60179901 33.26379776 4.47699881 40 26 5126 55.02400000 3184964055 3184964055 4.66700000
20.81151962 19.36635017 -1.15820360 12 27 5126 28.45200000 3184964055 3184964055 -2.33300000
20.80055046 14.31186295 -0.88170087 9 28 5127 25.26400000 3184964057 3184964057 -2.00000000
20.91337585 17.62317848 -0.63638645 22 31 5128 27.35600000 3184964059 3184964059 -1.33300000
3.96021914 3.00923944 -2.31932902 5 0 5137 5.48800000 3184964080 3184964080 -25.00000000
20.91264153 19.38566780 -0.49774262 15 1 5137 28.52000000 3184964080 3184964080 -1.00000000
20.85472298 15.84107304 -0.76217198 14 2 5138 26.20000000 3184964082 3184964082 -1.66700000
6.87615919 5.77387428 -2.51352072 6 3 5138 9.32400000 3184964082 3184964082 -15.63900000
9.37149811 7.11593246 -2.35340738 3 4 5139 12.00000000 3184964085 3184964085 -11.31000000
40.15935898 33.70964813 0.00000000 24 5 5139 52.43200000 3184964085 3184964085 0.00000000
37.21554947 25.49155998 -0.52515256 12 6 5139 45.11200000 3184964087 3184964087 -0.66700000
10.54412556 8.85070801 -2.14173079 2 7 5139 13.93200000 3184964087 3184964087 -8.84300000
12.74677372 9.67532825 -2.03695893 1 8 5140 16.13200000 3184964089 3184964089 -7.25400000
40.79469299 37.77629852 0.32314241 40 9 5140 55.60000000 3184964089 3184964089 0.33300000
39.75462341 30.16446686 -0.29003775 27 10 5141 49.90400000 3184964092 3184964092 -0.33300000
13.52258778 11.34277725 -1.90118682 2 11 5141 17.75200000 3184964092 3184964092 -6.14800000
15.93843365 10.90510273 -1.80274320 2 12 5142 19.39600000 3184964094 3184964094 -5.33300000
40.21516037 33.72061157 1.22122180 22 13 5142 52.49600000 3184964094 3184964094 1.33300000
40.55786133 27.73936462 0.57204282 16 14 5143 49.14000000 3184964096 3184964096 0.66700000
17.32694626 14.52358055 -1.58096075 2 15 5143 22.66400000 3184964096 3184964096 -4.00000000
16.53752327 12.53447533 -1.69400835 2 16 5144 20.82000000 3184964099 3184964099 -4.66700000
40.12047958 37.09997559 1.59032130 37 17 5144 54.66800000 3184964099 3184964099 1.66700000
40.21125031 30.47777748 0.88071823 14 18 5144 50.46400000 3184964101 3184964101 1.00000000
17.40311050 16.09290314 -1.51911950 3 19 5144 23.75200000 3184964101 3184964101 -3.66700000
20.03488922 13.69250965 -1.41324329 3 20 5145 24.30800000 3184964103 3184964103 -3.33300000
39.83583069 33.36703491 3.02625227 32 21 5145 52.05200000 3184964103 3184964103 3.33300000
39.66897964 30.04497147 2.02738547 31 22 5146 49.80400000 3184964105 3184964105 2.33300000
20.34501266 17.03521919 -1.23605275 7 23 5146 26.56400000 3184964105 3184964105 -2.66700000
20.56680107 15.57148457 -1.35194242 9 24 5147 25.83200000 3184964108 3184964108 -3.00000000
43.65441895 36.53961182 6.98993826 46 25 5147 57.35600000 3184964108 3184964108 7.00000000
43.19196320 32.68952942 4.42199659 38 26 5148 54.34800000 3184964110 3184964110 4.66700000
20.82112885 19.22664642 -1.15462136 12 27 5148 28.36400000 3184964110 3184964110 -2.33300000
