# .PCD v0.7 - Point Cloud Data file format
VERSION 0.7
FIELDS x y z intensity laser_id azimuth distance_m adjustedtime timestamp vertical_angle
SIZE 4 4 4 1 1 2 8 8 4 8
TYPE F F F U U U F U U F
COUNT 1 1 1 1 1 1 1 1 1 1
WIDTH 522
HEIGHT 1
VIEWPOINT 0 0 0 1 0 0 0
POINTS 522
DATA ascii
20.81476784 16.07587814 -0.91841513 10 28 4812 26.31600000 3186263237 3186263237 -2.00000000
20.93831444 19.71058083 -0.66914093 18 31 4813 28.76400000 3186263239 3186263239 -1.33300000
3.98652649 3.39279985 -2.44104314 5 0 4820 5.77600000 3186263260 3186263260 -25.00000000
20.93103600 21.67472267 -0.52594572 13 1 4820 30.13600000 3186263260 3186263260 -1.00000000
20.87259865 17.75769234 -0.79754609 12 2 4821 27.41600000 3186263262 3186263262 -1.66700000
6.57443380 6.17164516 -2.52430367 5 3 4821 9.36400000 3186263262 3186263262 -15.63900000
8.96066856 7.62073469 -2.35262299 1 4 4822 11.99600000 3186263264 3186263264 -11.31000000
40.23183823 37.75379181 0.00000000 30 5 4822 55.17200000 3186263264 3186263264 0.00000000
34.85507202 26.82264137 -0.51202142 11 6 4822 43.98400000 3186263267 3186263267 -0.66700000
10.11349487 9.49056244 -2.15771842 2 7 4822 14.03600000 3186263267 3186263267 -8.84300000
12.21037483 10.38082409 -2.03998947 2 8 4823 16.15600000 3186263269 3186263269 -7.25400000
40.47814941 41.87245560 0.33848587 49 9 4823 58.24000000 3186263269 3186263269 0.33300000
39.62893677 33.67919159 -0.30226600 13 10 4824 52.00800000 3186263271 3186263271 -0.33300000
12.90656662 12.10312748 -1.90589905 1 11 4824 17.79600000 3186263271 3186263271 -6.14800000
15.40889168 11.84503651 -1.81426823 2 12 4825 19.52000000 3186263273 3186263273 -5.33300000
40.05398941 37.54747772 1.27751863 26 13 4825 54.91600000 3186263273 3186263273 1.33300000
40.17653275 30.87312508 0.58987695 17 14 4826 50.67200000 3186263276 3186263276 0.66700000
16.64870262 15.60139561 -1.59547007 2 15 4826 22.87200000 3186263276 3186263276 -4.00000000
15.96192074 13.55106735 -1.70930481 2 16 4827 21.00800000 3186263278 3186263278 -4.66700000
39.63437271 40.94237518 1.65839314 22 17 4827 57.00800000 3186263278 3186263278 1.66700000
40.29669952 34.21037674 0.92267382 36 18 4827 52.86800000 3186263280 3186263280 1.00000000
16.64759827 17.19699669 -1.53395760 3 19 4827 23.98400000 3186263280 3186263280 -3.66700000
19.38007736 14.88160706 -1.42301071 3 20 4828 24.47600000 3186263283 3186263283 -3.33300000
39.88552475 37.35033798 3.18229747 25 21 4828 54.73600000 3186263283 3186263283 3.33300000
39.79982758 33.76465225 2.12638545 29 22 4829 52.23600000 3186263285 3186263285 2.33300000
19.59063339 18.33900452 -1.25001216 4 23 4829 26.86400000 3186263285 3186263285 -2.66700000
20.00022316 16.96142197 -1.37434220 9 24 4830 26.26000000 3186263287 3186263287 -3.00000000
97.18202209 90.94132996 16.34219170 28 25 4830 134.09600000 3186263287 3186263287 7.00000000
42.84476852 36.32215118 4.58537626 44 26 4831 56.35600000 3186263290 3186263290 4.66700000
20.18784714 20.82496834 -1.18165100 12 27 4831 29.02800000 3186263290 3186263290 -2.33300000
20.81365395 15.95933819 -0.91590238 10 28 4832 26.24400000 3186263292 3186263292 -2.00000000
20.92177773 19.56455994 -0.66653550 18 31 4832 28.65200000 3186263294 3186263294 -1.33300000
3.99003839 3.37184381 -2.43597174 5 0 4840 5.76400000 3186263315 3186263315 -25.00000000
20.92292023 21.51551056 -0.52385145 13 1 4840 30.01600000 3186263315 3186263315 -1.00000000
20.87336922 17.63312149 -0.79521883 12 2 4841 27.33600000 3186263317 3186263317 -1.66700000
6.59311914 6.14603233 -2.52322531 6 3 4841 9.36000000 3186263317 3186263317 -15.63900000
8.97822475 7.58181810 -2.35026956 1 4 4842 11.98400000 3186263320 3186263320 -11.31000000
40.24632263 37.50404739 0.00000000 30 5 4842 55.01200000 3186263320 3186263320 0.00000000
34.86732101 26.62916374 -0.51076418 11 6 4843 43.87600000 3186263322 3186263322 -0.66700000
10.13953495 9.44534874 -2.15587378 2 7 4843 14.02400000 3186263322 3186263322 -8.84300000
12.24047279 10.33302021 -2.03897929 2 8 4843 16.14800000 3186263324 3186263324 -7.25400000
40.47618866 41.57899857 0.33725372 73 9 4843 58.02800000 3186263324 3186263324 0.33300000
39.59646988 33.41425323 -0.30112687 25 10 4844 51.81200000 3186263326 3186263326 -0.33300000
12.94291496 12.05258083 -1.90504229 1 11 4844 17.78800000 3186263326 3186263326 -6.14800000
15.44697857 11.78876114 -1.81389642 2 12 4845 19.51600000 3186263329 3186263329 -5.33300000
40.18481064 37.40743256 1.27751863 26 13 4845 54.91600000 3186263329 3186263329 1.33300000
40.61159515 30.98257446 0.59467310 18 14 4846 51.08400000 3186263331 3186263331 0.66700000
16.68845558 15.52959442 -1.59407496 2 15 4846 22.85200000 3186263331 3186263331 -4.00000000
15.99083614 13.47985077 -1.70735216 2 16 4847 20.98400000 3186263333 3186263333 -4.66700000
39.93892670 40.96983337 1.66514218 46 17 4847 57.24000000 3186263333 3186263333 1.66700000
40.25666809 33.92328644 0.91890413 53 18 4848 52.65200000 3186263336 3186263336 1.00000000
16.68822098 17.11300278 -1.53191102 3 19 4848 23.95200000 3186263336 3186263336 -3.66700000
19.44778442 14.82597256 -1.42417347 3 20 4848 24.49600000 3186263338 3186263338 -3.33300000
39.89576340 37.09939194 3.17276263 38 21 4848 54.57200000 3186263338 3186263338 3.33300000
39.91439056 33.62294388 2.12622261 29 22 4849 52.23200000 3186263340 3186263340 2.33300000
19.63696861 18.25418663 -1.24889541 4 23 4849 26.84000000 3186263340 3186263340 -2.66700000
20.05014038 16.88378716 -1.37371421 9 24 4850 26.24800000 3186263343 3186263343 -3.00000000
43.49408340 40.41719818 7.29022408 55 25 4850 59.82000000 3186263343 3186263343 7.00000000
42.60834885 35.86685181 4.54664660 43 26 4851 55.88000000 3186263345 3186263345 4.66700000
20.13478470 20.62567711 -1.17432368 8 27 4851 28.84800000 3186263345 3186263345 -2.33300000
20.81834221 15.84784603 -0.91366881 10 28 4852 26.18000000 3186263347 3186263347 -2.00000000
20.92840767 19.43426704 -0.66458142 21 31 4852 28.56800000 3186263350 3186263350 -1.33300000
3.99228287 3.35229850 -2.43090034 6 0 4858 5.75200000 3186263370 3186263370 -25.00000000
20.91488457 21.37249565 -0.52196658 12 1 4858 29.90800000 3186263370 3186263370 -1.00000000
20.85210228 17.50319290 -0.79230976 12 2 4859 27.23600000 3186263373 3186263373 -1.66700000
6.61239529 6.12528896 -2.52322531 6 3 4859 9.36000000 3186263373 3186263373 -15.63900000
9.02303219 7.57122326 -2.35576081 1 4 4860 12.01200000 3186263375 3186263375 -11.31000000
40.25828934 37.27958679 0.00000000 30 5 4860 54.86800000 3186263375 3186263375 0.00000000
34.93806076 26.50982285 -0.51057792 11 6 4861 43.86000000 3186263377 3186263377 -0.66700000
10.16625786 9.41076279 -2.15525889 2 7 4861 14.02000000 3186263377 3186263377 -8.84300000
12.27287388 10.29451466 -2.03897929 2 8 4861 16.14800000 3186263379 3186263379 -7.25400000
40.36869049 41.20875931 0.33527768 47 9 4861 57.68800000 3186263379 3186263379 0.33300000
39.43458939 33.06610107 -0.29910433 12 10 4862 51.46400000 3186263382 3186263382 -0.33300000
12.97487736 12.00645828 -1.90418553 1 11 4862 17.78000000 3186263382 3186263382 -6.14800000
15.42363930 11.69445610 -1.80683267 2 12 4863 19.44000000 3186263384 3186263384 -5.33300000
40.27864456 37.25928116 1.27677417 26 13 4863 54.88400000 3186263384 3186263384 1.33300000
40.69597626 30.84517097 0.59448683 18 14 4864 51.06800000 3186263386 3186263386 0.66700000
16.76059723 15.49876213 -1.59630716 2 15 4864 22.88400000 3186263386 3186263386 -4.00000000
16.03616142 13.43210697 -1.70767760 2 16 4865 20.98800000 3186263389 3186263389 -4.66700000
40.08143997 40.85842896 1.66572392 46 17 4865 57.26000000 3186263389 3186263389 1.66700000
40.29582596 33.75233078 0.91750789 35 18 4865 52.57200000 3186263391 3186263391 1.00000000
16.74451256 17.06911087 -1.53242266 3 19 4865 23.96000000 3186263391 3186263391 -3.66700000
19.49744797 14.76721287 -1.42440605 3 20 4866 24.50000000 3186263393 3186263393 -3.33300000
39.96812439 36.93321991 3.16927433 38 21 4866 54.51200000 3186263393 3186263393 3.33300000
40.22516251 33.66925812 2.13713217 15 22 4867 52.50000000 3186263396 3186263396 2.33300000
19.68247986 18.18155861 -1.24815083 4 23 4867 26.82400000 3186263396 3186263396 -2.66700000
20.09695625 16.81558800 -1.37329555 9 24 4868 26.24000000 3186263398 3186263398 -3.00000000
43.48375320 40.15376663 7.26731253 54 25 4868 59.63200000 3186263398 3186263398 7.00000000
42.65048218 35.67398834 4.53916121 64 26 4869 55.78800000 3186263400 3186263400 4.66700000
20.18827820 20.55091476 -1.17367232 8 27 4869 28.83200000 3186263400 3186263400 -2.33300000
20.81382370 15.74137211 -0.91129565 10 28 4870 26.11200000 3186263403 3186263403 -2.00000000
20.91588593 19.30062485 -0.66225505 21 31 4870 28.46800000 3186263405 3186263405 -1.33300000
4.00234032 3.33462405 -2.42920971 6 0 4880 5.74800000 3186263425 3186263425 -25.00000000
20.92939949 21.22368813 -0.52029115 12 1 4880 29.81200000 3186263425 3186263425 -1.00000000
20.85463715 17.36926270 -0.78986621 11 2 4881 27.15200000 3186263427 3186263427 -1.66700000
6.63586569 6.09985399 -2.52322531 6 3 4881 9.36000000 3186263427 3186263427 -15.63900000
9.03997993 7.52648306 -2.35262299 1 4 4882 11.99600000 3186263430 3186263430 -11.31000000
40.28332138 37.01647186 0.00000000 29 5 4882 54.70800000 3186263430 3186263430 0.00000000
35.00942993 26.36234283 -0.51020539 11 6 4882 43.82800000 3186263432 3186263432 -0.66700000
10.18613052 9.36006737 -2.15218425 2 7 4882 14.00000000 3186263432 3186263432 -8.84300000
12.31231117 10.24731445 -2.03897929 2 8 4883 16.14800000 3186263434 3186263434 -7.25400000
40.30743790 40.83141708 0.33346435 46 9 4883 57.37600000 3186263434 3186263434 0.33300000
39.66888428 33.00397873 -0.29991800 24 10 4884 51.60400000 3186263437 3186263437 -0.33300000
13.02674198 11.96192932 -1.90504229 1 11 4884 17.78800000 3186263437 3186263437 -6.14800000
15.53208542 11.68302822 -1.81426823 2 12 4885 19.52000000 3186263439 3186263439 -5.33300000
40.23582077 36.93398285 1.27091193 26 13 4885 54.63200000 3186263439 3186263439 1.33300000
40.69902802 30.60214806 0.59281051 18 14 4886 50.92400000 3186263441 3186263441 0.66700000
16.79940414 15.41540718 -1.59435391 2 15 4886 22.85600000 3186263441 3186263441 -4.00000000
16.08148575 13.36533737 -1.70702660 2 16 4887 20.98000000 3186263443 3186263443 -4.66700000
40.09467316 40.55921173 1.65978956 22 17 4887 57.05600000 3186263443 3186263443 1.66700000
40.25595856 33.45676041 0.91366839 34 18 4887 52.35200000 3186263446 3186263446 1.00000000
16.79870605 16.99333572 -1.53139937 3 19 4887 23.94400000 3186263446 3186263446 -3.66700000
19.53485107 14.67784691 -1.42301071 3 20 4888 24.47600000 3186263448 3186263448 -3.33300000
40.05666733 36.73090363 3.16508842 37 21 4888 54.44000000 3186263448 3186263448 3.33300000
40.03438950 33.24899292 2.12019801 14 22 4889 52.08400000 3186263450 3186263450 2.33300000
19.74330902 18.09774971 -1.24759245 7 23 4889 26.81200000 3186263450 3186263450 -2.66700000
20.15830231 16.73574448 -1.37308609 9 24 4890 26.23600000 3186263453 3186263453 -3.00000000
42.24722672 38.71245193 7.03576088 24 25 4890 57.73200000 3186263453 3186263453 7.00000000
42.43127441 35.21461487 4.50140810 41 26 4891 55.32400000 3186263455 3186263455 4.66700000
20.25016975 20.45620346 -1.17269528 8 27 4891 28.80800000 3186263455 3186263455 -2.33300000
20.81335831 15.61575413 -0.90864331 10 28 4892 26.03600000 3186263457 3186263457 -2.00000000
20.92200851 19.15805817 -0.66011488 17 31 4892 28.37600000 3186263460 3186263460 -1.33300000
4.00499725 3.31439948 -2.42413831 6 0 4899 5.73600000 3186263480 3186263480 -25.00000000
20.92077065 21.07469368 -0.51833647 12 1 4899 29.70000000 3186263480 3186263480 -1.00000000
20.86590958 17.26178169 -0.78812075 23 2 4900 27.09200000 3186263483 3186263483 -1.66700000
6.65321255 6.07521772 -2.52214718 6 3 4900 9.35600000 3186263483 3186263483 -15.63900000
9.06488895 7.49646378 -2.35262299 1 4 4901 11.99600000 3186263485 3186263485 -11.31000000
40.27881622 36.76672745 0.00000000 43 5 4901 54.53600000 3186263485 3186263485 0.00000000
35.17993927 26.30838203 -0.51141608 11 6 4901 43.93200000 3186263487 3186263487 -0.66700000
10.21419430 9.32357216 -2.15156937 2 7 4901 13.99600000 3186263487 3186263487 -8.84300000
12.34316730 10.20390034 -2.03847432 2 8 4902 16.14400000 3186263490 3186263490 -7.25400000
40.30446243 40.55850220 0.33232522 45 9 4902 57.18000000 3186263490 3186263490 0.33300000
13.07515240 11.92670631 -1.90632749 1 11 4903 17.80000000 3186263492 3186263492 -6.14800000
15.56436062 11.62669086 -1.81352460 2 12 4904 19.51200000 3186263494 3186263494 -5.33300000
40.23397064 36.68718719 1.26700366 25 13 4904 54.46400000 3186263494 3186263494 1.33300000
40.76502991 30.44069290 0.59229833 18 14 4905 50.88000000 3186263496 3186263496 0.66700000
16.84453392 15.35423756 -1.59379590 2 15 4905 22.84800000 3186263496 3186263496 -4.00000000
16.13494301 13.31954956 -1.70800304 2 16 4906 20.99200000 3186263499 3186263499 -4.66700000
39.92717743 40.12277603 1.64733875 44 17 4906 56.62800000 3186263499 3186263499 1.66700000
40.42836761 33.37400436 0.91506457 35 18 4906 52.43200000 3186263501 3186263501 1.00000000
16.84651756 16.92904663 -1.53063178 3 19 4906 23.93200000 3186263501 3186263501 -3.66700000
19.58021736 14.61059856 -1.42277813 3 20 4907 24.47200000 3186263503 3186263503 -3.33300000
39.95979309 36.39888000 3.14787912 37 21 4907 54.14400000 3186263503 3186263503 3.33300000
40.14750671 33.11859512 2.12036085 28 22 4908 52.08800000 3186263506 3186263506 2.33300000
19.77662659 18.00796890 -1.24591732 7 23 4908 26.77600000 3186263506 3186263506 -2.66700000
20.21060753 16.66626358 -1.37287676 9 24 4909 26.23200000 3186263508 3186263508 -3.00000000
43.44994736 39.55027390 7.21417761 53 25 4909 59.19600000 3186263508 3186263508 7.00000000
42.81853104 35.29687119 4.53004837 42 26 4910 55.67600000 3186263510 3186263510 4.66700000
20.30942917 20.38044739 -1.17220688 8 27 4910 28.79600000 3186263510 3186263510 -2.33300000
20.80732727 15.50365543 -0.90613055 10 28 4911 25.96400000 3186263513 3186263513 -2.00000000
20.91442680 19.02399254 -0.65788162 24 31 4911 28.28000000 3186263515 3186263515 -1.33300000
4.01431704 3.29739714 -2.42244792 6 0 4920 5.73200000 3186263536 3186263536 -25.00000000
20.92151642 20.92151642 -0.51645160 12 1 4920 29.59200000 3186263536 3186263536 -1.00000000
20.86105537 17.12936783 -0.78556079 23 2 4921 27.00400000 3186263538 3186263538 -1.66700000
6.67543459 6.05079174 -2.52214718 6 3 4921 9.35600000 3186263538 3186263538 -15.63900000
9.09230423 7.46318913 -2.35262299 1 4 4922 11.99600000 3186263540 3186263540 -11.31000000
40.26805878 36.48724365 0.00000000 28 5 4922 54.34000000 3186263540 3186263540 0.00000000
35.26006699 26.16734695 -0.51118326 11 6 4922 43.91200000 3186263543 3186263543 -0.66700000
10.24829865 9.28607273 -2.15156937 2 7 4922 13.99600000 3186263543 3186263543 -8.84300000
12.37434864 10.15355778 -2.03746414 2 8 4923 16.13600000 3186263545 3186263545 -7.25400000
40.33965302 40.29743195 0.33139533 45 9 4923 57.02000000 3186263545 3186263545 0.33300000
39.53648758 32.42943573 -0.29719803 23 10 4924 51.13600000 3186263547 3186263547 -0.33300000
13.10108948 11.86268711 -1.90375710 1 11 4924 17.77600000 3186263547 3186263547 -6.14800000
15.61006927 11.57193851 -1.81389642 2 12 4925 19.51600000 3186263549 3186263549 -5.33300000
40.22289276 36.40798187 1.26244414 37 13 4925 54.26800000 3186263549 3186263549 1.33300000
40.72207642 30.17677116 0.59006321 35 14 4926 50.68800000 3186263552 3186263552 0.66700000
16.90069580 15.29239655 -1.59379590 2 15 4926 22.84800000 3186263552 3186263552 -4.00000000
16.17440224 13.25274277 -1.70702660 2 16 4927 20.98000000 3186263554 3186263554 -4.66700000
39.94375610 39.84627151 1.64198613 21 17 4927 56.44400000 3186263554 3186263554 1.66700000
40.20040512 32.92709351 0.90703648 33 18 4928 51.97200000 3186263556 3186263556 1.00000000
16.91139603 16.86423683 -1.53063178 3 19 4928 23.93200000 3186263556 3186263556 -3.66700000
19.64005470 14.54348755 -1.42324328 3 20 4928 24.48000000 3186263559 3186263559 -3.33300000
40.01296234 36.17986298 3.14160013 37 21 4928 54.03600000 3186263559 3186263559 3.33300000
40.10472870 32.83703232 2.11173081 42 22 4929 51.87600000 3186263561 3186263561 2.33300000
19.82471085 17.91928673 -1.24480057 7 23 4929 26.75200000 3186263561 3186263561 -2.66700000
20.27464867 16.59460640 -1.37308609 9 24 4930 26.23600000 3186263563 3186263563 -3.00000000
42.41630173 38.32606888 7.01918650 23 25 4930 57.59600000 3186263563 3186263563 7.00000000
43.08028793 35.24825287 4.54404306 42 26 4931 55.84800000 3186263566 3186263566 4.66700000
20.36417007 20.28612709 -1.17106700 8 27 4931 28.76800000 3186263566 3186263566 -2.33300000
20.81579781 15.39163780 -0.90403658 10 28 4932 25.90400000 3186263568 3186263568 -2.00000000
20.91278076 18.88289070 -0.65564835 24 31 4932 28.18400000 3186263570 3186263570 -1.33300000
4.01903915 3.28018522 -2.41906691 7 0 4938 5.72400000 3186263591 3186263591 -25.00000000
20.91905594 20.78802872 -0.51477617 12 1 4938 29.49600000 3186263591 3186263591 -1.00000000
20.85590363 17.01572227 -0.78334987 15 2 4939 26.92800000 3186263593 3186263593 -1.66700000
6.68868685 6.02463484 -2.51999044 6 3 4939 9.34800000 3186263593 3186263593 -15.63900000
9.12482452 7.44202471 -2.35497642 1 4 4940 12.00800000 3186263595 3186263595 -11.31000000
40.27547836 36.26420212 0.00000000 42 5 4940 54.19600000 3186263595 3186263595 0.00000000
35.50763702 26.16892242 -0.51351148 11 6 4941 44.11200000 3186263598 3186263598 -0.66700000
10.27609825 9.24939346 -2.15095448 2 7 4941 13.99200000 3186263598 3186263598 -8.84300000
12.40618515 10.11463261 -2.03746414 2 8 4941 16.13600000 3186263600 3186263600 -7.25400000
40.57392502 40.27758408 0.33227873 45 9 4941 57.17200000 3186263600 3186263600 0.33300000
39.52344894 32.21157074 -0.29633784 22 10 4942 50.98800000 3186263602 3186263602 -0.33300000
13.13533592 11.81880951 -1.90332878 1 11 4942 17.77200000 3186263602 3186263602 -6.14800000
15.58541584 11.47796822 -1.80683267 2 12 4943 19.44000000 3186263605 3186263605 -5.33300000
40.13489532 36.09959030 1.25611651 25 13 4943 53.99600000 3186263605 3186263605 1.33300000
40.77802658 30.02023506 0.58950448 35 14 4944 50.64000000 3186263607 3186263607 0.66700000
16.93975449 15.23122215 -1.59295881 2 15 4944 22.83600000 3186263607 3186263607 -4.00000000
16.21595573 13.20186424 -1.70702660 2 16 4945 20.98000000 3186263609 3186263609 -4.66700000
39.96083450 39.61362457 1.63756430 43 17 4945 56.29200000 3186263609 3186263609 1.66700000
40.03739929 32.59556961 0.90117246 49 18 4945 51.63600000 3186263612 3186263612 1.00000000
16.94151497 16.79431343 -1.52884102 3 19 4945 23.90400000 3186263612 3186263612 -3.66700000
19.65026474 14.45568562 -1.42068517 3 20 4946 24.43600000 3186263614 3186263614 -3.33300000
39.83830261 35.79509735 3.11904216 36 21 4946 53.64800000 3186263614 3186263614 3.33300000
39.92556381 32.48135376 2.09691334 26 22 4947 51.51200000 3186263616 3186263616 2.33300000
19.86901665 17.84623718 -1.24405611 7 23 4947 26.73600000 3186263616 3186263616 -2.66700000
20.31738472 16.52326965 -1.37245810 9 24 4948 26.22400000 3186263619 3186263619 -3.00000000
41.77433014 37.50829315 6.89341736 22 25 4948 56.56400000 3186263619 3186263619 7.00000000
42.94952393 34.91658020 4.51865721 41 26 4949 55.53600000 3186263621 3186263621 4.66700000
20.43064117 20.22486305 -1.17122984 8 27 4949 28.77200000 3186263621 3186263621 -2.33300000
20.80283546 15.28120136 -0.90138417 10 28 4950 25.82800000 3186263623 3186263623 -2.00000000
20.91574478 18.76003647 -0.65378731 23 31 4951 28.10400000 3186263625 3186263625 -1.33300000
4.02483177 3.26157141 -2.41568589 8 0 4958 5.71600000 3186263646 3186263646 -25.00000000
20.92601776 20.65027046 -0.51317054 12 1 4958 29.40400000 3186263646 3186263646 -1.00000000
20.85303688 16.89248276 -0.78102267 15 2 4959 26.84800000 3186263648 3186263648 -1.66700000
6.71254683 6.00381804 -2.52106881 6 3 4959 9.35200000 3186263648 3186263648 -15.63900000
9.13550472 7.39778614 -2.35105419 1 4 4960 11.98800000 3186263651 3186263651 -11.31000000
40.25570297 35.99275208 0.00000000 42 5 4960 54.00000000 3186263651 3186263651 0.00000000
35.76016998 26.16290474 -0.51583970 11 6 4961 44.31200000 3186263653 3186263653 -0.66700000
10.30537510 9.21083260 -2.15033960 2 7 4961 13.98800000 3186263653 3186263653 -8.84300000
12.43524837 10.06627274 -2.03645396 2 8 4961 16.12800000 3186263655 3186263655 -7.25400000
40.55760193 39.98126602 0.33100012 67 9 4961 56.95200000 3186263655 3186263655 0.33300000
39.56724167 32.01805878 -0.29582641 22 10 4962 50.90000000 3186263658 3186263658 -0.33300000
13.17947674 11.77553654 -1.90375710 1 11 4962 17.77600000 3186263658 3186263658 -6.14800000
15.69290352 11.47285557 -1.81464005 2 12 4963 19.52400000 3186263660 3186263660 -5.33300000
40.24276733 35.94329071 1.25555825 12 13 4963 53.97200000 3186263660 3186263660 1.33300000
40.56287384 29.64406967 0.58489460 34 14 4964 50.24400000 3186263662 3186263662 0.66700000
16.99876976 15.17731380 -1.59351683 2 15 4964 22.84400000 3186263662 3186263662 -4.00000000
16.24023819 13.12763596 -1.70474839 2 16 4965 20.95200000 3186263665 3186263665 -4.66700000
40.06182861 39.43743134 1.63605165 43 17 4965 56.24000000 3186263665 3186263665 1.66700000
40.11361313 32.42544174 0.90033472 48 18 4965 51.58800000 3186263667 3186263667 1.00000000
17.00856781 16.74347496 -1.52960849 3 19 4965 23.91600000 3186263667 3186263667 -3.66700000
19.71995354 14.40113640 -1.42208040 3 20 4966 24.46000000 3186263669 3186263669 -3.33300000
39.91533279 35.61328506 3.11532140 36 21 4966 53.58400000 3186263669 3186263669 3.33300000
39.96097565 32.27900314 2.09284282 26 22 4967 51.41200000 3186263672 3186263672 2.33300000
19.91329956 17.76081467 -1.24293935 7 23 4967 26.71200000 3186263672 3186263672 -2.66700000
20.36561394 16.44471931 -1.37183011 9 24 4968 26.21200000 3186263674 3186263674 -3.00000000
43.40150833 38.69651794 7.13959360 51 25 4968 58.58400000 3186263674 3186263674 7.00000000
42.78263855 34.53356552 4.48838997 61 26 4969 55.16400000 3186263676 3186263676 4.66700000
20.44126129 20.09458542 -1.16781044 8 27 4969 28.68800000 3186263676 3186263676 -2.33300000
20.80760002 15.17316341 -0.89929020 10 28 4970 25.76800000 3186263678 3186263678 -2.00000000
20.91215515 18.63204956 -0.65174013 20 31 4970 28.01600000 3186263681 3186263681 -1.33300000
4.02771854 3.24068451 -2.41061449 8 0 4978 5.70400000 3186263701 3186263701 -25.00000000
20.92084885 20.50152016 -0.51128572 12 1 4978 29.29600000 3186263701 3186263701 -1.00000000
20.84956360 16.76947212 -0.77869540 15 2 4979 26.76800000 3186263704 3186263704 -1.66700000
6.72770309 5.97523451 -2.51891208 8 3 4979 9.34400000 3186263704 3186263704 -15.63900000
9.16127205 7.36585188 -2.35105419 1 4 4980 11.98800000 3186263706 3186263706 -11.31000000
40.20461655 35.69532776 0.00000000 27 5 4980 53.76400000 3186263706 3186263706 0.00000000
35.84673309 26.04417610 -0.51583970 11 6 4980 44.31200000 3186263708 3186263708 -0.66700000
10.32699585 9.16873550 -2.14849496 2 7 4980 13.97600000 3186263708 3186263708 -8.84300000
12.46412468 10.01783276 -2.03544378 2 8 4981 16.12000000 3186263711 3186263711 -7.25400000
40.50540543 39.65197754 0.32944250 44 9 4981 56.68400000 3186263711 3186263711 0.33300000
39.59457397 31.81210327 -0.29519871 21 10 4982 50.79200000 3186263713 3186263713 -0.33300000
13.22347641 11.73209953 -1.90418553 1 11 4982 17.78000000 3186263713 3186263713 -6.14800000
15.71996307 11.40865040 -1.81315291 2 12 4983 19.50800000 3186263715 3186263715 -5.33300000
40.22737503 35.67788696 1.25118470 24 13 4983 53.78400000 3186263715 3186263715 1.33300000
40.52688980 29.40130234 0.58289230 34 14 4984 50.07200000 3186263718 3186263718 0.66700000
17.04268837 15.10994339 -1.59267986 2 15 4984 22.83200000 3186263718 3186263718 -4.00000000
16.29528999 13.07835293 -1.70572484 2 16 4985 20.96400000 3186263720 3186263720 -4.66700000
40.19352722 39.29175568 1.63581896 43 17 4985 56.23200000 3186263720 3186263720 1.66700000
40.22343445 32.28271866 0.90026492 32 18 4985 51.58400000 3186263722 3186263722 1.00000000
17.00411224 16.62261200 -1.52398026 3 19 4985 23.82800000 3186263722 3186263722 -3.66700000
19.75716972 14.32283783 -1.42115021 3 20 4986 24.44400000 3186263725 3186263725 -3.33300000
40.01848221 35.45520020 3.11369348 24 21 4986 53.55600000 3186263725 3186263725 3.33300000
39.84892273 31.95928001 2.08111906 25 22 4987 51.12400000 3186263727 3186263727 2.33300000
19.96919250 17.68589783 -1.24256718 7 23 4987 26.70400000 3186263727 3186263727 -2.66700000
20.41977501 16.37103081 -1.37162077 9 24 4988 26.20800000 3186263729 3186263729 -3.00000000
43.23311615 38.27634048 7.08987093 24 25 4988 58.17600000 3186263729 3186263729 7.00000000
42.79092789 34.29426193 4.47667313 40 26 4989 55.02000000 3186263731 3186263731 4.66700000
20.50842094 20.02031898 -1.16764760 8 27 4989 28.68400000 3186263731 3186263731 -2.33300000
20.80862617 15.06293392 -0.89705664 13 28 4990 25.70400000 3186263734 3186263734 -2.00000000
20.92338943 18.50494194 -0.64997214 20 31 4991 27.94000000 3186263736 3186263736 -1.33300000
4.02823830 3.21685147 -2.40385270 8 0 4999 5.68800000 3186263757 3186263757 -25.00000000
20.92704773 20.35777283 -0.50961030 12 1 4999 29.20000000 3186263757 3186263757 -1.00000000
20.86088943 16.65303040 -0.77683359 15 2 5000 26.70400000 3186263759 3186263759 -1.66700000
6.75244761 5.95308352 -2.51999044 6 3 5000 9.34800000 3186263759 3186263759 -15.63900000
9.19433975 7.33711815 -2.35262299 1 4 5001 11.99600000 3186263761 3186263761 -11.31000000
40.22714233 35.45252228 0.00000000 40 5 5001 53.62000000 3186263761 3186263761 0.00000000
36.10417175 26.02957153 -0.51816791 11 6 5001 44.51200000 3186263764 3186263764 -0.66700000
10.36053085 9.13082409 -2.14849496 2 7 5001 13.97600000 3186263764 3186263764 -8.84300000
12.49765587 9.96960735 -2.03493881 2 8 5002 16.11600000 3186263766 3186263766 -7.25400000
40.52998734 39.38617325 0.32846612 43 9 5002 56.51600000 3186263766 3186263766 0.33300000
39.60457230 31.58197784 -0.29440829 31 10 5003 50.65600000 3186263768 3186263768 -0.33300000
13.25743389 11.67566872 -1.90290034 1 11 5003 17.76800000 3186263768 3186263768 -6.14800000
15.70673084 11.31139088 -1.80683267 2 12 5004 19.44000000 3186263771 3186263771 -5.33300000
40.24381256 35.42979431 1.24764872 24 13 5004 53.63200000 3186263771 3186263771 1.33300000
40.54024124 29.18479919 0.58154196 34 14 5005 49.95600000 3186263773 3186263773 0.66700000
16.98712349 14.94983768 -1.58235586 2 15 5005 22.68400000 3186263773 3186263773 -4.00000000
16.33064270 13.00860405 -1.70442295 2 16 5006 20.94800000 3186263775 3186263775 -4.66700000
40.34013748 39.14696121 1.63593531 43 17 5006 56.23600000 3186263775 3186263775 1.66700000
39.89414978 31.77873993 0.89028215 46 18 5006 51.01200000 3186263778 3186263778 1.00000000
17.05060005 16.54627800 -1.52270114 3 19 5006 23.80800000 3186263778 3186263778 -3.66700000
19.80629158 14.24799633 -1.42091763 3 20 5007 24.44000000 3186263780 3186263780 -3.33300000
39.68937683 34.90480804 3.07811236 23 21 5007 52.94400000 3186263780 3186263780 3.33300000
39.76879501 31.65619850 2.07086086 24 22 5008 50.87200000 3186263782 3186263782 2.33300000
20.00687218 17.58884430 -1.24089205 4 23 5008 26.66800000 3186263782 3186263782 -2.66700000
20.37961960 16.21648979 -1.36492169 9 24 5009 26.08000000 3186263784 3186263784 -3.00000000
42.35320282 37.22129822 6.92315388 45 25 5009 56.80800000 3186263784 3186263784 7.00000000
43.00369644 34.20668411 4.48578596 40 26 5010 55.13200000 3186263787 3186263787 4.66700000
20.56156921 19.92554665 -1.16650784 8 27 5010 28.65600000 3186263787 3186263787 -2.33300000
20.80200577 14.94225311 -0.89440429 10 28 5011 25.62800000 3186263789 3186263789 -2.00000000
20.90993309 18.35689735 -0.64745975 23 31 5012 27.83200000 3186263791 3186263791 -1.33300000
4.03660202 3.20051837 -2.40216231 6 0 5019 5.68400000 3186263812 3186263812 -25.00000000
20.92319489 20.21235275 -0.50779521 12 1 5019 29.09600000 3186263812 3186263812 -1.00000000
20.84995651 16.52547264 -0.77427363 18 2 5020 26.61600000 3186263814 3186263814 -1.66700000
6.76449203 5.92186499 -2.51675558 6 3 5020 9.33600000 3186263814 3186263814 -15.63900000
9.23834133 7.31959391 -2.35732985 1 4 5021 12.02000000 3186263817 3186263817 -11.31000000
40.27539825 35.24603271 0.00000000 40 5 5021 53.52000000 3186263817 3186263817 0.00000000
36.11349487 25.84519005 -0.51700377 11 6 5021 44.41200000 3186263819 3186263819 -0.66700000
10.38639164 9.08939743 -2.14726496 2 7 5021 13.96800000 3186263819 3186263819 -8.84300000
12.52615929 9.92099476 -2.03392863 2 8 5022 16.10800000 3186263821 3186263821 -7.25400000
40.66146469 39.23889923 0.32841963 21 9 5022 56.50800000 3186263821 3186263821 0.33300000
39.57659149 31.33429337 -0.29338542 20 10 5023 50.48000000 3186263824 3186263824 -0.33300000
13.30409622 11.63455677 -1.90375710 2 11 5023 17.77600000 3186263824 3186263824 -6.14800000
15.74611950 11.25649548 -1.80683267 2 12 5024 19.44000000 3186263826 3186263826 -5.33300000
40.12036514 35.07328033 1.24001837 23 13 5024 53.30400000 3186263826 3186263826 1.33300000
40.56377029 28.98729706 0.58042443 33 14 5025 49.86000000 3186263828 3186263828 0.66700000
17.03920364 14.89045048 -1.58235586 2 15 5025 22.68400000 3186263828 3186263828 -4.00000000
16.38533211 12.95893955 -1.70539939 2 16 5026 20.96000000 3186263831 3186263831 -4.66700000
40.32107162 38.85609055 1.62965167 63 17 5026 56.02000000 3186263831 3186263831 1.66700000
40.02365875 31.65417480 0.89070100 46 18 5026 51.03600000 3186263833 3186263833 1.00000000
17.10537910 16.48388863 -1.52244532 3 19 5026 23.80400000 3186263833 3186263833 -3.66700000
19.76491356 14.11379623 -1.41440606 3 20 5027 24.32800000 3186263835 3186263835 -3.33300000
39.60644913 34.58744431 3.06229854 22 21 5027 52.67200000 3186263835 3186263835 3.33300000
39.77557755 31.43540764 2.06548738 24 22 5028 50.74000000 3186263837 3186263837 2.33300000
20.05911636 17.51101685 -1.24033368 4 23 5028 26.65600000 3186263837 3186263837 -2.66700000
20.43296623 16.14277649 -1.36471236 9 24 5029 26.07600000 3186263840 3186263840 -3.00000000
42.43201828 37.02885437 6.91486645 44 25 5029 56.74000000 3186263840 3186263840 7.00000000
43.14473724 34.07366180 4.48806429 40 26 5030 55.16000000 3186263842 3186263842 4.66700000
20.62235832 19.84533882 -1.16601932 8 27 5030 28.64400000 3186263842 3186263842 -2.33300000
20.79870605 14.83009624 -0.89203113 10 28 5031 25.56000000 3186263844 3186263844 -2.00000000
20.91962624 18.23649788 -0.64578480 23 31 5032 27.76000000 3186263847 3186263847 -1.33300000
4.03920364 3.17968154 -2.39709067 5 0 5039 5.67200000 3186263867 3186263867 -25.00000000
20.92435646 20.07274818 -0.50611979 12 1 5039 29.00000000 3186263867 3186263867 -1.00000000
20.85095787 16.40808487 -0.77217913 18 2 5040 26.54400000 3186263870 3186263870 -1.66700000
6.78802919 5.90074348 -2.51783395 6 3 5040 9.34000000 3186263870 3186263870 -15.63900000
9.25150394 7.27760124 -2.35419202 1 4 5041 12.00400000 3186263872 3186263872 -11.31000000
40.28646851 35.00815201 0.00000000 39 5 5041 53.37200000 3186263872 3186263872 0.00000000
36.50673676 25.93439865 -0.52133429 11 6 5041 44.78400000 3186263874 3186263874 -0.66700000
10.41507339 9.05049419 -2.14665008 2 7 5041 13.96400000 3186263874 3186263874 -8.84300000
12.55135632 9.86985111 -2.03241324 2 8 5042 16.09600000 3186263877 3186263877 -7.25400000
40.68267059 38.98602676 0.32748970 43 9 5042 56.34800000 3186263877 3186263877 0.33300000
39.55050659 31.08966064 -0.29238576 19 10 5043 50.30800000 3186263879 3186263879 -0.33300000
13.34462738 11.58804607 -1.90375710 1 11 5043 17.77600000 3186263879 3186263879 -6.14800000
15.78206825 11.19915771 -1.80646086 2 12 5044 19.43600000 3186263881 3186263881 -5.33300000
40.26670837 34.95399094 1.24076283 24 13 5044 53.33600000 3186263881 3186263881 1.33300000
40.57988739 28.78535843 0.57921374 33 14 5045 49.75600000 3186263883 3186263883 0.66700000
17.10614586 14.84395790 -1.58375096 2 15 5045 22.70400000 3186263883 3186263883 -4.00000000
16.42419624 12.89674091 -1.70474839 2 16 5046 20.95200000 3186263886 3186263886 -4.66700000
40.17336655 38.44419861 1.61824822 61 17 5046 55.62800000 3186263886 3186263886 1.66700000
40.09301376 31.48216438 0.88979352 31 18 5046 50.98400000 3186263888 3186263888 1.00000000
17.15127754 16.41304016 -1.52142191 3 19 5046 23.78800000 3186263888 3186263888 -3.66700000
19.80102730 14.03548050 -1.41347587 3 20 5047 24.31200000 3186263890 3186263890 -3.33300000
39.72995758 34.45159531 3.06253099 34 21 5047 52.67600000 3186263890 3186263890 3.33300000
39.81903458 31.24456215 2.06206799 35 22 5048 50.65600000 3186263893 3186263893 2.33300000
20.11408043 17.43565750 -1.23996139 4 23 5048 26.64800000 3186263893 3186263893 -2.66700000
20.48604774 16.06888771 -1.36450303 9 24 5049 26.07200000 3186263895 3186263895 -3.00000000
42.74103928 37.03651047 6.94411516 45 25 5049 56.98000000 3186263895 3186263895 7.00000000
43.04066467 33.74819183 4.46495676 39 26 5050 54.87600000 3186263897 3186263897 4.66700000
20.67416954 19.75666428 -1.16504240 8 27 5050 28.62000000 3186263897 3186263897 -2.33300000
20.81118965 14.72969151 -0.89035594 13 28 5051 25.51200000 3186263900 3186263900 -2.00000000
20.91663742 18.10578537 -0.64373761 26 31 5052 27.67200000 3186263902 3186263902 -1.33300000
4.00974226 3.13500881 -2.37342405 3 0 5058 5.61600000 3186263923 3186263923 -25.00000000
20.91552734 19.93151283 -0.50430471 12 1 5058 28.89600000 3186263923 3186263923 -1.00000000
20.85169983 16.29699326 -0.77020097 18 2 5059 26.47600000 3186263925 3186263925 -1.66700000
6.80172825 5.87316656 -2.51567721 6 3 5059 9.33200000 3186263925 3186263925 -15.63900000
9.26631355 7.23963737 -2.35183859 1 4 5060 11.99200000 3186263927 3186263927 -11.31000000
40.30241776 34.78811264 0.00000000 26 5 5060 53.24000000 3186263927 3186263927 0.00000000
36.59253693 25.81319618 -0.52133429 11 6 5060 44.78400000 3186263930 3186263930 -0.66700000
10.43605232 9.00815868 -2.14480543 2 7 5060 13.95200000 3186263930 3186263930 -8.84300000
12.58714390 9.83061790 -2.03291845 2 8 5061 16.10000000 3186263932 3186263932 -7.25400000
40.83200836 38.87020874 0.32765245 43 9 5061 56.37600000 3186263932 3186263932 0.33300000
39.56195068 30.88695145 -0.29171157 19 10 5062 50.19200000 3186263934 3186263934 -0.33300000
13.37093544 11.53333950 -1.90204358 1 11 5062 17.76000000 3186263934 3186263934 -6.14800000
15.80935192 11.13987827 -1.80534554 2 12 5063 19.42400000 3186263936 3186263936 -5.33300000
40.29154205 34.74192810 1.23797131 23 13 5063 53.21600000 3186263936 3186263936 1.33300000
40.56393814 28.57232094 0.57763052 33 14 5064 49.62000000 3186263939 3186263939 0.66700000
17.16736603 14.79757118 -1.58486712 2 15 5064 22.72000000 3186263939 3186263939 -4.00000000
16.46687317 12.84220505 -1.70474839 2 16 5065 20.95200000 3186263941 3186263941 -4.66700000
40.17892075 38.19506454 1.61336100 60 17 5065 55.46000000 3186263941 3186263941 1.66700000
40.02058411 31.21130371 0.88588417 30 18 5065 50.76000000 3186263943 3186263943 1.00000000
17.20850372 16.35882568 -1.52167773 3 19 5065 23.79200000 3186263943 3186263943 -3.66700000
19.84746170 13.96974087 -1.41347587 3 20 5066 24.31200000 3186263946 3186263946 -3.33300000
39.68967819 34.18674469 3.05067062 33 21 5066 52.47200000 3186263946 3186263946 3.33300000
39.85622406 31.06075478 2.05864859 35 22 5067 50.57200000 3186263948 3186263948 2.33300000
20.15362167 17.35321808 -1.23884463 4 23 5067 26.62400000 3186263948 3186263948 -2.66700000
20.42577934 15.91248989 -1.35696661 9 24 5068 25.92800000 3186263950 3186263950 -3.00000000
42.91477585 36.93860245 6.95240211 45 25 5068 57.04800000 3186263950 3186263950 7.00000000
43.19638062 33.63957214 4.46951342 40 26 5069 54.93200000 3186263953 3186263953 4.66700000
20.72507858 19.67424011 -1.16422820 8 27 5069 28.60000000 3186263953 3186263953 -2.33300000
20.80759048 14.62381935 -0.88812238 10 28 5070 25.44800000 3186263955 3186263955 -2.00000000
20.90974998 17.98522186 -0.64178354 22 31 5070 27.58800000 3186263957 3186263957 -1.33300000
3.96911430 3.08098030 -2.34299564 2 0 5078 5.54400000 3186263978 3186263978 -25.00000000
20.91816139 19.79515839 -0.50269914 12 1 5078 28.80400000 3186263978 3186263978 -1.00000000
20.84212303 16.17263412 -0.76775736 22 2 5079 26.39200000 3186263980 3186263980 -1.66700000
6.82218790 5.84938812 -2.51567721 6 3 5079 9.33200000 3186263980 3186263980 -15.63900000
9.28842926 7.20484400 -2.35105419 1 4 5080 11.98800000 3186263983 3186263983 -11.31000000
40.27478790 34.51966858 0.00000000 25 5 5080 53.04400000 3186263983 3186263983 0.00000000
36.87368011 25.80963707 -0.52398843 12 6 5081 45.01200000 3186263985 3186263985 -0.66700000
10.46599770 8.96727657 -2.14419055 2 7 5081 13.94800000 3186263985 3186263985 -8.84300000
12.61511135 9.78175735 -2.03190827 2 8 5081 16.09200000 3186263987 3186263987 -7.25400000
40.81338501 38.58181000 0.32642031 21 9 5081 56.16400000 3186263987 3186263987 0.33300000
39.62842941 30.71681023 -0.29140934 19 10 5082 50.14000000 3186263989 3186263989 -0.33300000
13.41715336 11.49176979 -1.90290034 1 11 5082 17.76800000 3186263989 3186263989 -6.14800000
15.91994095 11.13484478 -1.81352460 2 12 5083 19.51200000 3186263992 3186263992 -5.33300000
40.26980209 34.47883606 1.23359776 35 13 5083 53.02800000 3186263992 3186263992 1.33300000
40.30612946 28.18074036 0.57255501 32 14 5084 49.18400000 3186263994 3186263994 0.66700000
17.17950630 14.70382500 -1.58123970 2 15 5084 22.66800000 3186263994 3186263994 -4.00000000
16.50529480 12.77976513 -1.70409751 2 16 5085 20.94400000 3186263996 3186263996 -4.66700000
39.99508667 37.75541306 1.60067749 19 17 5085 55.02400000 3186263996 3186263996 1.66700000
40.35610199 31.23576736 0.89077085 15 18 5086 51.04000000 3186263999 3186263999 1.00000000
17.23641014 16.26550674 -1.51886368 3 19 5086 23.74800000 3186263999 3186263999 -3.66700000
19.88301086 13.89122677 -1.41254568 3 20 5086 24.29600000 3186264001 3186264001 -3.33300000
39.64186478 33.90524292 3.03788018 22 21 5086 52.25200000 3186264001 3186264001 3.33300000
39.85692978 30.83828545 2.05311251 34 22 5087 50.43600000 3186264003 3186264003 2.33300000
20.20496178 17.27497292 -1.23828626 4 23 5087 26.61200000 3186264003 3186264003 -2.66700000
20.48120117 15.84109402 -1.35696661 9 24 5088 25.92800000 3186264006 3186264006 -3.00000000
43.43278503 37.12133026 7.01528692 47 25 5088 57.56400000 3186264006 3186264006 7.00000000
43.43339157 33.58124924 4.48188066 40 26 5089 55.08400000 3186264008 3186264008 4.66700000
20.78781128 19.59629250 -1.16390252 8 27 5089 28.59200000 3186264008 3186264008 -2.33300000
20.80277443 14.51221657 -0.88574922 10 28 5090 25.38000000 3186264010 3186264010 -2.00000000
20.91766739 17.86537552 -0.64010859 22 31 5090 27.51600000 3186264013 3186264013 -1.33300000
3.95453334 3.04650021 -2.32778144 4 0 5099 5.50800000 3186264033 3186264033 -25.00000000
20.92061424 19.65263748 -0.50102371 12 1 5099 28.70800000 3186264033 3186264033 -1.00000000
20.85057449 16.05710411 -0.76589561 18 2 5100 26.32800000 3186264036 3186264036 -1.66700000
6.84358120 5.82434416 -2.51567721 6 3 5100 9.33200000 3186264036 3186264036 -15.63900000
9.32720566 7.18032217 -2.35419202 3 4 5101 12.00400000 3186264038 3186264038 -11.31000000
40.21824265 34.21630478 0.00000000 25 5 5101 52.80400000 3186264038 3186264038 0.00000000
36.99102402 25.69028664 -0.52431440 12 6 5102 45.04000000 3186264040 3186264040 -0.66700000
10.49277210 8.92373562 -2.14296055 2 7 5102 13.94000000 3186264040 3186264040 -8.84300000
12.69175911 9.76691437 -2.03847432 1 8 5102 16.14400000 3186264042 3186264042 -7.25400000
40.84368134 38.32794952 0.32553691 62 9 5102 56.01200000 3186264042 3186264042 0.33300000
39.66148376 30.51038551 -0.29082817 18 10 5103 50.04000000 3186264045 3186264045 -0.33300000
13.45615292 11.43994045 -1.90247202 2 11 5103 17.76400000 3186264045 3186264045 -6.14800000
15.87884617 11.01965332 -1.80423021 2 12 5104 19.41200000 3186264047 3186264047 -5.33300000
40.21307373 34.17562866 1.22801459 23 13 5104 52.78800000 3186264047 3186264047 1.33300000
40.42229080 28.04194069 0.57274127 32 14 5105 49.20000000 3186264049 3186264049 0.66700000
17.22720146 14.63559341 -1.58068168 2 15 5105 22.66000000 3186264049 3186264049 -4.00000000
16.54570198 12.71432590 -1.70344663 2 16 5106 20.93600000 3186264052 3186264052 -4.66700000
40.15653992 37.63044357 1.60160840 38 17 5106 55.05600000 3186264052 3186264052 1.66700000
40.46488953 31.09470749 0.89077085 31 18 5106 51.04000000 3186264054 3186264054 1.00000000
17.28143311 16.19432259 -1.51784039 3 19 5106 23.73200000 3186264054 3186264054 -3.66700000
19.95020103 13.82963371 -1.41370845 3 20 5107 24.31600000 3186264056 3186264056 -3.33300000
39.75368881 33.74938202 3.03694987 33 21 5107 52.23600000 3186264056 3186264056 3.33300000
39.97286224 30.69442940 2.05327535 23 22 5108 50.44000000 3186264059 3186264059 2.33300000
20.25900269 17.19304466 -1.23772788 4 23 5108 26.60000000 3186264059 3186264059 -2.66700000
20.51694298 15.74889374 -1.35550129 9 24 5109 25.90000000 3186264061 3186264061 -3.00000000
43.42020035 36.83604050 6.99140072 47 25 5109 57.36800000 3186264061 3186264061 7.00000000
43.51822662 33.39270782 4.47797537 40 26 5110 55.03600000 3186264063 3186264063 4.66700000
20.82155800 19.48447037 -1.16178584 12 27 5110 28.54000000 3186264063 3186264063 -2.33300000
20.80980682 14.40402031 -0.88379484 10 28 5111 25.32400000 3186264066 3186264066 -2.00000000
20.91285133 17.72911263 -0.63796836 19 31 5111 27.42400000 3186264068 3186264068 -1.33300000
3.95309734 3.02455831 -2.32101941 5 0 5118 5.49200000 3186264089 3186264089 -25.00000000
20.90964508 19.51221085 -0.49920863 11 1 5118 28.60400000 3186264089 3186264089 -1.00000000
20.84654045 15.94414997 -0.76380104 15 2 5119 26.25600000 3186264091 3186264091 -1.66700000
6.86285782 5.80161810 -2.51567721 6 3 5119 9.33200000 3186264091 3186264091 -15.63900000
9.34473324 7.14458799 -2.35262299 1 4 5120 11.99600000 3186264094 3186264094 -11.31000000
40.25205231 34.01562119 0.00000000 25 5 5120 52.70000000 3186264094 3186264094 0.00000000
37.40078354 25.80107117 -0.52897084 12 6 5120 45.44000000 3186264096 3186264096 -0.66700000
10.51471710 8.88562489 -2.14173079 2 7 5120 13.93200000 3186264096 3186264096 -8.84300000
12.77136707 9.76091576 -2.04605031 2 8 5121 16.20400000 3186264098 3186264098 -7.25400000
40.81548691 38.04774094 0.32430479 20 9 5121 55.80000000 3186264098 3186264098 0.33300000
39.67662430 30.31312943 -0.29020047 27 10 5122 49.93200000 3186264101 3186264101 -0.33300000
13.49097729 11.39268970 -1.90204358 2 11 5122 17.76000000 3186264101 3186264101 -6.14800000
15.91202164 10.96467686 -1.80385852 2 12 5123 19.40800000 3186264103 3186264103 -5.33300000
40.26812363 33.99308014 1.22624660 23 13 5123 52.71200000 3186264103 3186264103 1.33300000
40.53811646 27.92362404 0.57306725 32 14 5124 49.22800000 3186264105 3186264105 0.66700000
17.28173828 14.58353233 -1.58123970 2 15 5124 22.66800000 3186264105 3186264105 -4.00000000
16.50537300 12.59650326 -1.69498467 2 16 5125 20.83200000 3186264107 3186264107 -4.66700000
39.98259735 37.21919632 1.58973956 37 17 5125 54.64800000 3186264107 3186264107 1.66700000
40.24666977 30.71528816 0.88372004 15 18 5125 50.63600000 3186264110 3186264110 1.00000000
17.34672737 16.14780617 -1.51886368 3 19 5125 23.74800000 3186264110 3186264110 -3.66700000
19.97292709 13.74755192 -1.41208053 3 20 5126 24.28800000 3186264112 3186264112 -3.33300000
39.89896774 33.64568710 3.03950810 33 21 5126 52.28000000 3186264112 3186264112 3.33300000
40.03629303 30.53262329 2.05132127 22 22 5127 50.39200000 3186264114 3186264114 2.33300000
20.30368614 17.11546898 -1.23698342 7 23 5127 26.58400000 3186264114 3186264114 -2.66700000
20.55634880 15.67108345 -1.35466385 9 24 5128 25.88400000 3186264117 3186264117 -3.00000000
42.58578110 35.88597107 6.83784533 42 25 5128 56.10800000 3186264117 3186264117 7.00000000
43.52408218 33.16847229 4.46723509 39 26 5129 54.90400000 3186264119 3186264119 4.66700000
20.80702019 19.34184456 -1.15738940 12 27 5129 28.43200000 3186264119 3186264119 -2.33300000
20.79815674 14.29417706 -0.88128209 9 28 5130 25.25200000 3186264121 3186264121 -2.00000000
20.91341019 17.61072540 -0.63620037 19 31 5130 27.34800000 3186264124 3186264124 -1.33300000
3.95497060 3.00416255 -2.31594801 5 0 5138 5.48000000 3186264144 3186264144 -25.00000000
20.91015816 19.37657928 -0.49760300 11 1 5138 28.51200000 3186264144 3186264144 -1.00000000
20.83519745 15.82050800 -0.76135749 14 2 5139 26.17200000 3186264147 3186264147 -1.66700000
6.87421656 5.77019739 -2.51244235 6 3 5139 9.32000000 3186264147 3186264147 -15.63900000
9.35711861 7.10243988 -2.34948516 3 4 5140 11.98000000 3186264149 3186264149 -11.31000000
40.15604782 33.69492722 0.00000000 24 5 5140 52.42000000 3186264149 3186264149 0.00000000
37.21999741 25.48506355 -0.52515256 12 6 5140 45.11200000 3186264151 3186264151 -0.66700000
10.54869747 8.85140800 -2.14234567 2 7 5140 13.93600000 3186264151 3186264151 -8.84300000
12.79903889 9.71147919 -2.04504013 1 8 5141 16.19600000 3186264154 3186264154 -7.25400000
40.77780151 37.74744034 0.32295641 40 9 5141 55.56800000 3186264154 3186264154 0.33300000
39.74713898 30.14785957 -0.28994474 18 10 5142 49.88800000 3186264156 3186264156 -0.33300000
13.53066254 11.34552765 -1.90204358 2 11 5142 17.76000000 3186264156 3186264156 -6.14800000
15.94691086 10.90681744 -1.80348670 2 12 5143 19.40400000 3186264158 3186264158 -5.33300000
40.23943329 33.72900391 1.22178018 22 13 5143 52.52000000 3186264158 3186264158 1.33300000
40.54288864 27.71874237 0.57176346 16 14 5144 49.11600000 3186264160 3186264160 0.66700000
17.32336426 14.51543045 -1.58040261 2 15 5144 22.65600000 3186264160 3186264160 -4.00000000
16.55559921 12.54362679 -1.69563568 2 16 5145 20.84000000 3186264163 3186264163 -4.66700000
40.13282394 37.09840393 1.59055400 37 17 5145 54.67600000 3186264163 3186264163 1.66700000
40.22932053 30.48041916 0.88099748 29 18 5145 50.48000000 3186264165 3186264165 1.00000000
17.39419365 16.07902718 -1.51809621 3 19 5145 23.73600000 3186264165 3186264165 -3.66700000
20.02738762 13.68225479 -1.41254568 3 20 5146 24.29600000 3186264167 3186264167 -3.33300000
39.82022095 33.34213638 3.02462435 21 21 5146 52.02400000 3186264167 3186264167 3.33300000
20.34185791 17.02653885 -1.23568046 7 23 5147 26.55600000 3186264170 3186264170 -2.66700000
20.58863068 15.58235931 -1.35319853 9 24 5148 25.85600000 3186264172 3186264172 -3.00000000
43.65470505 36.52689743 6.98896313 46 25 5148 57.34800000 3186264172 3186264172 7.00000000
43.16587448 32.65793991 4.41874170 38 26 5149 54.30800000 3186264174 3186264174 4.66700000
20.81273842 19.21216774 -1.15397000 12 27 5149 28.34800000 3186264174 3186264174 -2.33300000
20.79508781 14.18544769 -0.87904853 13 28 5150 25.18800000 3186264177 3186264177 -2.00000000
20.90726280 17.48118401 -0.63415319 26 31 5150 27.26000000 3186264179 3186264179 -1.33300000
3.95727015 2.98309994 -2.31087661 5 0 5159 5.46800000 3186264200 3186264200 -25.00000000
20.91922188 19.24295044 -0.49613702 15 1 5159 28.42800000 3186264200 3186264200 -1.00000000
20.85153008 15.71275520 -0.75984472 14 2 5160 26.12000000 3186264202 3186264202 -1.66700000
6.89827871 5.74742889 -2.51352072 6 3 5160 9.32400000 3186264202 3186264202 -15.63900000
9.38935375 7.07281637 -2.35105419 3 4 5161 11.98800000 3186264204 3186264204 -11.31000000
40.16248322 33.45024490 0.00000000 24 5 5161 52.26800000 3186264204 3186264204 0.00000000
37.64400482 25.57323647 -0.52980900 12 6 5161 45.51200000 3186264207 3186264207 -0.66700000
10.57195759 8.80509758 -2.14050102 2 7 5161 13.92400000 3186264207 3186264207 -8.84300000
12.84088707 9.66927719 -2.04605031 2 8 5162 16.20400000 3186264209 3186264209 -7.25400000
40.83341217 37.52194977 0.32230547 19 9 5162 55.45600000 3186264209 3186264209 0.33300000
39.83499908 29.98513603 -0.28978202 18 10 5163 49.86000000 3186264211 3186264211 -0.33300000
13.49879169 11.23480034 -1.89176226 2 11 5163 17.66400000 3186264211 3186264211 -6.14800000
