# .PCD v0.7 - Point Cloud Data file format
VERSION 0.7
FIELDS x y z intensity laser_id azimuth distance_m adjustedtime timestamp vertical_angle
SIZE 4 4 4 1 1 2 8 8 4 8
TYPE F F F U U U F U U F
COUNT 1 1 1 1 1 1 1 1 1 1
WIDTH 525
HEIGHT 1
VIEWPOINT 0 0 0 1 0 0 0
POINTS 525
DATA ascii
40.22641373 12.52143097 1.22610784 16 17 7691 42.14800000 3177571189 3177571189 1.66700000
39.73224640 8.22092056 0.70821863 26 18 7691 40.58000000 3177571191 3177571191 1.00000000
20.58172989 6.40655422 -1.38148284 22 19 7691 21.60000000 3177571191 3177571191 -3.66700000
20.59483337 3.21770000 -1.21394277 19 20 7692 20.88000000 3177571193 3177571193 -3.33300000
40.10218430 10.35619736 2.41207170 30 21 7692 41.48800000 3177571193 3177571193 3.33300000
40.05266190 8.27263927 1.66623044 25 22 7693 40.93200000 3177571195 3177571195 2.33300000
20.64068413 5.32651520 -0.99297416 20 23 7693 21.34000000 3177571195 3177571195 -2.66700000
20.60496712 4.25208378 -1.10261393 35 24 7694 21.06800000 3177571198 3177571198 -3.00000000
43.36503220 11.18266678 5.49874496 27 25 7694 45.12000000 3177571198 3177571198 7.00000000
40.77582550 8.40716457 3.39875674 18 26 7695 41.77200000 3177571200 3177571200 4.66700000
20.66858673 6.41776657 -0.88171971 27 27 7695 21.66000000 3177571200 3177571200 -2.33300000
20.65890503 3.21293759 -0.73009747 13 28 7696 20.92000000 3177571202 3177571202 -2.00000000
96.51264191 19.86386871 17.96558571 28 30 7697 100.16000000 3177571205 3177571205 10.33300000
28.03105736 7.21279907 -0.67351443 105 31 7697 28.95200000 3177571205 3177571205 -1.33300000
5.74309063 1.17470932 -2.73349500 7 0 7704 6.46800000 3177571225 3177571225 -25.00000000
39.82999420 12.29897881 -0.72762573 26 1 7704 41.69200000 3177571225 3177571225 -1.00000000
27.86014175 5.69353342 -0.82756752 25 2 7705 28.44800000 3177571228 3177571228 -1.66700000
8.59418964 2.19862032 -2.48332834 2 3 7705 9.21200000 3177571228 3177571228 -15.63900000
11.35616302 2.31869483 -2.31810641 2 4 7706 11.82000000 3177571230 3177571230 -11.31000000
40.39300537 10.32608509 0.00000000 20 5 7706 41.69200000 3177571230 3177571230 0.00000000
28.13947678 4.32605219 -0.33144492 4 6 7706 28.47200000 3177571232 3177571232 -0.66700000
13.31832886 3.40470338 -2.13865638 2 7 7706 13.91200000 3177571232 3177571232 -8.84300000
15.64884281 3.19232702 -2.03291845 2 8 7707 16.10000000 3177571235 3177571235 -7.25400000
40.28523254 12.41644955 0.24500704 17 9 7707 42.15600000 3177571235 3177571235 0.33300000
16.79708862 4.28776884 -1.86734414 2 11 7708 17.43600000 3177571237 3177571237 -6.14800000
19.23892212 2.94740510 -1.81687069 6 12 7709 19.54800000 3177571239 3177571239 -5.33300000
40.19372940 10.25272465 0.96523422 19 13 7709 41.49200000 3177571239 3177571239 1.33300000
39.79011536 6.08874321 0.46862343 17 14 7710 40.25600000 3177571241 3177571241 0.66700000
20.58588982 5.24727774 -1.48553383 26 15 7710 21.29600000 3177571241 3177571241 -4.00000000
20.15148735 4.09620380 -1.67871177 7 16 7711 20.63200000 3177571244 3177571244 -4.66700000
40.24694443 12.37388802 1.22540963 16 17 7711 42.12400000 3177571244 3177571244 1.66700000
39.65879822 8.06146622 0.70640361 26 18 7711 40.47600000 3177571246 3177571246 1.00000000
20.57344246 6.32528687 -1.37943625 12 19 7711 21.56800000 3177571246 3177571246 -3.66700000
20.59409714 3.14398313 -1.21324503 19 20 7712 20.86800000 3177571248 3177571248 -3.33300000
40.15356827 10.22009087 2.41300201 30 21 7712 41.50400000 3177571248 3177571248 3.33300000
39.95987320 8.10814095 1.66118276 25 22 7713 40.80800000 3177571251 3177571251 2.33300000
20.63591766 5.24852371 -0.99185741 19 23 7713 21.31600000 3177571251 3177571251 -2.66700000
20.61968422 4.18013287 -1.10261393 31 24 7714 21.06800000 3177571253 3177571253 -3.00000000
41.98394775 10.67036438 5.31886578 25 25 7714 43.64400000 3177571253 3177571253 7.00000000
40.59001923 8.22125149 3.38085651 27 26 7715 41.55200000 3177571255 3177571255 4.66700000
20.66793633 6.33854961 -0.88074273 25 27 7715 21.63600000 3177571255 3177571255 -2.33300000
20.65418625 3.13840270 -0.72953910 13 28 7716 20.90400000 3177571258 3177571258 -2.00000000
100.19548035 20.25755310 18.63785934 28 30 7717 103.90800000 3177571260 3177571260 10.33300000
5.74715614 1.15465510 -2.73349500 7 0 7724 6.46800000 3177571281 3177571281 -25.00000000
39.66993713 12.09803963 -0.72392583 17 1 7724 41.48000000 3177571281 3177571281 -1.00000000
27.84848595 5.58995390 -0.82663661 29 2 7725 28.41600000 3177571283 3177571283 -1.66700000
8.60554695 2.16954923 -2.48440647 2 3 7725 9.21600000 3177571283 3177571283 -15.63900000
11.37187862 2.28058290 -2.31967521 2 4 7726 11.82800000 3177571285 3177571285 -11.31000000
40.39777374 10.17720699 0.00000000 20 5 7726 41.66000000 3177571285 3177571285 0.00000000
28.15440750 4.22780085 -0.33144492 4 6 7726 28.47200000 3177571288 3177571288 -0.66700000
13.33013248 3.35819292 -2.13865638 2 7 7726 13.91200000 3177571288 3177571288 -8.84300000
15.66378212 3.13846231 -2.03342342 2 8 7727 16.10400000 3177571290 3177571290 -7.25400000
40.45460892 12.31419086 0.24577421 17 9 7727 42.28800000 3177571290 3177571290 0.33300000
16.80038261 4.22619915 -1.86605895 2 11 7728 17.42400000 3177571292 3177571292 -6.14800000
19.25303078 2.88082027 -1.81724238 6 12 7729 19.55200000 3177571294 3177571294 -5.33300000
40.01984787 10.05971718 0.96020937 19 13 7729 41.27600000 3177571294 3177571294 1.33300000
39.70827484 5.93444157 0.46741277 25 14 7730 40.15200000 3177571297 3177571297 0.66700000
20.58860207 5.17149925 -1.48441780 24 15 7730 21.28000000 3177571297 3177571297 -4.00000000
20.18130112 4.02895927 -1.68001366 7 16 7731 20.64800000 3177571299 3177571299 -4.66700000
40.41231918 12.27049732 1.22913325 16 17 7731 42.25200000 3177571299 3177571299 1.66700000
39.72199631 7.93002844 0.70703191 17 18 7731 40.51200000 3177571301 3177571301 1.00000000
20.57247925 6.24647522 -1.37790120 22 19 7731 21.54400000 3177571301 3177571301 -3.66700000
20.59309769 3.07031059 -1.21254742 19 20 7732 20.85600000 3177571304 3177571304 -3.33300000
40.14639282 10.06918049 2.41044378 18 21 7732 41.46000000 3177571304 3177571304 3.33300000
39.87426376 7.94595432 1.65646064 25 22 7733 40.69200000 3177571306 3177571306 2.33300000
20.63085747 5.17063093 -0.99074066 19 23 7733 21.29200000 3177571306 3177571306 -2.66700000
20.60672569 4.10267162 -1.10114849 31 24 7734 21.04000000 3177571308 3177571308 -3.00000000
42.00553131 10.51988983 5.31691551 25 25 7734 43.62800000 3177571308 3177571308 7.00000000
40.60673904 8.07718277 3.37988019 18 26 7735 41.54000000 3177571311 3177571311 4.66700000
20.66698456 6.25941515 -0.87976575 27 27 7735 21.61200000 3177571311 3177571311 -2.33300000
20.65315247 3.06452680 -0.72912031 13 28 7736 20.89200000 3177571313 3177571313 -2.00000000
100.01509094 19.87609100 18.59194183 28 30 7736 103.65200000 3177571315 3177571315 10.33300000
5.75115156 1.13458669 -2.73349500 7 0 7744 6.46800000 3177571336 3177571336 -25.00000000
39.70043564 11.95603180 -0.72371638 26 1 7744 41.46800000 3177571336 3177571336 -1.00000000
27.84821510 5.48884439 -0.82605481 29 2 7745 28.39600000 3177571338 3177571338 -1.66700000
8.60185242 2.13671136 -2.48117161 2 3 7745 9.20400000 3177571338 3177571338 -15.63900000
11.37592220 2.24011588 -2.31889081 2 4 7746 11.82400000 3177571341 3177571341 -11.31000000
40.32046890 10.00818539 0.00000000 20 5 7746 41.54400000 3177571341 3177571341 0.00000000
28.19345856 4.12805796 -0.33172432 5 6 7747 28.49600000 3177571343 3177571343 -0.66700000
13.34618759 3.31026459 -2.13927126 2 7 7747 13.91600000 3177571343 3177571343 -8.84300000
15.68242836 3.08529830 -2.03443360 2 8 7747 16.11200000 3177571345 3177571345 -7.25400000
40.46287155 12.16253948 0.24556498 26 9 7747 42.25200000 3177571345 3177571345 0.33300000
16.81889153 4.16848612 -1.86648738 2 11 7748 17.42800000 3177571347 3177571347 -6.14800000
19.25902939 2.81302142 -1.81687069 6 12 7749 19.54800000 3177571350 3177571350 -5.33300000
39.94603348 9.89304352 0.95760393 19 13 7749 41.16400000 3177571350 3177571350 1.33300000
39.82373428 5.80965471 0.46853033 17 14 7750 40.24800000 3177571352 3177571352 0.66700000
20.57941437 5.09289026 -1.48246455 20 15 7750 21.25200000 3177571352 3177571352 -4.00000000
20.19524193 3.95848870 -1.68001366 7 16 7751 20.64800000 3177571354 3177571354 -4.66700000
40.42426682 12.12017155 1.22820234 24 17 7751 42.22000000 3177571354 3177571354 1.66700000
39.94703674 7.82281685 0.71052235 17 18 7752 40.71200000 3177571357 3177571357 1.00000000
20.57611465 6.16530228 -1.37662208 35 19 7752 21.52400000 3177571357 3177571357 -3.66700000
20.58393097 2.99553323 -1.21138465 16 20 7752 20.83600000 3177571359 3177571359 -3.33300000
40.11927032 9.91365528 2.40672302 18 21 7752 41.39600000 3177571359 3177571359 3.33300000
39.83115387 7.79290581 1.65352976 25 22 7753 40.62000000 3177571361 3177571361 2.33300000
20.62938499 5.09379482 -0.98981005 19 23 7753 21.27200000 3177571361 3177571361 -2.66700000
20.60523987 4.02765036 -1.10031116 31 24 7754 21.02400000 3177571364 3177571364 -3.00000000
42.14992523 10.39982891 5.33056498 25 25 7754 43.74000000 3177571364 3177571364 7.00000000
40.70511627 7.94914341 3.38573837 27 26 7755 41.61200000 3177571366 3177571366 4.66700000
20.66573334 6.18036509 -0.87878877 25 27 7755 21.58800000 3177571366 3177571366 -2.33300000
20.65185547 2.99069643 -0.72870147 11 28 7756 20.88000000 3177571368 3177571368 -2.00000000
95.82759857 18.69643593 17.80128288 28 30 7756 99.24400000 3177571371 3177571371 10.33300000
28.02230453 6.90368509 -0.67156035 7 31 7756 28.86800000 3177571371 3177571371 -1.33300000
5.75863600 1.11519384 -2.73518538 6 0 7764 6.47200000 3177571391 3177571391 -25.00000000
39.68442535 11.80028057 -0.72266924 17 1 7764 41.40800000 3177571391 3177571391 -1.00000000
27.84757614 5.38780499 -0.82547301 29 2 7765 28.37600000 3177571394 3177571394 -1.66700000
8.61674213 2.10850334 -2.48332834 2 3 7765 9.21200000 3177571394 3177571394 -15.63900000
11.38367176 2.20039296 -2.31889081 2 4 7766 11.82400000 3177571396 3177571396 -11.31000000
40.45618057 9.89208126 0.00000000 20 5 7766 41.64800000 3177571396 3177571396 0.00000000
13.35766125 3.26365733 -2.13927126 2 7 7767 13.91600000 3177571398 3177571398 -8.84300000
15.69310284 3.03053761 -2.03443360 2 8 7767 16.11200000 3177571400 3177571400 -7.25400000
40.44755936 12.00415325 0.24521627 17 9 7767 42.19200000 3177571400 3177571400 0.33300000
16.83720398 4.11069489 -1.86691570 2 11 7768 17.43200000 3177571403 3177571403 -6.14800000
19.28055954 2.74746323 -1.81798601 6 12 7769 19.56000000 3177571405 3177571405 -5.33300000
39.89873886 9.73364162 0.95564979 19 13 7769 41.08000000 3177571405 3177571405 1.33300000
39.60222244 5.63623095 0.46568990 25 14 7770 40.00400000 3177571407 3177571407 0.66700000
20.58931160 5.01913357 -1.48190653 9 15 7770 21.24400000 3177571407 3177571407 -4.00000000
20.20893669 3.88797021 -1.68001366 5 16 7771 20.64800000 3177571410 3177571410 -4.66700000
40.41648865 11.96423626 1.22668970 24 17 7771 42.16800000 3177571410 3177571410 1.66700000
39.87850189 7.67217064 0.70884693 26 18 7771 40.61600000 3177571412 3177571412 1.00000000
20.57348251 6.09023714 -1.37508714 30 19 7771 21.50000000 3177571412 3177571412 -3.66700000
20.59030914 2.92310238 -1.21115208 19 20 7772 20.83200000 3177571414 3177571414 -3.33300000
40.06051254 9.75088692 2.40114164 18 21 7772 41.30000000 3177571414 3177571414 3.33300000
39.79924011 7.64251614 1.65108728 25 22 7773 40.56000000 3177571417 3177571417 2.33300000
20.63150978 5.01797676 -0.98906559 17 23 7773 21.25600000 3177571417 3177571417 -2.66700000
20.60348129 3.95268989 -1.09947371 31 24 7774 21.00800000 3177571419 3177571419 -3.00000000
42.25155640 10.26857376 5.33885241 17 25 7774 43.80800000 3177571419 3177571419 7.00000000
40.75219345 7.81075954 3.38736582 27 26 7775 41.63200000 3177571421 3177571421 4.66700000
20.66418266 6.10139990 -0.87781179 25 27 7775 21.56400000 3177571421 3177571421 -2.33300000
20.65821075 2.91803074 -0.72856188 6 28 7776 20.87600000 3177571424 3177571424 -2.00000000
96.03527832 18.38920403 17.82782936 28 30 7776 99.39200000 3177571426 3177571426 10.33300000
28.25996971 6.85769367 -0.67667824 7 31 7776 29.08800000 3177571426 3177571426 -1.33300000
5.76605511 1.09576249 -2.73687577 7 0 7784 6.47600000 3177571446 3177571446 -25.00000000
39.68316269 11.64929199 -0.72190136 26 1 7784 41.36400000 3177571446 3177571446 -1.00000000
27.85050201 5.28758287 -0.82500756 34 2 7785 28.36000000 3177571448 3177571448 -1.66700000
8.63528347 2.08111978 -2.48656321 3 3 7785 9.22400000 3177571448 3177571448 -15.63900000
11.39513683 2.16137385 -2.31967521 2 4 7786 11.82800000 3177571451 3177571451 -11.31000000
40.45546722 9.74237442 0.00000000 20 5 7786 41.61200000 3177571451 3177571451 0.00000000
27.97925949 3.90235424 -0.32888389 9 6 7786 28.25200000 3177571453 3177571453 -0.66700000
13.36841011 3.21934390 -2.13927126 2 7 7786 13.91600000 3177571453 3177571453 -8.84300000
15.70748425 2.97647882 -2.03493881 2 8 7787 16.11600000 3177571455 3177571455 -7.25400000
40.45466614 11.85276985 0.24500704 26 9 7787 42.15600000 3177571455 3177571455 0.33300000
16.85918427 4.05375671 -1.86777258 2 11 7788 17.44000000 3177571458 3177571458 -6.14800000
19.29003334 2.68014479 -1.81798601 6 12 7789 19.56000000 3177571460 3177571460 -5.33300000
40.15021515 9.64662552 0.96086073 13 13 7789 41.30400000 3177571460 3177571460 1.33300000
39.59392166 5.49411106 0.46536395 25 14 7790 39.97600000 3177571462 3177571462 0.66700000
20.59118652 4.94350672 -1.48079038 13 15 7790 21.22800000 3177571462 3177571462 -4.00000000
20.22630310 3.81814361 -1.68033910 5 16 7791 20.65200000 3177571464 3177571464 -4.66700000
40.40811157 11.80850410 1.22517693 24 17 7791 42.11600000 3177571464 3177571464 1.66700000
40.01900864 7.55443621 0.71087140 17 18 7791 40.73200000 3177571467 3177571467 1.00000000
20.57162666 6.01166725 -1.37355208 28 19 7791 21.47600000 3177571467 3177571467 -3.66700000
20.58852005 2.84956837 -1.21045446 19 20 7792 20.82000000 3177571469 3177571469 -3.33300000
40.07877350 9.60726643 2.40021133 18 21 7792 41.28400000 3177571469 3177571469 3.33300000
39.80996323 7.50058413 1.65043592 25 22 7793 40.54400000 3177571471 3177571471 2.33300000
20.63335609 4.94220591 -0.98832107 20 23 7793 21.24000000 3177571471 3177571471 -2.66700000
20.60537720 3.87852955 -1.09884572 38 24 7794 20.99600000 3177571474 3177571474 -3.00000000
42.34891891 10.13581181 5.34665203 26 25 7794 43.87200000 3177571474 3177571474 7.00000000
40.71651840 7.65667200 3.38215852 27 26 7795 41.56800000 3177571476 3177571476 4.66700000
20.66233253 6.02252102 -0.87683481 25 27 7795 21.54000000 3177571476 3177571476 -2.33300000
20.67223167 2.84644747 -0.72870147 6 28 7796 20.88000000 3177571478 3177571478 -2.00000000
97.59559631 18.33505058 18.10549355 28 30 7796 100.94000000 3177571481 3177571481 10.33300000
28.24484062 6.74971151 -0.67574769 7 31 7796 29.04800000 3177571481 3177571481 -1.33300000
5.75915337 1.07363534 -2.73180437 8 0 7804 6.46400000 3177571501 3177571501 -25.00000000
39.68132782 11.49845695 -0.72113341 26 1 7804 41.32000000 3177571501 3177571501 -1.00000000
27.85306549 5.18740606 -0.82454211 38 2 7805 28.34400000 3177571504 3177571504 -1.66700000
8.63125134 2.04829621 -2.48332834 2 3 7805 9.21200000 3177571504 3177571504 -15.63900000
11.40646839 2.12230182 -2.32045984 2 4 7806 11.83200000 3177571506 3177571506 -11.31000000
40.46587372 9.59556103 0.00000000 20 5 7806 41.58800000 3177571506 3177571506 0.00000000
27.99271011 3.80466485 -0.32888389 14 6 7806 28.25200000 3177571508 3177571508 -0.66700000
13.39110374 3.17539573 -2.14111590 2 7 7806 13.92800000 3177571508 3177571508 -8.84300000
15.71387672 2.92090607 -2.03443360 2 8 7807 16.11200000 3177571511 3177571511 -7.25400000
40.44968414 11.69814968 0.24472806 26 9 7807 42.10800000 3177571511 3177571511 0.33300000
28.16991997 5.23115778 -0.16652295 4 10 7808 28.65200000 3177571513 3177571513 -0.33300000
16.87710190 3.99579859 -1.86820090 4 11 7808 17.44400000 3177571513 3177571513 -6.14800000
19.30321693 2.61332798 -1.81835771 6 12 7809 19.56400000 3177571515 3177571515 -5.33300000
39.97350311 9.45670223 0.95583588 19 13 7809 41.08800000 3177571515 3177571515 1.33300000
39.96958923 5.40410042 0.46955472 26 14 7810 40.33600000 3177571517 3177571517 0.66700000
20.58113480 4.86517429 -1.47883725 11 15 7810 21.20000000 3177571517 3177571517 -4.00000000
20.26302910 3.75187230 -1.68229187 5 16 7811 20.67600000 3177571520 3177571520 -4.66700000
40.40682983 11.65519238 1.22389698 24 17 7811 42.07200000 3177571520 3177571520 1.66700000
39.91929245 7.39139700 0.70863754 26 18 7811 40.60400000 3177571522 3177571522 1.00000000
20.57714272 5.93539667 -1.37252879 28 19 7811 21.46000000 3177571522 3177571522 -3.66700000
20.58251190 2.77554917 -1.20952415 22 20 7812 20.80400000 3177571524 3177571524 -3.33300000
40.08874512 9.46180344 2.39881611 18 21 7812 41.26000000 3177571524 3177571524 3.33300000
39.79267120 7.35358667 1.64864480 17 22 7813 40.50000000 3177571527 3177571527 2.33300000
20.64659309 4.86923456 -0.98813492 20 23 7813 21.23600000 3177571527 3177571527 -2.66700000
20.60700607 3.80440402 -1.09821773 31 24 7814 20.98400000 3177571529 3177571529 -3.00000000
42.47292328 10.00887012 5.35786390 26 25 7814 43.96400000 3177571529 3177571529 7.00000000
40.75083923 7.51594448 3.38280940 27 26 7815 41.57600000 3177571531 3177571531 4.66700000
20.66018486 5.94372940 -0.87585783 25 27 7815 21.51600000 3177571531 3177571531 -2.33300000
20.67807961 2.77373910 -0.72856188 6 28 7816 20.87600000 3177571534 3177571534 -2.00000000
101.21164703 18.64886284 18.76413536 28 30 7816 104.61200000 3177571536 3177571536 10.33300000
27.90621567 6.56590128 -0.66709381 32 31 7816 28.67600000 3177571536 3177571536 -1.33300000
5.76643229 1.05417752 -2.73349500 8 0 7824 6.46800000 3177571557 3177571557 -25.00000000
39.70584488 11.35547447 -0.72085422 26 1 7824 41.30400000 3177571557 3177571557 -1.00000000
27.84347153 5.08512068 -0.82372755 42 2 7825 28.31600000 3177571559 3177571559 -1.66700000
8.64585114 2.01990771 -2.48548484 2 3 7825 9.22000000 3177571559 3177571559 -15.63900000
11.41766548 2.08317685 -2.32124424 4 4 7826 11.83600000 3177571561 3177571561 -11.31000000
40.46406555 9.44606686 0.00000000 20 5 7826 41.55200000 3177571561 3177571561 0.00000000
27.99789047 3.70587897 -0.32879075 9 6 7826 28.24400000 3177571564 3177571564 -0.66700000
13.40980434 3.13042974 -2.14234567 2 7 7826 13.93600000 3177571564 3177571564 -8.84300000
15.73178482 2.86745977 -2.03544378 2 8 7827 16.12000000 3177571566 3177571566 -7.25400000
40.44796371 11.54480648 0.24447234 26 9 7827 42.06400000 3177571566 3177571566 0.33300000
28.25884247 5.14569283 -0.16694140 4 10 7828 28.72400000 3177571568 3177571568 -0.33300000
16.89094734 3.93686223 -1.86820090 2 11 7828 17.44400000 3177571568 3177571568 -6.14800000
19.32011795 2.54697251 -1.81910133 6 12 7829 19.57200000 3177571570 3177571570 -5.33300000
39.98290253 9.31166935 0.95527756 19 13 7829 41.06400000 3177571570 3177571570 1.33300000
40.11114120 5.28073168 0.47099823 26 14 7830 40.46000000 3177571573 3177571573 0.66700000
20.57855988 4.78878117 -1.47744215 26 15 7830 21.18000000 3177571573 3177571573 -4.00000000
20.27207947 3.68040633 -1.68196642 5 16 7831 20.67200000 3177571575 3177571575 -4.66700000
40.39727402 11.49984360 1.22238421 16 17 7831 42.02000000 3177571575 3177571575 1.66700000
39.96578979 7.24860477 0.70898658 17 18 7832 40.62400000 3177571577 3177571577 1.00000000
20.57572174 5.85338449 -1.37099385 26 19 7832 21.43600000 3177571577 3177571577 -3.66700000
20.58019638 2.70212626 -1.20882654 22 20 7832 20.79200000 3177571580 3177571580 -3.33300000
40.07096481 9.31006145 2.39579272 42 21 7832 41.20800000 3177571580 3177571580 3.33300000
39.74731064 7.20181370 1.64571393 25 22 7833 40.42800000 3177571582 3177571582 2.33300000
20.63621902 4.79081011 -0.98683208 20 23 7833 21.20800000 3177571582 3177571582 -2.66700000
20.61229897 3.73102617 -1.09779906 35 24 7834 20.97600000 3177571584 3177571584 -3.00000000
41.16558075 9.54924011 5.18870926 33 25 7834 42.57600000 3177571584 3177571584 7.00000000
40.73759460 7.36655760 3.37955475 18 26 7835 41.53600000 3177571587 3177571587 4.66700000
20.66158295 5.86611748 -0.87504369 27 27 7835 21.49600000 3177571587 3177571587 -2.33300000
20.69556236 2.70257759 -0.72884107 6 28 7836 20.88400000 3177571589 3177571589 -2.00000000
101.67111969 18.36680794 18.83731842 28 30 7836 105.02000000 3177571591 3177571591 10.33300000
27.87832069 6.45672083 -0.66588414 59 31 7836 28.62400000 3177571591 3177571591 -1.33300000
5.78078175 1.03596091 -2.73856640 7 0 7844 6.48000000 3177571612 3177571612 -25.00000000
39.91844559 11.26568794 -0.72399563 26 1 7844 41.48400000 3177571612 3177571612 -1.00000000
27.84530830 4.98507929 -0.82326210 42 2 7845 28.30000000 3177571614 3177571614 -1.66700000
8.64909554 1.98885250 -2.48440647 2 3 7845 9.21600000 3177571614 3177571614 -15.63900000
11.42100716 2.04261851 -2.32045984 4 4 7846 11.83200000 3177571616 3177571616 -11.31000000
40.43441772 9.29043198 0.00000000 20 5 7846 41.48800000 3177571616 3177571616 0.00000000
28.00731850 3.60272646 -0.32874420 9 6 7847 28.24000000 3177571619 3177571619 -0.66700000
13.41348362 3.07949042 -2.14111590 2 7 7847 13.92800000 3177571619 3177571619 -8.84300000
15.74560452 2.81322598 -2.03594875 2 8 7847 16.12400000 3177571621 3177571621 -7.25400000
40.45336533 11.39378643 0.24426311 17 9 7847 42.02800000 3177571621 3177571621 0.33300000
28.17818832 5.02944851 -0.16636021 4 10 7848 28.62400000 3177571623 3177571623 -0.33300000
16.91233826 3.87965631 -1.86905766 4 11 7848 17.45200000 3177571623 3177571623 -6.14800000
19.32494164 2.47901034 -1.81872952 6 12 7849 19.56800000 3177571626 3177571626 -5.33300000
40.22564316 9.22029209 0.96030241 13 13 7849 41.28000000 3177571626 3177571626 1.33300000
40.05791855 5.13153791 0.47016007 26 14 7850 40.38800000 3177571628 3177571628 0.66700000
20.58737183 4.71513748 -1.47688401 24 15 7850 21.17200000 3177571628 3177571628 -4.00000000
20.29657745 3.61171651 -1.68294275 5 16 7851 20.68400000 3177571630 3177571630 -4.66700000
40.40637589 11.35011101 1.22145331 24 17 7851 41.98800000 3177571630 3177571630 1.66700000
39.76123047 7.07539463 0.70493758 25 18 7851 40.39200000 3177571633 3177571633 1.00000000
20.57580376 5.77972317 -1.36971462 26 19 7851 21.41600000 3177571633 3177571633 -3.66700000
20.57762146 2.62875342 -1.20812881 19 20 7852 20.78000000 3177571635 3177571635 -3.33300000
40.17718124 9.18704414 2.40021133 18 21 7852 41.28400000 3177571635 3177571635 3.33300000
39.76040268 7.06092930 1.64522541 34 22 7853 40.41600000 3177571637 3177571637 2.33300000
20.63334084 4.71429682 -0.98590147 22 23 7853 21.18800000 3177571637 3177571637 -2.66700000
20.61339760 3.65695977 -1.09717095 38 24 7854 20.96400000 3177571640 3177571640 -3.00000000
42.01536179 9.59193611 5.29156685 25 25 7854 43.42000000 3177571640 3177571640 7.00000000
41.06533051 7.27788210 3.40461493 18 26 7855 41.84400000 3177571642 3177571642 4.66700000
20.65884209 5.78749084 -0.87406671 27 27 7855 21.47200000 3177571642 3177571642 -2.33300000
20.71280098 2.63132763 -0.72912031 6 28 7856 20.89200000 3177571644 3177571644 -2.00000000
101.75712585 17.99746895 18.84090614 28 30 7857 105.04000000 3177571646 3177571646 10.33300000
27.88230324 6.35005808 -0.66541886 35 31 7857 28.60400000 3177571646 3177571646 -1.33300000
5.77722168 1.01452196 -2.73518538 6 0 7864 6.47200000 3177571667 3177571667 -25.00000000
39.95367432 11.12520504 -0.72392583 35 1 7864 41.48000000 3177571667 3177571667 -1.00000000
27.85072517 4.88577843 -0.82291305 46 2 7865 28.28800000 3177571669 3177571669 -1.66700000
8.67101288 1.96204984 -2.48871970 2 3 7865 9.23200000 3177571669 3177571669 -15.63900000
11.43193054 2.00341654 -2.32124424 4 4 7866 11.83600000 3177571672 3177571672 -11.31000000
40.43928909 9.14305782 0.00000000 13 5 7866 41.46000000 3177571672 3177571672 0.00000000
28.08322525 3.51288390 -0.32948923 4 6 7867 28.30400000 3177571674 3177571674 -0.66700000
13.43186188 3.03439188 -2.14234567 2 7 7867 13.93600000 3177571674 3177571674 -8.84300000
15.75923634 2.75893068 -2.03645396 2 8 7867 16.12800000 3177571676 3177571676 -7.25400000
40.45435333 11.24179840 0.24403062 17 9 7867 41.98800000 3177571676 3177571676 0.33300000
16.92965698 3.82147336 -1.86948609 4 11 7868 17.45600000 3177571679 3177571679 -6.14800000
19.34138107 2.41252446 -1.81947303 6 12 7869 19.57600000 3177571681 3177571681 -5.33300000
39.88699722 8.99623775 0.95146245 57 13 7869 40.90000000 3177571681 3177571681 1.33300000
39.98826599 4.98080206 0.46913564 17 14 7870 40.30000000 3177571683 3177571683 0.66700000
20.58034897 4.63798189 -1.47520995 24 15 7870 21.14800000 3177571683 3177571683 -4.00000000
20.32084465 3.54290032 -1.68391919 5 16 7871 20.69600000 3177571686 3177571686 -4.66700000
40.37639236 11.18977642 1.21935880 24 17 7871 41.91600000 3177571686 3177571686 1.66700000
39.73052597 6.92694187 0.70396024 25 18 7871 40.33600000 3177571688 3177571688 1.00000000
20.56892586 5.70040226 -1.36792386 26 19 7871 21.38800000 3177571688 3177571688 -3.66700000
20.57081985 2.55493951 -1.20719862 18 20 7872 20.76400000 3177571690 3177571690 -3.33300000
40.14277649 9.03184223 2.39625788 18 21 7872 41.21600000 3177571690 3177571690 3.33300000
39.76118088 6.91798592 1.64424849 25 22 7873 40.39200000 3177571693 3177571693 2.33300000
20.63017845 4.63786268 -0.98497081 22 23 7873 21.16800000 3177571693 3177571693 -2.66700000
20.61423111 3.58293128 -1.09654295 35 24 7874 20.95200000 3177571695 3177571695 -3.00000000
41.42879868 9.30599689 5.21357059 25 25 7874 42.78000000 3177571695 3177571695 7.00000000
41.16904449 7.14813280 3.41112423 27 26 7875 41.92400000 3177571697 3177571697 4.66700000
20.65580368 5.70895433 -0.87308973 25 27 7875 21.44800000 3177571697 3177571697 -2.33300000
20.74169731 2.56146026 -0.72981828 6 28 7876 20.91200000 3177571699 3177571699 -2.00000000
106.03468323 18.39161491 19.62151909 28 30 7876 109.39200000 3177571702 3177571702 10.33300000
27.88369751 6.25318718 -0.66495359 35 31 7876 28.58400000 3177571702 3177571702 -1.33300000
5.78769970 0.99658871 -2.73856640 7 0 7883 6.48000000 3177571722 3177571722 -25.00000000
40.02891159 11.00325298 -0.72462392 26 1 7883 41.52000000 3177571722 3177571722 -1.00000000
27.84313202 4.78932810 -0.82221484 51 2 7884 28.26400000 3177571725 3177571725 -1.66700000
8.65867233 1.92909670 -2.48332834 1 3 7884 9.21200000 3177571725 3177571725 -15.63900000
11.44624329 1.96682429 -2.32281327 2 4 7885 11.84400000 3177571727 3177571727 -11.31000000
40.43034363 9.00021458 0.00000000 20 5 7885 41.42000000 3177571727 3177571727 0.00000000
28.25293541 3.44400001 -0.33135179 9 6 7885 28.46400000 3177571729 3177571729 -0.66700000
13.43361282 2.99046183 -2.14111590 2 7 7885 13.92800000 3177571729 3177571729 -8.84300000
15.76829910 2.70665598 -2.03645396 2 8 7886 16.12800000 3177571732 3177571732 -7.25400000
40.41811752 11.08748055 0.24358892 26 9 7886 41.91200000 3177571732 3177571732 0.33300000
16.95000076 3.76703715 -1.87034285 2 11 7887 17.46400000 3177571734 3177571734 -6.14800000
19.35322762 2.34885287 -1.81984484 6 12 7888 19.58000000 3177571736 3177571736 -5.33300000
40.06105042 8.89599323 0.95490539 19 13 7888 41.04800000 3177571736 3177571736 1.33300000
40.01250458 4.84913111 0.46922877 17 14 7889 40.30800000 3177571739 3177571739 0.66700000
20.58003426 4.56625223 -1.47409379 24 15 7889 21.13200000 3177571739 3177571739 -4.00000000
20.34033966 3.47683811 -1.68457007 5 16 7890 20.70400000 3177571741 3177571741 -4.66700000
40.26672745 11.01572990 1.21493709 16 17 7890 41.76400000 3177571741 3177571741 1.66700000
39.79270172 6.80189085 0.70465839 17 18 7890 40.37600000 3177571743 3177571743 1.00000000
20.56461525 5.62584209 -1.36638892 28 19 7890 21.36400000 3177571743 3177571743 -3.66700000
20.57521629 2.48623109 -1.20696604 21 20 7891 20.76000000 3177571746 3177571746 -3.33300000
40.11402512 8.88572025 2.39276958 18 21 7891 41.15600000 3177571746 3177571746 3.33300000
39.68540955 6.76929474 1.64017773 17 22 7892 40.29200000 3177571748 3177571748 2.33300000
20.62984085 4.56597090 -0.98422635 20 23 7892 21.15200000 3177571748 3177571748 -2.66700000
20.61024666 3.51186824 -1.09570563 38 24 7893 20.93600000 3177571750 3177571750 -3.00000000
41.27112579 7.02495193 3.41763330 27 26 7894 42.00400000 3177571752 3177571752 4.66700000
20.64763260 5.63306236 -0.87194997 23 27 7894 21.42000000 3177571752 3177571752 -2.33300000
20.77389145 2.49552488 -0.73065585 6 28 7895 20.93600000 3177571755 3177571755 -2.00000000
106.63361359 18.11230850 19.72052956 28 30 7896 109.94400000 3177571757 3177571757 10.33300000
27.87801933 6.14978647 -0.66430223 35 31 7896 28.55600000 3177571757 3177571757 -1.33300000
5.78399324 0.97517443 -2.73518538 7 0 7903 6.47200000 3177571778 3177571778 -25.00000000
39.40701294 10.68449497 -0.71268648 17 1 7903 40.83600000 3177571778 3177571778 -1.00000000
27.84390831 4.68945217 -0.82174939 55 2 7904 28.24800000 3177571780 3177571780 -1.66700000
8.67664146 1.90133405 -2.48656321 2 3 7904 9.22400000 3177571780 3177571780 -15.63900000
11.45303917 1.92685747 -2.32281327 2 4 7905 11.84400000 3177571782 3177571782 -11.31000000
40.38336182 8.84192085 0.00000000 20 5 7905 41.34000000 3177571782 3177571782 0.00000000
28.08207321 3.32373238 -0.32920983 14 6 7905 28.28000000 3177571785 3177571785 -0.66700000
13.45555210 2.94608760 -2.14296055 2 7 7905 13.94000000 3177571785 3177571785 -8.84300000
15.78156376 2.65225554 -2.03695893 2 8 7906 16.13200000 3177571787 3177571787 -7.25400000
40.35618591 10.91916561 0.24298449 26 9 7906 41.80800000 3177571787 3177571787 0.33300000
16.98247337 3.71209383 -1.87248480 2 11 7907 17.48400000 3177571789 3177571789 -6.14800000
19.35735512 2.28081703 -1.81947303 6 12 7908 19.57600000 3177571792 3177571792 -5.33300000
39.87307739 8.70831776 0.94969445 31 13 7908 40.82400000 3177571792 3177571792 1.33300000
39.92193604 4.69681358 0.46797153 25 14 7909 40.20000000 3177571794 3177571794 0.66700000
20.58025360 4.49098396 -1.47297776 26 15 7909 21.11600000 3177571794 3177571794 -4.00000000
20.35235214 3.40581584 -1.68457007 5 16 7910 20.70400000 3177571796 3177571796 -4.66700000
40.10420227 10.82094383 1.20888627 24 17 7910 41.55600000 3177571796 3177571796 1.66700000
39.87537003 6.67284870 0.70570552 17 18 7910 40.43600000 3177571799 3177571799 1.00000000
20.55714989 5.54674482 -1.36459804 26 19 7910 21.33600000 3177571799 3177571799 -3.66700000
20.57187080 2.41299939 -1.20626843 21 20 7911 20.74800000 3177571801 3177571801 -3.33300000
40.10187912 8.73629189 2.39021134 42 21 7911 41.11200000 3177571801 3177571801 3.33300000
39.82706070 6.65047359 1.64506257 25 22 7912 40.41200000 3177571803 3177571803 2.33300000
20.63003540 4.49053240 -0.98348182 22 23 7912 21.13600000 3177571803 3177571803 -2.66700000
20.61056137 3.43793201 -1.09507751 35 24 7913 20.92400000 3177571805 3177571805 -3.00000000
40.66485214 8.84406948 5.10973787 16 25 7913 41.92800000 3177571805 3177571805 7.00000000
41.48809052 6.91295338 3.43358088 27 26 7914 42.20000000 3177571808 3177571808 4.66700000
20.64401245 5.55472374 -0.87097299 27 27 7914 21.39600000 3177571808 3177571808 -2.33300000
20.81424141 2.42669892 -0.73177266 6 28 7915 20.96800000 3177571810 3177571810 -2.00000000
104.53788757 17.38112450 19.32161331 28 30 7916 107.72000000 3177571812 3177571812 10.33300000
27.87977600 6.04819775 -0.66383696 42 31 7916 28.53600000 3177571812 3177571812 -1.33300000
5.79093885 0.95556879 -2.73687577 7 0 7923 6.47600000 3177571833 3177571833 -25.00000000
39.28179550 10.50348377 -0.70975447 43 1 7923 40.66800000 3177571833 3177571833 -1.00000000
27.84038353 4.58897877 -0.82116759 55 2 7924 28.22800000 3177571835 3177571835 -1.66700000
8.68699074 1.87184680 -2.48764133 2 3 7924 9.22800000 3177571835 3177571835 -15.63900000
11.46356487 1.88750434 -2.32359767 4 4 7925 11.84800000 3177571838 3177571838 -11.31000000
40.25756454 8.66722679 0.00000000 20 5 7925 41.18000000 3177571838 3177571838 0.00000000
28.17695045 3.23526859 -0.33018768 4 6 7925 28.36400000 3177571840 3177571840 -0.66700000
13.46189022 2.89826918 -2.14234567 2 7 7925 13.93600000 3177571840 3177571840 -8.84300000
15.78681087 2.59650755 -2.03645396 2 8 7926 16.12800000 3177571842 3177571842 -7.25400000
40.29743576 10.75244904 0.24240330 25 9 7926 41.70800000 3177571842 3177571842 0.33300000
16.99143982 3.65195560 -1.87205637 2 11 7927 17.48000000 3177571845 3177571845 -6.14800000
19.37311172 2.21413779 -1.82021666 6 12 7928 19.58400000 3177571847 3177571847 -5.33300000
39.92277908 8.57327938 0.95015967 19 13 7928 40.84400000 3177571847 3177571847 1.33300000
39.79502487 4.54110622 0.46629524 25 14 7929 40.05600000 3177571849 3177571849 0.66700000
20.58020020 4.41576958 -1.47186160 28 15 7929 21.10000000 3177571849 3177571849 -4.00000000
20.31690598 3.32702088 -1.68066454 7 16 7930 20.65600000 3177571852 3177571852 -4.66700000
40.12627411 10.67677593 1.20842075 24 17 7930 41.54000000 3177571852 3177571852 1.66700000
39.89052582 6.53232431 0.70556587 25 18 7930 40.42800000 3177571854 3177571854 1.00000000
20.56095505 5.47084713 -1.36357474 26 19 7930 21.32000000 3177571854 3177571854 -3.66700000
20.56429672 2.33937001 -1.20533824 21 20 7931 20.73200000 3177571856 3177571856 -3.33300000
40.07746506 8.58454800 2.38695574 24 21 7931 41.05600000 3177571856 3177571856 3.33300000
39.62520218 6.47467375 1.63578141 25 22 7932 40.18400000 3177571858 3177571858 2.33300000
20.62604904 4.41431141 -0.98255122 23 23 7932 21.11600000 3177571858 3177571858 -2.66700000
20.61455154 3.36467981 -1.09465885 35 24 7933 20.91600000 3177571861 3177571861 -3.00000000
40.77312469 8.71867275 5.11948729 24 25 7933 42.00800000 3177571861 3177571861 7.00000000
41.38605499 6.74756193 3.42316604 27 26 7934 42.07200000 3177571863 3177571863 4.66700000
20.65168762 5.47955370 -0.87048447 25 27 7934 21.38400000 3177571863 3177571863 -2.33300000
20.84642029 2.35672331 -0.73261023 6 28 7935 20.99200000 3177571865 3177571865 -2.00000000
52.26788712 8.50300217 9.65506744 18 30 7936 53.82800000 3177571868 3177571868 10.33300000
27.86160851 5.94250059 -0.66290647 42 31 7936 28.49600000 3177571868 3177571868 -1.33300000
5.79423952 0.93534881 -2.73687577 7 0 7943 6.47600000 3177571888 3177571888 -25.00000000
27.83254814 4.48795080 -0.82046944 38 2 7944 28.20400000 3177571891 3177571891 -1.66700000
8.68970394 1.84071386 -2.48656321 2 3 7944 9.22400000 3177571891 3177571891 -15.63900000
11.47782898 1.84872496 -2.32516670 2 4 7945 11.85600000 3177571893 3177571893 -11.31000000
39.90406799 8.44548225 0.00000000 19 5 7945 40.78800000 3177571893 3177571893 0.00000000
28.63329315 3.18643928 -0.33540288 5 6 7945 28.81200000 3177571895 3177571895 -0.66700000
13.47579193 2.85207915 -2.14296055 2 7 7945 13.94000000 3177571895 3177571895 -8.84300000
15.80753040 2.54327631 -2.03796911 2 8 7946 16.14000000 3177571898 3177571898 -7.25400000
40.40822220 10.63105583 0.24284500 26 9 7946 41.78400000 3177571898 3177571898 0.33300000
28.23718643 4.53802967 -0.16622072 4 10 7947 28.60000000 3177571900 3177571900 -0.33300000
17.00797462 3.59344435 -1.87248480 4 11 7947 17.48400000 3177571900 3177571900 -6.14800000
19.38468170 2.14693809 -1.82058847 6 12 7948 19.58800000 3177571902 3177571902 -5.33300000
39.99941635 8.44378281 0.95127630 19 13 7948 40.89200000 3177571902 3177571902 1.33300000
39.88219452 4.41008091 0.46713337 17 14 7949 40.12800000 3177571904 3177571904 0.66700000
20.57206154 4.33896351 -1.47018743 26 15 7949 21.07600000 3177571904 3177571904 -4.00000000
20.33233070 3.25671196 -1.68098998 23 16 7950 20.66000000 3177571907 3177571907 -4.66700000
40.11302185 10.52345371 1.20690811 16 17 7950 41.48800000 3177571907 3177571907 1.66700000
39.81830978 6.37785959 0.70389044 17 18 7950 40.33200000 3177571909 3177571909 1.00000000
20.56834412 5.39600372 -1.36280727 28 19 7950 21.30800000 3177571909 3177571909 -3.66700000
20.56439972 2.26669812 -1.20487309 21 20 7951 20.72400000 3177571911 3177571911 -3.33300000
40.01340485 8.42485332 2.38137436 17 21 7951 40.96000000 3177571911 3177571911 3.33300000
39.63572311 6.33442450 1.63529289 25 22 7952 40.17200000 3177571914 3177571914 2.33300000
20.62178230 4.33817339 -0.98162061 24 23 7952 21.09600000 3177571914 3177571914 -2.66700000
20.59461403 3.28766370 -1.09298408 42 24 7953 20.88400000 3177571916 3177571916 -3.00000000
40.88489914 8.59344482 5.12972450 16 25 7953 42.09200000 3177571916 3177571916 7.00000000
41.09045792 6.55220604 3.39680409 27 26 7954 41.74800000 3177571918 3177571918 4.66700000
20.65522194 5.40338659 -0.86983317 22 27 7954 21.36800000 3177571918 3177571918 -2.33300000
20.87041473 2.28568220 -0.73316860 6 28 7955 21.00800000 3177571921 3177571921 -2.00000000
52.30502319 8.32173824 9.65650177 18 30 7956 53.83600000 3177571923 3177571923 10.33300000
27.86261368 5.84110689 -0.66244119 38 31 7956 28.47600000 3177571923 3177571923 -1.33300000
5.79388809 0.91455221 -2.73518538 7 0 7963 6.47200000 3177571944 3177571944 -25.00000000
28.07859802 7.29822969 -0.50639904 4 1 7963 29.01600000 3177571944 3177571944 -1.00000000
27.84409523 4.39014721 -0.82035303 17 2 7964 28.20000000 3177571946 3177571946 -1.66700000
8.69607639 1.81036997 -2.48656321 2 3 7964 9.22400000 3177571946 3177571946 -15.63900000
11.47646332 1.80742824 -2.32359767 2 4 7965 11.84800000 3177571948 3177571948 -11.31000000
39.82365417 8.28333187 0.00000000 19 5 7965 40.67600000 3177571948 3177571948 0.00000000
13.48566532 2.80502248 -2.14296055 2 7 7965 13.94000000 3177571951 3177571951 -8.84300000
15.82023144 2.48869896 -2.03847432 2 8 7966 16.14400000 3177571953 3177571953 -7.25400000
40.30182648 10.45278454 0.24198484 17 9 7966 41.63600000 3177571953 3177571953 0.33300000
28.25680542 4.44005680 -0.16624399 4 10 7967 28.60400000 3177571955 3177571955 -0.33300000
17.02820206 3.53567052 -1.87334156 2 11 7967 17.49200000 3177571955 3177571955 -6.14800000
19.39997673 2.08010888 -1.82133198 6 12 7968 19.59600000 3177571957 3177571957 -5.33300000
39.85636139 8.26836586 0.94718200 18 13 7968 40.71600000 3177571957 3177571957 1.33300000
39.92916107 4.27424479 0.46750590 17 14 7969 40.16000000 3177571960 3177571960 0.66700000
20.56363869 4.26226807 -1.46851325 26 15 7969 21.05200000 3177571960 3177571960 -4.00000000
20.33175850 3.18386865 -1.68001366 31 16 7970 20.64800000 3177571962 3177571962 -4.66700000
39.93660736 10.32830906 1.20050812 24 17 7970 41.26800000 3177571962 3177571962 1.66700000
39.59535217 6.20046663 0.69956225 25 18 7970 40.08400000 3177571964 3177571964 1.00000000
20.56386566 5.31817722 -1.36127222 26 19 7970 21.28400000 3177571964 3177571964 -3.66700000
20.57615662 2.19532466 -1.20510566 21 20 7971 20.72800000 3177571967 3177571967 -3.33300000
39.96435928 8.26894760 2.37672329 23 21 7971 40.88000000 3177571967 3177571967 3.33300000
39.68128586 6.19973326 1.63626981 25 22 7972 40.19600000 3177571969 3177571969 2.33300000
20.62114716 4.26292801 -0.98087609 24 23 7972 21.08000000 3177571969 3177571969 -2.66700000
20.58623123 3.21267533 -1.09193742 38 24 7973 20.86400000 3177571971 3177571971 -3.00000000
40.81744385 8.43060017 5.11753750 24 25 7973 41.99200000 3177571971 3177571971 7.00000000
40.96339035 6.38539982 3.38443661 18 26 7974 41.59600000 3177571974 3177571974 4.66700000
20.65073776 5.32526541 -0.86885619 22 27 7974 21.34400000 3177571974 3177571974 -2.33300000
20.89019203 2.21408081 -0.73358744 4 28 7975 21.02000000 3177571976 3177571976 -2.00000000
52.32455444 8.14703178 9.65506744 18 30 7975 53.82800000 3177571978 3177571978 10.33300000
27.86616325 5.74544907 -0.66206896 42 31 7975 28.46000000 3177571978 3177571978 -1.33300000
5.81153297 0.89551884 -2.74194717 6 0 7984 6.48800000 3177571999 3177571999 -25.00000000
27.84024048 4.28502274 -0.81977123 29 2 7985 28.18000000 3177572001 3177572001 -1.66700000
8.71397495 1.78079879 -2.48979807 2 3 7985 9.23600000 3177572001 3177572001 -15.63900000
11.49076366 1.76654470 -2.32516670 2 4 7986 11.85600000 3177572004 3177572004 -11.31000000
39.93996811 8.15491962 0.00000000 13 5 7986 40.76400000 3177572004 3177572004 0.00000000
32.08121872 3.33224964 -0.37549478 43 6 7987 32.25600000 3177572006 3177572006 -0.66700000
13.50795460 2.75559068 -2.14480543 2 7 7987 13.95200000 3177572006 3177572006 -8.84300000
15.82924747 2.43069816 -2.03847432 2 8 7987 16.14400000 3177572008 3177572008 -7.25400000
40.30111313 10.29510021 0.24175236 25 9 7987 41.59600000 3177572008 3177572008 0.33300000
28.16613960 4.32008743 -0.16561629 11 10 7988 28.49600000 3177572010 3177572010 -0.33300000
17.04494476 3.47402954 -1.87377000 2 11 7988 17.49600000 3177572010 3177572010 -6.14800000
19.41143227 2.00940061 -1.82170379 6 12 7989 19.60000000 3177572013 3177572013 -5.33300000
39.60426712 8.06477833 0.94048226 25 13 7989 40.42800000 3177572013 3177572013 1.33300000
39.95649338 4.12910175 0.46764559 17 14 7990 40.17200000 3177572015 3177572015 0.66700000
20.57130241 4.18527889 -1.46795523 24 15 7990 21.04400000 3177572015 3177572015 -4.00000000
20.34329224 3.10932755 -1.68001366 23 16 7991 20.64800000 3177572017 3177572017 -4.66700000
40.02069092 10.19370747 1.20190454 24 17 7991 41.31600000 3177572017 3177572017 1.66700000
39.83236313 6.08097887 0.70333201 17 18 7992 40.30000000 3177572020 3177572020 1.00000000
20.56479263 5.23425579 -1.35999310 28 19 7992 21.26400000 3177572020 3177572020 -3.66700000
20.57214928 2.11866736 -1.20440793 18 20 7992 20.71600000 3177572022 3177572022 -3.33300000
40.07266617 8.13831043 2.38137436 47 21 7992 40.96000000 3177572022 3177572022 3.33300000
39.54570007 6.03015327 1.62975669 17 22 7993 40.03600000 3177572024 3177572024 2.33300000
20.62488556 4.18493557 -0.98031771 24 23 7993 21.06800000 3177572024 3177572024 -2.66700000
20.59391785 3.13660002 -1.09172809 38 24 7994 20.86000000 3177572027 3177572027 -3.00000000
40.99834442 6.23701763 3.38541293 27 26 7995 41.60800000 3177572029 3177572029 4.66700000
20.66237068 5.24757338 -0.86853051 24 27 7995 21.33600000 3177572029 3177572029 -2.33300000
20.89418983 2.13709283 -0.73344785 4 28 7996 21.01600000 3177572031 3177572031 -2.00000000
107.15523529 16.28223419 19.76142693 28 30 7996 110.17200000 3177572034 3177572034 10.33300000
27.85959816 5.63772392 -0.66141760 45 31 7996 28.43200000 3177572034 3177572034 -1.33300000
5.80760622 0.87313455 -2.73856640 7 0 8005 6.48000000 3177572054 3177572054 -25.00000000
8.72044373 1.74884844 -2.48979807 1 3 8006 9.23600000 3177572057 3177572057 -15.63900000
11.51267719 1.72674429 -2.32830453 4 4 8007 11.87200000 3177572059 3177572059 -11.31000000
28.22305489 5.65489197 0.00000000 3 5 8007 28.78400000 3177572059 3177572059 0.00000000
32.08923721 3.21424508 -0.37544823 18 6 8008 32.25200000 3177572061 3177572061 -0.66700000
13.51408768 2.70528722 -2.14419055 2 7 8008 13.94800000 3177572061 3177572061 -8.84300000
15.83804989 2.37266469 -2.03847432 2 8 8008 16.14400000 3177572063 3177572063 -7.25400000
40.35021210 10.15024757 0.24182211 25 9 8008 41.60800000 3177572063 3177572063 0.33300000
28.09079933 4.20321035 -0.16508159 3 10 8009 28.40400000 3177572066 3177572066 -0.33300000
17.05756187 3.41153336 -1.87377000 2 11 8009 17.49600000 3177572066 3177572066 -6.14800000
19.52963066 1.94931626 -1.83211350 6 12 8010 19.71200000 3177572068 3177572068 -5.33300000
39.71983337 7.93680573 0.94252938 18 13 8010 40.51600000 3177572068 3177572068 1.33300000
39.97135925 3.98262644 0.46764559 25 14 8011 40.17200000 3177572070 3177572070 0.66700000
20.57476425 4.10750961 -1.46711814 24 15 8011 21.03200000 3177572070 3177572070 -4.00000000
20.33089256 3.03121734 -1.67806089 21 16 8012 20.62400000 3177572073 3177572073 -4.66700000
40.08493042 10.05376434 1.20271909 24 17 8012 41.34400000 3177572073 3177572073 1.66700000
39.80192184 5.93423414 0.70242447 25 18 8012 40.24800000 3177572075 3177572075 1.00000000
20.56744957 5.15855455 -1.35896981 28 19 8012 21.24800000 3177572075 3177572075 -3.66700000
20.56785393 2.04206872 -1.20371032 21 20 8013 20.70400000 3177572077 3177572077 -3.33300000
40.16096878 8.00308800 2.38486266 18 21 8013 41.02000000 3177572077 3177572077 3.33300000
39.55963135 5.88399458 1.62943101 25 22 8014 40.02800000 3177572080 3177572080 2.33300000
20.62833023 4.10697269 -0.97975934 23 23 8014 21.05600000 3177572080 3177572080 -2.66700000
20.59737396 3.05992436 -1.09130931 38 24 8015 20.85200000 3177572082 3177572082 -3.00000000
42.24879837 8.40380859 5.28912973 25 25 8015 43.40000000 3177572082 3177572082 7.00000000
41.19444656 6.11245584 3.39973307 27 26 8016 41.78400000 3177572084 3177572084 4.66700000
20.65820122 5.16598940 -0.86755359 22 27 8016 21.31200000 3177572084 3177572084 -2.33300000
20.91381645 2.06167388 -0.73386663 2 28 8017 21.02800000 3177572087 3177572087 -2.00000000
105.15889740 15.58478069 19.38259888 28 30 8017 108.06000000 3177572089 3177572089 10.33300000
27.86046219 5.53168154 -0.66095233 49 31 8017 28.41200000 3177572089 3177572089 -1.33300000
5.79985809 0.85127753 -2.73349500 9 0 8025 6.46800000 3177572110 3177572110 -25.00000000
28.00843239 6.95733070 -0.50374627 8 1 8025 28.86400000 3177572110 3177572110 -1.00000000
28.14711189 4.12629032 -0.82791662 4 2 8026 28.46000000 3177572112 3177572112 -1.66700000
8.71515656 1.71616518 -2.48656321 2 3 8026 9.22400000 3177572112 3177572112 -15.63900000
11.51863480 1.68654704 -2.32830453 4 4 8027 11.87200000 3177572115 3177572115 -11.31000000
28.31326866 5.57023954 0.00000000 7 5 8027 28.85600000 3177572115 3177572115 0.00000000
32.15545654 3.11321163 -0.37610012 68 6 8027 32.30800000 3177572117 3177572117 -0.66700000
13.53461933 2.66274691 -2.14603519 2 7 8027 13.96000000 3177572117 3177572117 -8.84300000
15.85408783 2.31851339 -2.03948426 2 8 8028 16.15200000 3177572119 3177572119 -7.25400000
40.39316177 10.01126194 0.24186860 25 9 8028 41.61600000 3177572119 3177572119 0.33300000
28.11717415 4.10686398 -0.16515134 3 10 8029 28.41600000 3177572122 3177572122 -0.33300000
17.07717133 3.35350323 -1.87462676 2 11 8029 17.50400000 3177572122 3177572122 -6.14800000
19.54820824 1.88227844 -1.83322883 6 12 8030 19.72400000 3177572124 3177572124 -5.33300000
39.69628143 7.78810072 0.94131970 18 13 8030 40.46400000 3177572124 3177572124 1.33300000
39.96112823 3.84078002 0.46736622 17 14 8031 40.14800000 3177572126 3177572126 0.66700000
20.57331467 4.03259516 -1.46600211 26 15 8031 21.01600000 3177572126 3177572126 -4.00000000
20.30584335 2.95506358 -1.67513180 32 16 8032 20.58800000 3177572128 3177572128 -4.66700000
40.11978149 9.91378117 1.20271909 24 17 8032 41.34400000 3177572128 3177572128 1.66700000
39.67595673 5.77395296 0.69984150 25 18 8032 40.10000000 3177572131 3177572131 1.00000000
20.57370567 5.08385658 -1.35820234 28 19 8032 21.23600000 3177572131 3177572131 -3.66700000
20.56690788 1.96949983 -1.20324516 21 20 8033 20.69600000 3177572133 3177572133 -3.33300000
40.14163208 7.85365057 2.38207197 17 21 8033 40.97200000 3177572133 3177572133 3.33300000
39.59574890 5.74816656 1.63008237 25 22 8034 40.04400000 3177572135 3177572135 2.33300000
20.62685394 4.03187561 -0.97901481 23 23 8034 21.04000000 3177572135 3177572135 -2.66700000
20.60397720 2.98743439 -1.09109998 38 24 8035 20.84800000 3177572138 3177572138 -3.00000000
41.08552551 8.02343178 5.13996124 24 25 8035 42.17600000 3177572138 3177572138 7.00000000
40.19362640 5.82063580 3.31543946 26 26 8036 40.74800000 3177572140 3177572140 4.66700000
20.65670395 5.08906698 -0.86673939 24 27 8036 21.29200000 3177572140 3177572140 -2.33300000
21.04425430 2.00038552 -0.73819417 2 28 8037 21.15200000 3177572142 3177572142 -2.00000000
110.45089722 15.97525406 20.34760284 28 30 8037 113.44000000 3177572145 3177572145 10.33300000
27.85605240 5.42980623 -0.66039401 56 31 8037 28.38800000 3177572145 3177572145 -1.33300000
5.80623770 0.83255440 -2.73518538 6 0 8044 6.47200000 3177572165 3177572165 -25.00000000
28.22558022 6.91197681 -0.50723672 4 1 8044 29.06400000 3177572165 3177572165 -1.00000000
28.18834496 4.03689623 -0.82873112 4 2 8045 28.48800000 3177572168 3177572168 -1.66700000
