# .PCD v0.7 - Point Cloud Data file format
VERSION 0.7
FIELDS x y z intensity laser_id azimuth distance_m adjustedtime timestamp vertical_angle
SIZE 4 4 4 1 1 2 8 8 4 8
TYPE F F F U U U F U U F
COUNT 1 1 1 1 1 1 1 1 1 1
WIDTH 509
HEIGHT 1
VIEWPOINT 0 0 0 1 0 0 0
POINTS 509
DATA ascii
40.11106110 -44.90908051 3.50671315 52 21 13963 60.31600000 3183588670 3183588670 3.33300000
39.86413193 -49.29843521 2.58295846 57 22 13964 63.45200000 3183588672 3183588672 2.33300000
33.28847504 -37.28348160 -2.32823133 8 23 13964 50.03600000 3183588672 3183588672 -2.66700000
20.02368546 -24.77136040 -1.66930771 12 24 13965 31.89600000 3183588675 3183588675 -3.00000000
38.53700256 -39.16081238 -2.23841190 60 27 13966 54.98800000 3183588677 3183588677 -2.33300000
38.16284561 -52.27680588 -2.26023102 23 28 13967 64.76400000 3183588679 3183588679 -2.00000000
39.18680954 -43.95141220 -1.37019897 23 31 13968 58.90000000 3183588682 3183588682 -1.33300000
3.74162006 -4.64367056 -2.78082824 22 0 13974 6.58000000 3183588702 3183588702 -25.00000000
38.71002960 -39.44666290 -0.96469921 19 1 13974 55.27600000 3183588702 3183588702 -1.00000000
38.62933731 -47.95944214 -1.79220963 28 2 13975 61.60800000 3183588705 3183588705 -1.66700000
6.82469749 -7.67334366 -2.87475157 5 3 13975 10.66400000 3183588705 3183588705 -15.63900000
8.98100471 -11.15416145 -2.86409688 1 4 13976 14.60400000 3183588707 3183588707 -11.31000000
38.34131241 -43.12418365 0.00000000 36 5 13976 57.70400000 3183588707 3183588707 0.00000000
38.25191879 -52.57202911 -0.75690323 29 6 13976 65.02000000 3183588709 3183588709 -0.66700000
11.48699856 -12.91993999 -2.68961549 2 7 13976 17.49600000 3183588709 3183588709 -8.84300000
13.48978996 -16.75993729 -2.73850513 4 8 13977 21.68800000 3183588712 3183588712 -7.25400000
38.59100723 -39.36658478 0.32039917 58 9 13977 55.12800000 3183588712 3183588712 0.33300000
38.52964401 -47.88697433 -0.35722345 56 10 13978 61.46400000 3183588714 3183588714 -0.33300000
15.69032383 -17.66001701 -2.54462576 2 11 13978 23.76000000 3183588714 3183588714 -6.14800000
17.05099297 -23.46006584 -2.70727491 4 12 13979 29.12800000 3183588716 3183588716 -5.33300000
39.89635086 -44.92055130 1.39802170 17 13 13979 60.09600000 3183588716 3183588716 1.33300000
38.67835236 -53.23618317 0.76607639 28 14 13980 65.80800000 3183588718 3183588718 0.66700000
20.00172997 -22.52849007 -2.10664558 20 15 13980 30.20000000 3183588718 3183588718 -4.00000000
19.44602394 -24.19462013 -2.53401518 5 16 13981 31.14400000 3183588721 3183588721 -4.66700000
40.44419098 -41.31467056 1.68259645 72 17 13981 57.84000000 3183588721 3183588721 1.66700000
39.97508621 -49.73675156 1.11381257 28 18 13981 63.82000000 3183588723 3183588723 1.00000000
20.11384201 -20.54675102 -1.84274459 12 19 13981 28.81200000 3183588723 3183588723 -3.66700000
19.97180557 -27.50902176 -1.97974992 13 20 13982 34.05200000 3183588725 3183588725 -3.33300000
39.78170395 -44.83872604 3.49089932 51 21 13982 60.04400000 3183588725 3183588725 3.33300000
40.15092087 -49.99125290 2.61226749 28 22 13983 64.17200000 3183588728 3183588728 2.33300000
33.24949646 -37.48932648 -2.33418727 8 23 13983 50.16400000 3183588728 3183588728 -2.66700000
20.01645470 -24.93107033 -1.67558801 12 24 13984 32.01600000 3183588730 3183588730 -3.00000000
38.52706146 -39.41128159 -2.24541354 20 27 13985 55.16000000 3183588732 3183588732 -2.33300000
37.96112442 -52.36423111 -2.25855589 23 28 13986 64.71600000 3183588735 3183588735 -2.00000000
38.58746719 -43.56921005 -1.35428703 34 31 13987 58.21600000 3183588737 3183588737 -1.33300000
3.78735995 -4.73247385 -2.82647085 26 0 13993 6.68800000 3183588758 3183588758 -25.00000000
38.58738327 -39.58340454 -0.96490866 39 1 13993 55.28800000 3183588758 3183588758 -1.00000000
38.61745071 -48.27148438 -1.79907501 28 2 13994 61.84400000 3183588760 3183588760 -1.66700000
6.80686522 -7.70459318 -2.87798667 5 3 13994 10.67600000 3183588760 3183588760 -15.63900000
8.96111488 -11.20532513 -2.86958814 1 4 13995 14.63200000 3183588762 3183588762 -11.31000000
38.29077148 -43.35602570 0.00000000 55 5 13995 57.84400000 3183588762 3183588762 0.00000000
38.28820038 -52.99036789 -0.76109403 58 6 13995 65.38000000 3183588765 3183588765 -0.66700000
11.45717335 -12.97277355 -2.69269013 2 7 13995 17.51600000 3183588765 3183588765 -8.84300000
13.46139240 -16.83867073 -2.74406099 4 8 13996 21.73200000 3183588767 3183588767 -7.25400000
38.58024597 -39.61756134 0.32139882 39 9 13996 55.30000000 3183588767 3183588767 0.33300000
38.40060043 -48.05197525 -0.35750243 56 10 13997 61.51200000 3183588769 3183588769 -0.33300000
15.65272808 -17.73580551 -2.54805303 2 11 13997 23.79200000 3183588769 3183588769 -6.14800000
17.01039505 -23.56815147 -2.71322322 4 12 13998 29.19200000 3183588771 3183588771 -5.33300000
39.93236160 -45.26251221 1.40453529 17 13 13998 60.37600000 3183588771 3183588771 1.33300000
38.65839767 -53.58147430 0.76919621 28 14 13999 66.07600000 3183588774 3183588774 0.66700000
20.00345230 -22.68148232 -2.11473727 20 15 13999 30.31600000 3183588774 3183588774 -4.00000000
19.38309479 -24.28078270 -2.53629327 5 16 14000 31.17200000 3183588776 3183588776 -4.66700000
40.34598923 -41.48868942 1.68422556 73 17 14000 57.89600000 3183588776 3183588776 1.66700000
41.96822739 -52.57268906 1.17419791 28 18 14000 67.28000000 3183588778 3183588778 1.00000000
20.11238670 -20.68202019 -1.84888458 12 19 14000 28.90800000 3183588778 3183588778 -3.66700000
19.97622108 -27.70790482 -1.98928475 13 20 14001 34.21600000 3183588781 3183588781 -3.33300000
39.65391922 -44.99436951 3.49275994 51 21 14001 60.07600000 3183588781 3183588781 3.33300000
40.94697189 -51.33012390 2.67511964 57 22 14002 65.71600000 3183588783 3183588783 2.33300000
33.27026749 -37.76427460 -2.34442425 8 23 14002 50.38400000 3183588783 3183588783 -2.66700000
20.02581596 -25.11286354 -1.68333375 12 24 14003 32.16400000 3183588785 3183588785 -3.00000000
38.41286469 -39.55603027 -2.24639058 20 27 14004 55.18400000 3183588788 3183588788 -2.33300000
38.24971390 -53.13220215 -2.28619623 23 28 14005 65.50800000 3183588790 3183588790 -2.00000000
38.57985306 -43.83731461 -1.35884655 34 31 14005 58.41200000 3183588792 3183588792 -1.33300000
3.75871515 -4.73213005 -2.81801867 19 0 14014 6.66800000 3183588813 3183588813 -25.00000000
38.56719971 -39.85389709 -0.96805006 40 1 14014 55.46800000 3183588813 3183588813 -1.00000000
38.57204056 -48.57865524 -1.80524218 28 2 14015 62.05600000 3183588815 3183588815 -1.66700000
6.78620005 -7.73817778 -2.88122153 5 3 14015 10.68800000 3183588815 3183588815 -15.63900000
8.91266918 -11.22887707 -2.86723471 1 4 14016 14.62000000 3183588818 3183588818 -11.31000000
38.55350494 -43.97732925 0.00000000 57 5 14016 58.48400000 3183588818 3183588818 0.00000000
38.10308838 -53.16299820 -0.76146650 58 6 14017 65.41200000 3183588820 3183588820 -0.66700000
11.42551231 -13.03747749 -2.69699430 2 7 14017 17.54400000 3183588820 3183588820 -8.84300000
13.41685009 -16.90965652 -2.74759650 4 8 14017 21.76000000 3183588822 3183588822 -7.25400000
38.58768845 -39.91687393 0.32267743 60 9 14017 55.52000000 3183588822 3183588822 0.33300000
38.36341858 -48.36789322 -0.35880432 56 10 14018 61.73600000 3183588824 3183588824 -0.33300000
15.60072136 -17.80801392 -2.55019498 2 11 14018 23.81200000 3183588824 3183588824 -6.14800000
16.95172691 -23.66919327 -2.71768451 4 12 14019 29.24000000 3183588827 3183588827 -5.33300000
40.91223526 -46.71721649 1.44501317 18 13 14019 62.11600000 3183588827 3183588827 1.33300000
38.81565857 -54.21713638 0.77627397 28 14 14020 66.68400000 3183588829 3183588829 0.66700000
19.99115181 -22.83570862 -2.12227106 20 15 14020 30.42400000 3183588829 3183588829 -4.00000000
19.39052773 -24.47352982 -2.54898620 5 16 14021 31.32800000 3183588831 3183588831 -4.66700000
40.74626923 -42.20873642 1.70738161 51 17 14021 58.69200000 3183588831 3183588831 1.66700000
41.91255569 -52.91842270 1.17831671 28 18 14022 67.51600000 3183588834 3183588834 1.00000000
20.09658051 -20.82516098 -1.85476863 12 19 14022 29.00000000 3183588834 3183588834 -3.66700000
19.97676277 -27.92383575 -1.99951720 13 20 14022 34.39200000 3183588836 3183588836 -3.33300000
39.52554703 -45.18148422 3.49601555 51 21 14022 60.13200000 3183588836 3183588836 3.33300000
40.93222427 -51.69920349 2.68651772 57 22 14023 65.99600000 3183588838 3183588838 2.33300000
33.15793228 -37.91604233 -2.34628534 8 23 14023 50.42400000 3183588838 3183588838 -2.66700000
20.01296616 -25.28632545 -1.69003272 12 24 14024 32.29200000 3183588841 3183588841 -3.00000000
38.30923462 -39.73971558 -2.24883294 20 27 14025 55.24400000 3183588843 3183588843 -2.33300000
38.97953415 -54.56667328 -2.34175634 24 28 14026 67.10000000 3183588845 3183588845 -2.00000000
38.56362152 -44.14406204 -1.36396444 23 31 14026 58.63200000 3183588848 3183588848 -1.33300000
3.71299100 -4.70821619 -2.79604244 25 0 14034 6.61600000 3183588868 3183588868 -25.00000000
38.58580399 -40.15264893 -0.97202921 41 1 14034 55.69600000 3183588868 3183588868 -1.00000000
38.51362610 -48.85430145 -1.81047845 28 2 14035 62.23600000 3183588871 3183588871 -1.66700000
6.76420641 -7.76762867 -2.88337803 6 3 14035 10.69600000 3183588871 3183588871 -15.63900000
8.88798523 -11.27840424 -2.87194157 1 4 14036 14.64400000 3183588873 3183588873 -11.31000000
38.48380280 -44.20818329 0.00000000 58 5 14036 58.61200000 3183588873 3183588873 0.00000000
38.15610504 -53.63136673 -0.76626265 58 6 14037 65.82400000 3183588875 3183588875 -0.66700000
11.39031219 -13.08920670 -2.69945407 2 7 14037 17.56000000 3183588875 3183588875 -8.84300000
13.37493038 -16.97820473 -2.75113201 4 8 14037 21.78800000 3183588877 3183588877 -7.25400000
38.65863800 -40.27062607 0.32444426 41 9 14037 55.82400000 3183588877 3183588877 0.33300000
38.32055664 -48.66178131 -0.35998994 56 10 14038 61.94000000 3183588880 3183588880 -0.33300000
15.56195641 -17.88936615 -2.55405045 2 11 14038 23.84800000 3183588880 3183588880 -6.14800000
16.92900276 -23.81261826 -2.72735071 4 12 14039 29.34400000 3183588882 3183588882 -5.33300000
40.41041183 -46.47047806 1.43300939 18 13 14039 61.60000000 3183588882 3183588882 1.33300000
38.62385178 -54.34903717 0.77622741 28 14 14040 66.68000000 3183588884 3183588884 0.66700000
19.98985291 -22.99569702 -2.13064170 20 15 14040 30.54400000 3183588884 3183588884 -4.00000000
19.32469940 -24.56613541 -2.55158997 5 16 14041 31.36000000 3183588887 3183588887 -4.66700000
40.52397919 -42.27277756 1.70423985 25 17 14041 58.58400000 3183588887 3183588887 1.66700000
41.18790054 -52.35928726 1.16281891 28 18 14041 66.62800000 3183588889 3183588889 1.00000000
20.09370804 -20.96084785 -1.86090851 13 19 14041 29.09600000 3183588889 3183588889 -3.66700000
20.02714157 -28.20176888 -2.01440072 13 20 14042 34.64800000 3183588891 3183588891 -3.33300000
39.43830109 -45.40057373 3.50229454 34 21 14042 60.24000000 3183588891 3183588891 3.33300000
40.66506577 -51.73179245 2.68081856 57 22 14043 65.85600000 3183588894 3183588894 2.33300000
33.12231445 -38.14318085 -2.35317206 8 23 14043 50.57200000 3183588894 3183588894 -2.66700000
20.01096153 -25.46595764 -1.69735968 12 24 14044 32.43200000 3183588896 3183588896 -3.00000000
38.27806854 -39.98579407 -2.25518346 21 27 14045 55.40000000 3183588898 3183588898 -2.33300000
38.12750626 -53.76977539 -2.30183125 23 28 14046 65.95600000 3183588901 3183588901 -2.00000000
38.66347122 -44.57141876 -1.37299049 23 31 14046 59.02000000 3183588903 3183588903 -1.33300000
3.67418456 -4.69260454 -2.77913761 29 0 14054 6.57600000 3183588923 3183588923 -25.00000000
38.66353607 -40.51567078 -0.97754419 21 1 14054 56.01200000 3183588923 3183588923 -1.00000000
38.60900497 -49.32848358 -1.82304561 28 2 14055 62.66800000 3183588925 3183588925 -1.66700000
6.74209023 -7.79702044 -2.88553476 5 3 14055 10.70400000 3183588925 3183588925 -15.63900000
8.84614563 -11.30627155 -2.87115717 1 4 14056 14.64000000 3183588928 3183588928 -11.31000000
38.52544022 -44.56920624 0.00000000 39 5 14056 58.91200000 3183588928 3183588928 0.00000000
38.10036469 -53.93073654 -0.76873058 29 6 14056 66.03600000 3183588930 3183588930 -0.66700000
11.35976791 -13.14185810 -2.70252848 2 7 14056 17.58000000 3183588930 3183588930 -8.84300000
13.34002972 -17.05604362 -2.75618291 4 8 14057 21.82800000 3183588932 3183588932 -7.25400000
38.58407211 -40.47480774 0.32500222 62 9 14057 55.92000000 3183588932 3183588932 0.33300000
38.22683716 -48.89293289 -0.36071062 56 10 14058 62.06400000 3183588935 3183588935 -0.33300000
15.56960773 -18.02483940 -2.56561685 2 11 14058 23.95600000 3183588935 3183588935 -6.14800000
16.85955620 -23.89109039 -2.72958136 4 12 14059 29.36800000 3183588937 3183588937 -5.33300000
39.49264908 -45.73653412 1.40611720 34 13 14059 60.44400000 3183588937 3183588937 1.33300000
38.77051544 -54.96070862 0.78302580 28 14 14060 67.26400000 3183588939 3183588939 0.66700000
19.97725296 -23.14386940 -2.13789630 24 15 14060 30.64800000 3183588939 3183588939 -4.00000000
19.26582336 -24.66800308 -2.55516982 5 16 14061 31.40400000 3183588941 3183588941 -4.66700000
42.83524323 -44.99715805 1.80803490 28 17 14061 62.15200000 3183588941 3183588941 1.66700000
40.88179779 -52.34514236 1.15932846 56 18 14061 66.42800000 3183588944 3183588944 1.00000000
20.09473228 -21.10892296 -1.86781597 13 19 14061 29.20400000 3183588944 3183588944 -3.66700000
20.04821205 -28.44122505 -2.02649379 14 20 14062 34.85600000 3183588946 3183588946 -3.33300000
39.31348801 -45.57727051 3.50531793 34 21 14062 60.29200000 3183588946 3183588946 3.33300000
40.79406738 -52.27041626 2.70133519 57 22 14063 66.36000000 3183588948 3183588948 2.33300000
33.15335083 -38.44920731 -2.36489773 8 23 14063 50.82400000 3183588948 3183588948 -2.66700000
20.00794411 -25.64588547 -1.70468676 12 24 14064 32.57200000 3183588951 3183588951 -3.00000000
38.17405701 -40.15682220 -2.25730014 21 27 14065 55.45200000 3183588953 3183588953 -2.33300000
39.06242371 -55.49781036 -2.36995506 24 28 14066 67.90800000 3183588955 3183588955 -2.00000000
38.78429031 -45.02727509 -1.38285410 23 31 14066 59.44400000 3183588958 3183588958 -1.33300000
3.67863202 -4.73051882 -2.79435205 19 0 14073 6.61200000 3183588978 3183588978 -25.00000000
38.84539032 -40.97744751 -0.98557228 21 1 14073 56.47200000 3183588978 3183588978 -1.00000000
38.52128601 -49.55410385 -1.82665277 28 2 14074 62.79200000 3183588981 3183588981 -1.66700000
6.72121668 -7.82517910 -2.88769126 6 3 14074 10.71200000 3183588981 3183588981 -15.63900000
8.81582451 -11.34483528 -2.87351060 1 4 14075 14.65200000 3183588983 3183588983 -11.31000000
38.47123718 -44.80596924 0.00000000 40 5 14075 59.05600000 3183588983 3183588983 0.00000000
38.12115479 -54.34165955 -0.77278167 58 6 14075 66.38400000 3183588985 3183588985 -0.66700000
11.33157349 -13.19744778 -2.70621800 2 7 14075 17.60400000 3183588985 3183588985 -8.84300000
13.31504154 -17.14092445 -2.76274872 4 8 14076 21.88000000 3183588988 3183588988 -7.25400000
38.49364471 -40.64900589 0.32537419 41 9 14076 55.98400000 3183588988 3183588988 0.33300000
38.33680344 -49.37010956 -0.36329111 56 10 14077 62.50800000 3183588990 3183588990 -0.33300000
15.52010822 -18.08844566 -2.56733036 2 11 14077 23.97200000 3183588990 3183588990 -6.14800000
16.80537796 -23.98274422 -2.73367095 4 12 14078 29.41200000 3183588992 3183588992 -5.33300000
40.09576416 -46.74749756 1.43310249 36 13 14078 61.60400000 3183588992 3183588992 1.33300000
38.69131088 -55.23639679 0.78512120 57 14 14079 67.44400000 3183588994 3183588994 0.66700000
19.98350716 -23.30692482 -2.14682531 24 15 14079 30.77600000 3183588994 3183588994 -4.00000000
19.26210785 -24.83255959 -2.56558466 5 16 14080 31.53200000 3183588997 3183588997 -4.66700000
41.26274872 -43.63413239 1.74775934 28 17 14080 60.08000000 3183588997 3183588997 1.66700000
40.67121887 -52.43302155 1.15828133 28 18 14080 66.36800000 3183588999 3183588999 1.00000000
20.09044647 -21.24505234 -1.87395597 13 19 14080 29.30000000 3183588999 3183588999 -3.66700000
20.05683136 -28.65476608 -2.03695869 14 20 14081 35.03600000 3183589001 3183589001 -3.33300000
40.48200226 -47.24784851 3.62345624 19 21 14081 62.32400000 3183589001 3183589001 3.33300000
41.05878830 -52.97084045 2.73048162 57 22 14082 67.07600000 3183589004 3183589004 2.33300000
33.03606415 -38.57107544 -2.36564231 8 23 14082 50.84000000 3183589004 3183589004 -2.66700000
20.00842094 -25.82260704 -1.71201384 12 24 14083 32.71200000 3183589006 3183589006 -3.00000000
38.15593338 -40.40523529 -2.26413894 21 27 14084 55.62000000 3183589008 3183589008 -2.33300000
38.99954605 -55.80070114 -2.37735367 24 28 14085 68.12000000 3183589011 3183589011 -2.00000000
38.59836578 -45.11310196 -1.38155138 23 31 14085 59.38800000 3183589013 3183589013 -1.33300000
3.69754386 -4.78924322 -2.82139945 19 0 14093 6.67600000 3183589034 3183589034 -25.00000000
38.72130203 -41.13317871 -0.98606098 43 1 14093 56.50000000 3183589034 3183589034 -1.00000000
38.50930405 -49.89717102 -1.83433270 28 2 14094 63.05600000 3183589036 3183589036 -1.66700000
6.70135975 -7.85738516 -2.89092612 6 3 14094 10.72400000 3183589036 3183589036 -15.63900000
8.77856541 -11.37864494 -2.87429500 1 4 14095 14.65600000 3183589038 3183589038 -11.31000000
38.53518677 -45.19871902 0.00000000 40 5 14095 59.39600000 3183589038 3183589038 0.00000000
38.03865433 -54.62866592 -0.77497017 29 6 14095 66.57200000 3183589041 3183589041 -0.66700000
11.29569435 -13.24895287 -2.70867777 2 7 14095 17.62000000 3183589041 3183589041 -8.84300000
13.27208996 -17.20929337 -2.76628423 4 8 14096 21.90800000 3183589043 3183589043 -7.25400000
38.54333115 -40.98709869 0.32700151 42 9 14096 56.26400000 3183589043 3183589043 0.33300000
38.36449432 -49.76338959 -0.36519742 56 10 14097 62.83600000 3183589045 3183589045 -0.33300000
15.47234821 -18.16067314 -2.56990075 2 11 14097 23.99600000 3183589045 3183589045 -6.14800000
16.80342865 -24.15896606 -2.74705482 4 12 14098 29.55600000 3183589047 3183589047 -5.33300000
39.97642136 -46.93893051 1.43468440 36 13 14098 61.67200000 3183589047 3183589047 1.33300000
38.94350052 -56.01148987 0.79420125 28 14 14099 68.22400000 3183589050 3183589050 0.66700000
19.97704315 -23.46464920 -2.15491700 20 15 14099 30.89200000 3183589050 3183589050 -4.00000000
19.19476891 -24.92491531 -2.56818819 5 16 14100 31.56400000 3183589052 3183589052 -4.66700000
41.22513962 -43.90031433 1.75264645 28 17 14100 60.24800000 3183589052 3183589052 1.66700000
40.68370056 -52.84794235 1.16414535 28 18 14101 66.70400000 3183589054 3183589054 1.00000000
20.08894348 -21.40003586 -1.88111913 13 19 14101 29.41200000 3183589054 3183589054 -3.66700000
20.06149292 -28.87545776 -2.04765630 14 20 14101 35.22000000 3183589057 3183589057 -3.33300000
40.56782150 -47.68388748 3.64601421 40 21 14101 62.71200000 3183589057 3183589057 3.33300000
40.95163345 -53.21519852 2.73569202 57 22 14102 67.20400000 3183589059 3183589059 2.33300000
33.11866760 -38.94183350 -2.38127685 8 23 14102 51.17600000 3183589059 3183589059 -2.66700000
19.99853516 -25.99677277 -1.71892214 13 24 14103 32.84400000 3183589061 3183589061 -3.00000000
38.14041901 -40.67228317 -2.27162910 21 27 14104 55.80400000 3183589064 3183589064 -2.33300000
39.03238678 -56.26495361 -2.39131355 24 28 14105 68.52000000 3183589066 3183589066 -2.00000000
38.59600449 -45.43041611 -1.38713455 35 31 14105 59.62800000 3183589068 3183589068 -1.33300000
3.67639303 -4.79636621 -2.81801867 21 0 14113 6.66800000 3183589089 3183589089 -25.00000000
38.67307663 -41.37034607 -0.98850429 44 1 14113 56.64000000 3183589089 3183589089 -1.00000000
38.42973709 -50.15506744 -1.83887088 28 2 14114 63.21200000 3183589091 3183589091 -1.66700000
6.68135929 -7.88954782 -2.89416099 6 3 14114 10.73600000 3183589091 3183589091 -15.63900000
8.80795956 -11.49952030 -2.89704466 1 4 14115 14.77200000 3183589093 3183589093 -11.31000000
38.49864960 -45.47644424 0.00000000 41 5 14115 59.58400000 3183589093 3183589093 0.00000000
38.06780243 -55.10008240 -0.77967316 29 6 14116 66.97600000 3183589096 3183589096 -0.66700000
11.26493073 -13.31138420 -2.71298194 2 7 14116 17.64800000 3183589096 3183589096 -8.84300000
13.21917439 -17.26496887 -2.76779938 2 8 14116 21.92000000 3183589098 3183589098 -7.25400000
38.56109619 -41.29387665 0.32837313 43 9 14116 56.50000000 3183589098 3183589098 0.33300000
38.31940460 -50.06534958 -0.36642954 56 10 14117 63.04800000 3183589100 3183589100 -0.33300000
15.43197823 -18.24189758 -2.57375622 2 11 14117 24.03200000 3183589100 3183589100 -6.14800000
16.72352028 -24.22402763 -2.74779844 4 12 14118 29.56400000 3183589103 3183589103 -5.33300000
39.79425430 -47.05681229 1.43403304 36 13 14118 61.64400000 3183589103 3183589103 1.33300000
38.97038269 -56.46969604 0.79876459 28 14 14119 68.61600000 3183589105 3183589105 0.66700000
19.97487259 -23.62870407 -2.16356683 20 15 14119 31.01600000 3183589105 3183589105 -4.00000000
19.13912582 -25.03293800 -2.57241917 5 16 14120 31.61600000 3183589107 3183589107 -4.66700000
40.94075775 -43.90358734 1.74706113 56 17 14120 60.05600000 3183589107 3183589107 1.66700000
40.56652832 -53.05881500 1.16582072 56 18 14120 66.80000000 3183589110 3183589110 1.00000000
20.08320618 -21.53660011 -1.88725913 13 19 14120 29.50800000 3183589110 3183589110 -3.66700000
19.99911499 -29.00119400 -2.05160975 14 20 14121 35.28800000 3183589112 3183589112 -3.33300000
40.67428207 -48.14855576 3.67066526 41 21 14121 63.13600000 3183589112 3183589112 3.33300000
40.90150833 -53.53567123 2.74481058 57 22 14122 67.42800000 3183589114 3183589114 2.33300000
33.00315475 -39.08162308 -2.38276577 8 23 14122 51.20800000 3183589114 3183589114 -2.66700000
19.99979973 -26.18705750 -1.72687721 13 24 14123 32.99600000 3183589117 3183589117 -3.00000000
38.15073776 -40.96896362 -2.28074741 22 27 14124 56.02800000 3183589119 3183589119 -2.33300000
39.03298569 -56.68730545 -2.40345860 24 28 14125 68.86800000 3183589121 3183589121 -2.00000000
38.57102203 -45.73971176 -1.39225245 24 31 14126 59.84800000 3183589123 3183589123 -1.33300000
3.66621399 -4.81782484 -2.82309008 19 0 14133 6.68000000 3183589144 3183589144 -25.00000000
38.66447830 -41.65164566 -0.99199480 45 1 14133 56.84000000 3183589144 3183589144 -1.00000000
38.37304306 -50.44483566 -1.84457254 57 2 14134 63.40800000 3183589146 3183589146 -1.66700000
6.65377903 -7.91282225 -2.89416099 6 3 14134 10.73600000 3183589146 3183589146 -15.63900000
8.76776505 -11.53019619 -2.89704466 1 4 14135 14.77200000 3183589149 3183589149 -11.31000000
38.45034790 -45.74221420 0.00000000 41 5 14135 59.75600000 3183589149 3183589149 0.00000000
38.09917450 -55.55919647 -0.78428304 29 6 14136 67.37200000 3183589151 3183589151 -0.66700000
11.23873901 -13.37483311 -2.71790123 2 7 14136 17.68000000 3183589151 3183589151 -8.84300000
13.21885872 -17.38998032 -2.78042626 4 8 14136 22.02000000 3183589153 3183589153 -7.25400000
38.53366852 -41.55434418 0.32937276 44 9 14136 56.67200000 3183589153 3183589153 0.33300000
38.27267075 -50.36759949 -0.36766165 56 10 14137 63.26000000 3183589156 3183589156 -0.33300000
15.37588215 -18.30479050 -2.57504153 2 11 14137 24.04400000 3183589156 3183589156 -6.14800000
16.71990585 -24.40052986 -2.76118231 4 12 14138 29.70800000 3183589158 3183589158 -5.33300000
40.74065018 -48.51841354 1.47423172 38 13 14138 63.37200000 3183589158 3183589158 1.33300000
39.02844238 -56.97826767 0.80402631 28 14 14139 69.06800000 3183589160 3183589160 0.66700000
19.97436523 -23.79608536 -2.17249560 20 15 14139 31.14400000 3183589160 3183589160 -4.00000000
19.12635040 -25.19803619 -2.58250833 5 16 14140 31.74000000 3183589163 3183589163 -4.66700000
40.80899048 -44.06970215 1.74799204 28 17 14140 60.08800000 3183589163 3183589163 1.66700000
40.52856827 -53.39441681 1.17007911 56 18 14140 67.04400000 3183589165 3183589165 1.00000000
20.08655930 -21.69151115 -1.89467812 13 19 14140 29.62400000 3183589165 3183589165 -3.66700000
19.99925613 -29.21911430 -2.06207490 14 20 14141 35.46800000 3183589167 3183589167 -3.33300000
40.60091782 -48.40344238 3.67926979 63 21 14141 63.28400000 3183589167 3183589167 3.33300000
40.72163010 -53.68766785 2.74529910 28 22 14142 67.44000000 3183589170 3183589170 2.33300000
33.10272598 -39.47827148 -2.39988923 8 23 14142 51.57600000 3183589170 3183589170 -2.66700000
20.00238991 -26.38084793 -1.73504162 19 24 14143 33.15200000 3183589172 3183589172 -3.00000000
38.12689209 -41.23099899 -2.28791189 44 27 14144 56.20400000 3183589174 3183589174 -2.33300000
39.02434540 -57.10044861 -2.41518474 24 28 14145 69.20400000 3183589176 3183589176 -2.00000000
38.51156998 -45.97772598 -1.39560235 24 31 14145 59.99200000 3183589179 3183589179 -1.33300000
3.63844824 -4.81613016 -2.81463766 26 0 14153 6.66000000 3183589199 3183589199 -25.00000000
38.64354324 -41.92162704 -0.99520600 22 1 14153 57.02400000 3183589199 3183589199 -1.00000000
38.31961060 -50.74119949 -1.85050702 28 2 14154 63.61200000 3183589202 3183589202 -1.66700000
6.63105488 -7.94191360 -2.89631772 6 3 14154 10.74400000 3183589202 3183589202 -15.63900000
8.72746372 -11.56073093 -2.89704466 1 4 14155 14.77200000 3183589204 3183589204 -11.31000000
38.41347504 -46.02355576 0.00000000 42 5 14155 59.94800000 3183589204 3183589204 0.00000000
38.24338150 -56.16792679 -0.79108143 29 6 14155 67.95600000 3183589206 3183589206 -0.66700000
11.19432449 -13.41202831 -2.71790123 2 7 14155 17.68000000 3183589206 3183589206 -8.84300000
13.16524601 -17.44551849 -2.78194141 4 8 14156 22.03200000 3183589209 3183589209 -7.25400000
38.48863220 -41.79747009 0.33023295 66 9 14156 56.82000000 3183589209 3183589209 0.33300000
38.17852402 -50.60945892 -0.36845207 56 10 14157 63.39600000 3183589211 3183589211 -0.33300000
15.38576508 -18.44692039 -2.58746481 2 11 14157 24.16000000 3183589211 3183589211 -6.14800000
16.65926743 -24.49497032 -2.76527190 4 12 14158 29.75200000 3183589213 3183589213 -5.33300000
40.72212982 -48.84154129 1.47972178 57 13 14158 63.60800000 3183589213 3183589213 1.33300000
38.90802002 -57.22992325 0.80565608 57 14 14159 69.20800000 3183589216 3183589216 0.66700000
19.95760345 -23.94536018 -2.17975020 16 15 14159 31.24800000 3183589216 3183589216 -4.00000000
19.07186508 -25.30922127 -2.58706474 5 16 14160 31.79600000 3183589218 3183589218 -4.66700000
40.66573715 -44.22365570 1.74845743 28 17 14160 60.10400000 3183589218 3183589218 1.66700000
40.29621124 -53.47487640 1.16875279 56 18 14160 66.96800000 3183589220 3183589220 1.00000000
20.08097076 -21.83789253 -1.90132976 13 19 14160 29.72800000 3183589220 3183589220 -3.66700000
20.00036240 -29.44069099 -2.07277226 14 20 14161 35.65200000 3183589223 3183589223 -3.33300000
40.70004654 -48.86705017 3.70368814 64 21 14161 63.70400000 3183589223 3183589223 3.33300000
41.50044632 -55.11296463 2.81075621 28 22 14162 69.04800000 3183589225 3183589225 2.33300000
20.44763565 -24.55944252 -1.48862374 3 23 14162 31.99200000 3183589225 3183589225 -2.66700000
19.99666405 -26.56539917 -1.74257803 19 24 14163 33.29600000 3183589227 3183589227 -3.00000000
38.00706482 -41.39033127 -2.28937745 67 27 14164 56.24000000 3183589229 3183589229 -2.33300000
38.98636246 -57.47451401 -2.42523575 24 28 14165 69.49200000 3183589232 3183589232 -2.00000000
38.44761276 -46.24464417 -1.39941752 12 31 14166 60.15600000 3183589234 3183589234 -1.33300000
3.65291643 -4.86876631 -2.83830428 24 0 14172 6.71600000 3183589255 3183589255 -25.00000000
38.62315369 -42.17932510 -0.99827766 23 1 14172 57.20000000 3183589255 3183589255 -1.00000000
38.25189590 -51.00233841 -1.85539424 28 2 14173 63.78000000 3183589257 3183589257 -1.66700000
6.60960007 -7.96978903 -2.89847422 6 3 14173 10.75200000 3183589257 3183589257 -15.63900000
8.69143105 -11.59274673 -2.89782906 1 4 14174 14.77600000 3183589259 3183589259 -11.31000000
38.47509003 -46.40935516 0.00000000 42 5 14174 60.28400000 3183589259 3183589259 0.00000000
38.19803619 -56.50319290 -0.79401499 29 6 14174 68.20800000 3183589262 3183589262 -0.66700000
11.16492271 -13.46733379 -2.72159076 2 7 14174 17.70400000 3183589262 3183589262 -8.84300000
13.12398052 -17.51130676 -2.78547692 4 8 14175 22.06000000 3183589264 3183589264 -7.25400000
38.46320343 -42.04883194 0.33120933 67 9 14175 56.98800000 3183589264 3183589264 0.33300000
38.20714951 -50.99828339 -0.37035838 56 10 14176 63.72400000 3183589266 3183589266 -0.33300000
15.34480572 -18.52234077 -2.59089184 2 11 14176 24.19200000 3183589266 3183589266 -6.14800000
16.58909225 -24.56658363 -2.76713085 4 12 14177 29.77200000 3183589269 3183589269 -5.33300000
40.50127792 -48.90547562 1.47758162 38 13 14177 63.51600000 3183589269 3183589269 1.33300000
38.98208237 -57.74982071 0.81115067 28 14 14178 69.68000000 3183589271 3183589271 0.66700000
19.95951462 -24.10976791 -2.18867922 12 15 14178 31.37600000 3183589271 3183589271 -4.00000000
19.07143784 -25.48404312 -2.59845591 5 16 14179 31.93600000 3183589273 3183589273 -4.66700000
42.23928070 -46.24170303 1.82269645 28 17 14179 62.65600000 3183589273 3183589273 1.66700000
40.13543320 -53.63062286 1.16924143 56 18 14179 66.99600000 3183589276 3183589276 1.00000000
20.08651733 -21.98983383 -1.90874887 13 19 14179 29.84400000 3183589276 3183589276 -3.66700000
20.00980568 -29.66575813 -2.08393502 15 20 14180 35.84400000 3183589278 3183589278 -3.33300000
40.42068481 -48.86021423 3.69299054 64 21 14180 63.52000000 3183589278 3183589278 3.33300000
41.55920410 -55.57355499 2.82720208 28 22 14181 69.45200000 3183589280 3183589280 2.33300000
20.42719650 -24.70101357 -1.49309075 3 23 14181 32.08800000 3183589280 3183589280 -2.66700000
19.98977852 -26.74034309 -1.74969566 20 24 14182 33.43200000 3183589282 3183589282 -3.00000000
38.15240860 -41.82617950 -2.30647445 23 27 14183 56.66000000 3183589285 3183589285 -2.33300000
38.74642944 -57.53053665 -2.42216468 24 28 14184 69.40400000 3183589287 3183589287 -2.00000000
38.71673584 -46.88373947 -1.41486418 25 31 14185 60.82000000 3183589289 3183589289 -1.33300000
3.63806438 -4.88439512 -2.83999467 15 0 14192 6.72000000 3183589310 3183589310 -25.00000000
38.64519119 -42.50030518 -1.00267565 23 1 14192 57.45200000 3183589310 3183589310 -1.00000000
38.41986465 -51.60056686 -1.87226677 28 2 14193 64.36000000 3183589312 3183589312 -1.66700000
6.58663702 -7.99875927 -2.90063095 5 3 14193 10.76000000 3183589312 3183589312 -15.63900000
8.65091228 -11.62301540 -2.89782906 1 4 14194 14.77600000 3183589315 3183589315 -11.31000000
38.53148270 -46.80896759 0.00000000 42 5 14194 60.62800000 3183589315 3183589315 0.00000000
38.24570847 -57.00153732 -0.79913706 29 6 14194 68.64800000 3183589317 3183589317 -0.66700000
11.12286854 -13.51232719 -2.72282052 2 7 14194 17.71200000 3183589317 3183589317 -8.84300000
13.08646011 -17.58884621 -2.79052782 4 8 14195 22.10000000 3183589319 3183589319 -7.25400000
38.48293686 -42.36640930 0.33265069 46 9 14195 57.23600000 3183589319 3183589319 0.33300000
38.04799652 -51.15701675 -0.37054437 56 10 14196 63.75600000 3183589322 3183589322 -0.33300000
15.29521561 -18.59421921 -2.59346223 2 11 14196 24.21600000 3183589322 3183589322 -6.14800000
16.57640648 -24.73351669 -2.77939939 4 12 14197 29.90400000 3183589324 3183589324 -5.33300000
40.27698135 -48.98168945 1.47562754 38 13 14197 63.43200000 3183589324 3183589324 1.33300000
42.11286926 -62.85997772 0.88085747 28 14 14198 75.66800000 3183589326 3183589326 0.66700000
19.95124817 -24.27176857 -2.19704986 12 15 14198 31.49600000 3183589326 3183589326 -4.00000000
19.00138474 -25.57606125 -2.60105944 5 16 14199 31.96800000 3183589329 3183589329 -4.66700000
41.23949814 -45.46487808 1.78639150 28 17 14199 61.40800000 3183589329 3183589329 1.66700000
39.97898865 -53.81212997 1.17014897 28 18 14199 67.04800000 3183589331 3183589331 1.00000000
20.07936478 -22.13669014 -1.91540039 13 19 14199 29.94800000 3183589331 3183589331 -3.66700000
20.01720238 -29.90134048 -2.09556293 15 20 14200 36.04400000 3183589333 3183589333 -3.33300000
40.19158936 -48.93003845 3.68764186 42 21 14200 63.42800000 3183589333 3183589333 3.33300000
104.64289856 -140.95317078 7.15210629 28 22 14201 175.69600000 3183589335 3183589335 2.33300000
20.36620522 -24.80304909 -1.49495196 3 23 14201 32.12800000 3183589335 3183589335 -2.66700000
19.98915482 -26.93505859 -1.75786006 20 24 14202 33.58800000 3183589338 3183589338 -3.00000000
38.11081696 -42.07462692 -2.31282496 23 27 14203 56.81600000 3183589340 3183589340 -2.33300000
38.30989456 -57.31314850 -2.40736723 24 28 14204 68.98000000 3183589342 3183589342 -2.00000000
38.65173340 -47.13919830 -1.41849327 25 31 14205 60.97600000 3183589345 3183589345 -1.33300000
3.60289907 -4.87437439 -2.82647085 18 0 14213 6.68800000 3183589365 3183589365 -25.00000000
38.46772385 -42.61791229 -1.00211716 23 1 14213 57.42000000 3183589365 3183589365 -1.00000000
38.28512955 -51.81499481 -1.87494314 28 2 14214 64.45200000 3183589368 3183589368 -1.66700000
6.56458902 -8.03179455 -2.90386581 6 3 14214 10.77200000 3183589368 3183589368 -15.63900000
8.62689686 -11.67988396 -2.90410495 1 4 14215 14.80800000 3183589370 3183589370 -11.31000000
38.54187775 -47.17290115 0.00000000 43 5 14215 60.91600000 3183589370 3183589370 0.00000000
38.23599625 -57.44099045 -0.80332786 29 6 14215 69.00800000 3183589372 3183589372 -0.66700000
11.09077358 -13.57442951 -2.72712493 2 7 14215 17.74000000 3183589372 3183589372 -8.84300000
13.07140160 -17.70372772 -2.80113435 4 8 14216 22.18400000 3183589375 3183589375 -7.25400000
38.46400452 -42.65867615 0.33383632 46 9 14216 57.44000000 3183589375 3183589375 0.33300000
38.15240479 -51.69197464 -0.37340382 56 10 14217 64.24800000 3183589377 3183589377 -0.33300000
15.24456787 -18.67171860 -2.59646082 2 11 14217 24.24400000 3183589377 3183589377 -6.14800000
16.52092552 -24.84716988 -2.78534794 4 12 14218 29.96800000 3183589379 3183589379 -5.33300000
40.07189941 -49.09800339 1.47469699 19 13 14218 63.39200000 3183589379 3183589379 1.33300000
41.96854019 -63.14381790 0.88267350 28 14 14219 75.82400000 3183589381 3183589381 0.66700000
19.94539642 -24.44675827 -2.20625782 12 15 14219 31.62800000 3183589381 3183589381 -4.00000000
18.93827248 -25.68724823 -2.60529041 5 16 14220 32.02000000 3183589384 3183589384 -4.66700000
41.64511490 -46.25158691 1.81129301 56 17 14220 62.26400000 3183589384 3183589384 1.66700000
40.27513885 -54.62786865 1.18466938 28 18 14220 67.88000000 3183589386 3183589386 1.00000000
20.07021332 -22.29022980 -1.92230785 13 19 14220 30.05600000 3183589386 3183589386 -3.66700000
20.00688934 -30.12419510 -2.10602784 15 20 14221 36.22400000 3183589388 3183589388 -3.33300000
40.22645950 -49.34009171 3.70740914 43 21 14221 63.76800000 3183589388 3183589388 3.33300000
44.85383987 -60.88274765 3.08088970 28 22 14222 75.68400000 3183589391 3183589391 2.33300000
20.38118172 -25.00761414 -1.50276911 3 23 14222 32.29600000 3183589391 3183589391 -2.66700000
19.98504829 -27.13679695 -1.76623380 13 24 14223 33.74800000 3183589393 3183589393 -3.00000000
38.08996201 -42.36262512 -2.32096624 23 27 14224 57.01600000 3183589395 3183589395 -2.33300000
39.06946182 -58.91574478 -2.46865082 25 28 14225 70.73600000 3183589398 3183589398 -2.00000000
38.61752701 -47.45113373 -1.42361116 26 31 14226 61.19600000 3183589400 3183589400 -1.33300000
3.59100556 -4.89213991 -2.82985187 16 0 14232 6.69600000 3183589421 3183589421 -25.00000000
38.69997025 -43.16212082 -1.01189053 24 1 14232 57.98000000 3183589421 3183589421 -1.00000000
38.31178284 -52.21245193 -1.88471746 28 2 14233 64.78800000 3183589423 3183589423 -1.66700000
6.54034615 -8.05650997 -2.90494418 6 3 14233 10.77600000 3183589423 3183589423 -15.63900000
8.58811665 -11.70842838 -2.90410495 1 4 14234 14.80800000 3183589425 3183589425 -11.31000000
38.53394699 -47.48370361 0.00000000 43 5 14234 61.15200000 3183589425 3183589425 0.00000000
38.25039673 -57.87779617 -0.80765837 29 6 14234 69.38000000 3183589428 3183589428 -0.66700000
11.05815125 -13.62647820 -2.73019958 2 7 14234 17.76000000 3183589428 3183589428 -8.84300000
13.01966095 -17.75657654 -2.80264950 2 8 14235 22.19600000 3183589430 3183589430 -7.25400000
38.44242096 -42.92007065 0.33488247 47 9 14235 57.62000000 3183589430 3183589430 0.33300000
38.16994858 -52.07629776 -0.37526363 56 10 14236 64.56800000 3183589432 3183589432 -0.33300000
15.25521088 -18.81174850 -2.60888410 2 11 14236 24.36000000 3183589432 3183589432 -6.14800000
16.44721413 -24.91511536 -2.78683496 4 12 14237 29.98400000 3183589434 3183589434 -5.33300000
40.05744171 -49.41389465 1.48018706 38 13 14237 63.62800000 3183589434 3183589434 1.33300000
39.33127594 -59.60372925 0.83135962 28 14 14238 71.41600000 3183589437 3183589437 0.66700000
19.95465851 -24.62437057 -2.21630263 12 15 14238 31.77200000 3183589437 3183589437 -4.00000000
18.93070602 -25.85606003 -2.61603045 5 16 14239 32.15200000 3183589439 3183589439 -4.66700000
40.29469299 -45.05133438 1.75904644 56 17 14239 60.46800000 3183589439 3183589439 1.66700000
40.19063187 -54.89343262 1.18753159 28 18 14239 68.04400000 3183589441 3183589441 1.00000000
20.07602310 -22.44592285 -1.92998266 13 19 14239 30.17600000 3183589441 3183589441 -3.66700000
19.93546104 -30.23371315 -2.10905123 15 20 14240 36.27600000 3183589444 3183589444 -3.33300000
40.13549805 -49.56321335 3.71415329 43 21 14240 63.88400000 3183589444 3183589444 3.33300000
44.52898407 -60.86342621 3.07242274 28 22 14241 75.47600000 3183589446 3183589446 2.33300000
20.38613129 -25.18376160 -1.50928354 3 23 14241 32.43600000 3183589446 3183589446 -2.66700000
19.98219872 -27.32221794 -1.77397954 20 24 14242 33.89600000 3183589448 3183589448 -3.00000000
38.09570312 -42.65264893 -2.32992196 24 27 14243 57.23600000 3183589451 3183589451 -2.33300000
39.01016617 -59.25198746 -2.47730589 25 28 14244 70.98400000 3183589453 3183589453 -2.00000000
38.62164688 -47.76190186 -1.42928731 26 31 14244 61.44000000 3183589455 3183589455 -1.33300000
3.61447096 -4.96031332 -2.86197090 16 0 14252 6.77200000 3183589476 3183589476 -25.00000000
38.70066071 -43.46720886 -1.01586962 49 1 14252 58.20800000 3183589476 3183589476 -1.00000000
38.29408264 -52.57209396 -1.89286292 28 2 14253 65.06800000 3183589478 3183589478 -1.66700000
6.51701880 -8.08528805 -2.90710068 6 3 14253 10.78400000 3183589478 3183589478 -15.63900000
8.55412102 -11.74784756 -2.90645814 1 4 14254 14.82000000 3183589481 3183589481 -11.31000000
38.50097656 -47.78300476 0.00000000 64 5 14254 61.36400000 3183589481 3183589481 0.00000000
38.18932343 -58.24840164 -0.81087130 29 6 14255 69.65600000 3183589483 3183589483 -0.66700000
11.01805115 -13.67922878 -2.73265910 2 7 14255 17.77600000 3183589483 3183589483 -8.84300000
12.97161007 -17.82116508 -2.80568004 4 8 14255 22.22000000 3183589485 3183589485 -7.25400000
38.49173737 -43.27816010 0.33662605 48 9 14255 57.92000000 3183589485 3183589485 0.33300000
38.26092529 -52.58440781 -0.37796038 56 10 14256 65.03200000 3183589487 3183589487 -0.33300000
15.20691204 -18.88656807 -2.61188293 2 11 14256 24.38800000 3183589487 3183589487 -6.14800000
16.44526291 -25.10230064 -2.80133414 4 12 14257 30.14000000 3183589490 3183589490 -5.33300000
39.98500443 -49.67802811 1.48390913 38 13 14257 63.78800000 3183589490 3183589490 1.33300000
39.24131012 -59.92134476 0.83387405 28 14 14258 71.63200000 3183589492 3183589492 0.66700000
19.94112206 -24.78403282 -2.22439432 12 15 14258 31.88800000 3183589492 3183589492 -4.00000000
18.86846352 -25.96068192 -2.61993599 5 16 14259 32.20000000 3183589494 3183589494 -4.66700000
41.28153610 -46.48017120 1.80919850 28 17 14259 62.19200000 3183589494 3183589494 1.66700000
40.48283386 -55.71983719 1.20219159 28 18 14260 68.88400000 3183589497 3183589497 1.00000000
20.05987549 -22.59398079 -1.93637848 13 19 14260 30.27600000 3183589497 3183589497 -3.66700000
19.94131851 -30.47352791 -2.12091160 15 20 14260 36.48000000 3183589499 3183589499 -3.33300000
40.01729584 -49.77147675 3.71926951 44 21 14260 63.97200000 3183589499 3183589499 3.33300000
44.37732315 -61.10256958 3.07665634 28 22 14261 75.58000000 3183589501 3183589501 2.33300000
20.35066605 -25.32017136 -1.51319218 3 23 14261 32.52000000 3183589501 3183589501 -2.66700000
19.96649551 -27.50170517 -1.78109729 14 24 14262 34.03200000 3183589504 3183589504 -3.00000000
38.20382309 -43.07540894 -2.34571624 24 27 14263 57.62400000 3183589506 3183589506 -2.33300000
39.01738358 -59.71575928 -2.49098659 25 28 14264 71.37600000 3183589508 3183589508 -2.00000000
38.43215942 -47.86835861 -1.42844987 39 31 14264 61.40400000 3183589511 3183589511 -1.33300000
3.62900496 -5.01695967 -2.88732791 23 0 14272 6.83200000 3183589531 3183589531 -25.00000000
38.67319870 -43.74285889 -1.01915073 50 1 14272 58.39600000 3183589531 3183589531 -1.00000000
38.28839111 -52.95168686 -1.90170634 28 2 14273 65.37200000 3183589534 3183589534 -1.66700000
6.49356937 -8.11400318 -2.90925741 6 3 14273 10.79200000 3183589534 3183589534 -15.63900000
8.51076412 -11.77445602 -2.90567374 1 4 14274 14.81600000 3183589536 3183589536 -11.31000000
38.44389343 -48.05453873 0.00000000 43 5 14274 61.54000000 3183589536 3183589536 0.00000000
38.15809250 -58.64620209 -0.81454986 29 6 14275 69.97200000 3183589538 3183589538 -0.66700000
10.98257732 -13.73303986 -2.73573375 2 7 14275 17.79600000 3183589538 3183589538 -8.84300000
12.92559052 -17.88884926 -2.80921555 2 8 14275 22.24800000 3183589540 3183589540 -7.25400000
38.43575668 -43.52018738 0.33746296 48 9 14275 58.06400000 3183589540 3183589540 0.33300000
38.23639679 -52.93813705 -0.37954122 56 10 14276 65.30400000 3183589543 3183589543 -0.33300000
15.15082550 -18.95195961 -2.61359644 2 11 14276 24.40400000 3183589543 3183589543 -6.14800000
16.37056541 -25.17958641 -2.80356479 4 12 14277 30.16400000 3183589545 3183589545 -5.33300000
39.89623260 -49.92351151 1.48707294 38 13 14277 63.92400000 3183589545 3183589545 1.33300000
38.94254303 -59.92045593 0.83196491 28 14 14278 71.46800000 3183589547 3183589547 0.66700000
19.94165611 -24.96260452 -2.23416042 12 15 14278 32.02800000 3183589547 3183589547 -4.00000000
18.84770775 -26.12338066 -2.62969971 5 16 14279 32.32000000 3183589550 3183589550 -4.66700000
41.18515396 -46.69895554 1.81210756 56 17 14279 62.29200000 3183589550 3183589550 1.66700000
43.89447784 -60.83880997 1.30948901 28 18 14279 75.03200000 3183589552 3183589552 1.00000000
20.06669235 -22.75318718 -1.94430923 14 19 14279 30.40000000 3183589552 3183589552 -3.66700000
19.94791794 -30.71710014 -2.13300443 15 20 14280 36.68800000 3183589554 3183589554 -3.33300000
39.97286224 -50.07314301 3.73136234 44 21 14280 64.18000000 3183589554 3183589554 3.33300000
43.50230026 -60.33962250 3.03057551 28 22 14281 74.44800000 3183589557 3183589557 2.33300000
20.33941841 -25.48787117 -1.51896203 6 23 14281 32.64400000 3183589557 3183589557 -2.66700000
19.96379471 -27.70085907 -1.78947103 14 24 14282 34.19200000 3183589559 3183589559 -3.00000000
38.19586945 -43.37046814 -2.35450912 24 27 14283 57.84000000 3183589561 3183589561 -2.33300000
39.04141235 -60.21048737 -2.50592351 25 28 14284 71.80400000 3183589564 3183589564 -2.00000000
38.38198853 -48.14918900 -1.43282330 26 31 14284 61.59200000 3183589566 3183589566 -1.33300000
3.56072378 -4.95892334 -2.84675670 15 0 14292 6.73600000 3183589587 3183589587 -25.00000000
38.67330933 -44.05190659 -1.02319968 25 1 14292 58.62800000 3183589587 3183589587 -1.00000000
38.25719833 -53.29939651 -1.90938628 28 2 14293 65.63600000 3183589589 3183589589 -1.66700000
6.46760321 -8.13963604 -2.91033554 6 3 14293 10.79600000 3183589589 3183589589 -15.63900000
8.47647095 -11.81365299 -2.90802717 1 4 14294 14.82800000 3183589592 3183589592 -11.31000000
38.38538361 -48.32625580 0.00000000 43 5 14294 61.71600000 3183589592 3183589592 0.00000000
38.11315155 -59.00424194 -0.81776279 29 6 14294 70.24800000 3183589594 3183589594 -0.66700000
10.95664215 -13.79414368 -2.74065304 2 7 14294 17.82800000 3183589594 3183589594 -8.84300000
12.87463188 -17.94997978 -2.81174088 2 8 14295 22.26800000 3183589596 3183589596 -7.25400000
38.59217834 -44.00594330 0.34018293 50 9 14295 58.53200000 3183589596 3183589596 0.33300000
38.22851181 -53.31833649 -0.38130802 84 10 14296 65.60800000 3183589599 3183589599 -0.33300000
15.09941387 -19.02342224 -2.61616659 2 11 14296 24.42800000 3183589599 3183589599 -6.14800000
16.31280136 -25.28342819 -2.80876970 4 12 14297 30.22000000 3183589601 3183589601 -5.33300000
39.77640533 -50.13138962 1.48912013 19 13 14297 64.01200000 3183589601 3183589601 1.33300000
40.14875793 -62.25094223 0.86237144 28 14 14298 74.08000000 3183589603 3183589603 0.66700000
19.93622780 -25.13522911 -2.24336815 12 15 14298 32.16000000 3183589603 3183589603 -4.00000000
18.78658295 -26.23114777 -2.63393068 5 16 14299 32.37200000 3183589605 3183589605 -4.66700000
40.52140427 -46.27092743 1.78999877 56 17 14299 61.53200000 3183589605 3183589605 1.66700000
43.77732086 -61.12497330 1.31235111 28 18 14299 75.19600000 3183589608 3183589608 1.00000000
20.05815315 -22.90417671 -1.95121658 14 19 14299 30.50800000 3183589608 3183589608 -3.66700000
19.95522118 -30.96444321 -2.14532995 16 20 14300 36.90000000 3183589610 3183589610 -3.33300000
39.90448761 -50.34693527 3.74136233 22 21 14300 64.35200000 3183589610 3183589610 3.33300000
43.48679352 -60.76411438 3.04425335 28 22 14301 74.78400000 3183589612 3183589612 2.33300000
20.35454178 -25.69025040 -1.52677917 6 23 14301 32.81200000 3183589612 3183589612 -2.66700000
19.95994568 -27.90032768 -1.79784477 14 24 14302 34.35200000 3183589615 3183589615 -3.00000000
38.26261902 -43.75323868 -2.36802387 25 27 14303 58.17200000 3183589617 3183589617 -2.33300000
38.96728134 -60.55818939 -2.51471806 25 28 14304 72.05600000 3183589619 3183589619 -2.00000000
38.46681976 -48.60271072 -1.44231474 27 31 14304 62.00000000 3183589622 3183589622 -1.33300000
3.60230827 -5.05398083 -2.89408994 17 0 14312 6.84800000 3183589642 3183589642 -25.00000000
38.69012833 -44.38259125 -1.02773726 52 1 14312 58.88800000 3183589642 3183589642 -1.00000000
38.25420761 -53.68986130 -1.91857886 28 2 14313 65.95200000 3183589645 3183589645 -1.66700000
6.44869423 -8.17425919 -2.91464877 6 3 14313 10.81200000 3183589645 3183589645 -15.63900000
8.44200897 -11.85275364 -2.91038060 1 4 14314 14.84000000 3183589647 3183589647 -11.31000000
38.38241577 -48.67038727 0.00000000 43 5 14314 61.98400000 3183589647 3183589647 0.00000000
38.13790894 -59.49722672 -0.82274520 29 6 14314 70.67600000 3183589649 3183589649 -0.66700000
10.91576767 -13.84161568 -2.74249768 2 7 14314 17.84000000 3183589649 3183589649 -8.84300000
12.81649876 -18.00127602 -2.81275105 2 8 14315 22.27600000 3183589652 3183589652 -7.25400000
38.60382462 -44.33042908 0.34164754 51 9 14315 58.78400000 3183589652 3183589652 0.33300000
38.25322342 -53.74800873 -0.38342357 56 10 14316 65.97200000 3183589654 3183589654 -0.33300000
15.05014896 -19.09787750 -2.61916542 2 11 14316 24.45600000 3183589654 3183589654 -6.14800000
16.27383804 -25.41736031 -2.81732059 4 12 14317 30.31200000 3183589656 3183589656 -5.33300000
41.00180054 -52.04789352 1.54178786 20 13 14317 66.27600000 3183589656 3183589656 1.33300000
39.91396713 -62.36375809 0.86199892 28 14 14318 74.04800000 3183589658 3183589658 0.66700000
19.93477249 -25.31438828 -2.25313401 12 15 14318 32.30000000 3183589658 3183589658 -4.00000000
18.74572563 -26.36804962 -2.64109087 5 16 14319 32.46000000 3183589661 3183589661 -4.66700000
40.46720886 -46.53579330 1.79476964 28 17 14319 61.69600000 3183589661 3183589661 1.66700000
43.50575638 -61.19592285 1.31060588 28 18 14319 75.09600000 3183589663 3183589663 1.00000000
20.05928230 -23.06743050 -1.95914733 14 19 14319 30.63200000 3183589663 3183589663 -3.66700000
19.92446518 -31.15501785 -2.15370178 24 20 14320 37.04400000 3183589665 3183589665 -3.33300000
41.49662781 -52.73280716 3.90787244 26 21 14320 67.21600000 3183589665 3183589665 3.33300000
43.22813034 -60.85037994 3.04099679 28 22 14321 74.70400000 3183589668 3183589668 2.33300000
20.31908989 -25.83023453 -1.53087401 6 23 14321 32.90000000 3183589668 3183589668 -2.66700000
19.95494652 -28.10010338 -1.80621850 14 24 14322 34.51200000 3183589670 3183589670 -3.00000000
38.36384583 -44.17925262 -2.38381839 26 27 14323 58.56000000 3183589672 3183589672 -2.33300000
