# .PCD v0.7 - Point Cloud Data file format
VERSION 0.7
FIELDS x y z intensity laser_id azimuth distance_m adjustedtime timestamp vertical_angle
SIZE 4 4 4 1 1 2 8 8 4 8
TYPE F F F U U U F U U F
COUNT 1 1 1 1 1 1 1 1 1 1
WIDTH 509
HEIGHT 1
VIEWPOINT 0 0 0 1 0 0 0
POINTS 509
DATA ascii
39.56454849 -24.78032112 1.35864425 19 17 12626 46.70400000 3177884828 3177884828 1.66700000
38.75012589 -29.90631294 0.85440004 26 18 12626 48.95600000 3177884830 3177884830 1.00000000
20.28464890 -12.70481110 -1.53395760 21 19 12626 23.98400000 3177884830 3177884830 -3.66700000
20.21072578 -17.24329758 -1.54719567 12 20 12627 26.61200000 3177884832 3177884832 -3.33300000
42.00485611 -29.27030754 2.98160148 30 21 12627 51.28400000 3177884832 3177884832 3.33300000
40.50063705 -31.27987289 2.08486414 38 22 12628 51.21600000 3177884835 3177884835 2.33300000
34.31911087 -23.92353630 -1.94872344 5 23 12628 41.88000000 3177884835 3177884835 -2.66700000
20.25241852 -15.64720249 -1.34126592 17 24 12629 25.62800000 3177884837 3177884837 -3.00000000
41.78950119 -32.29859543 4.31166601 50 26 12630 52.99200000 3177884839 3177884839 4.66700000
41.13261414 -25.80244064 -1.97821105 34 27 12630 48.59600000 3177884839 3177884839 -2.33300000
39.31965637 -33.59402847 -1.80597913 25 28 12631 51.74800000 3177884841 3177884841 -2.00000000
39.45678329 -27.53567123 -1.11960840 15 31 12631 48.12800000 3177884844 3177884844 -1.33300000
4.95624638 -3.84307337 -2.92451835 6 0 12639 6.92000000 3177884864 3177884864 -25.00000000
41.00477982 -25.81209564 -0.84574360 20 1 12639 48.46000000 3177884864 3177884864 -1.00000000
39.48471069 -30.62748146 -1.45429397 24 2 12640 49.99200000 3177884867 3177884867 -1.66700000
8.00816631 -5.60737848 -2.73672915 3 3 12640 10.15200000 3177884867 3177884867 -15.63900000
10.49261284 -8.14183903 -2.65621257 3 4 12641 13.54400000 3177884869 3177884869 -11.31000000
38.48888779 -26.96022224 0.00000000 41 5 12641 46.99200000 3177884869 3177884869 0.00000000
39.30652237 -33.70166779 -0.60277528 34 6 12641 51.78000000 3177884871 3177884871 -0.66700000
13.15300465 -9.21325493 -2.49837852 1 7 12641 16.25200000 3177884871 3177884871 -8.84300000
15.40593815 -11.95868683 -2.48243332 3 8 12642 19.66000000 3177884874 3177884874 -7.25400000
39.23376465 -24.72595024 0.26953331 19 9 12642 46.37600000 3177884874 3177884874 0.33300000
38.72964478 -30.07428551 -0.28499299 18 10 12643 49.03600000 3177884876 3177884876 -0.33300000
17.34773827 -12.16055870 -2.28202391 4 11 12643 21.30800000 3177884876 3177884876 -6.14800000
19.18749428 -16.46892166 -2.36040759 6 12 12644 25.39600000 3177884878 3177884878 -5.33300000
39.06351852 -27.39323235 1.11021006 17 13 12644 47.72400000 3177884878 3177884878 1.33300000
39.21925735 -33.67438126 0.60179746 57 14 12645 51.69600000 3177884881 3177884881 0.66700000
20.21389389 -14.18022537 -1.72661221 28 15 12645 24.75200000 3177884881 3177884881 -4.00000000
20.17913628 -15.68641663 -2.08651066 7 16 12646 25.64400000 3177884883 3177884883 -4.66700000
39.48118973 -24.92041016 1.35876071 19 17 12646 46.70800000 3177884883 3177884883 1.66700000
38.73075485 -30.10766602 0.85628486 27 18 12646 49.06400000 3177884885 3177884885 1.00000000
20.29081154 -12.80750084 -1.53779507 21 19 12646 24.04400000 3177884885 3177884885 -3.66700000
20.19887352 -17.35537910 -1.55091655 12 20 12647 26.67600000 3177884888 3177884888 -3.33300000
42.08218002 -29.54294586 2.99439216 31 21 12647 51.50400000 3177884888 3177884888 3.33300000
40.40066528 -31.42841721 2.08535266 38 22 12648 51.22800000 3177884890 3177884890 2.33300000
34.27790070 -24.07304001 -1.95114303 5 23 12648 41.93200000 3177884890 3177884890 -2.66700000
20.25441933 -15.76195908 -1.34503412 13 24 12649 25.70000000 3177884892 3177884892 -3.00000000
42.30882263 -32.93651962 4.37708330 18 26 12650 53.79600000 3177884894 3177884894 4.66700000
41.17066956 -26.02701759 -1.98439848 23 27 12650 48.74800000 3177884894 3177884894 -2.33300000
39.33547974 -33.84579849 -1.81212151 25 28 12651 51.92400000 3177884897 3177884897 -2.00000000
39.43409729 -27.73531532 -1.12184167 15 31 12652 48.22400000 3177884899 3177884899 -1.33300000
4.94347525 -3.85948777 -2.92451835 6 0 12658 6.92000000 3177884920 3177884920 -25.00000000
41.01015472 -26.00575829 -0.84762847 20 1 12658 48.56800000 3177884920 3177884920 -1.00000000
39.45855713 -30.81731415 -1.45708668 24 2 12659 50.08800000 3177884922 3177884922 -1.66700000
7.99267530 -5.63612318 -2.73780727 3 3 12659 10.15600000 3177884922 3177884922 -15.63900000
10.47482872 -8.18383312 -2.65856600 3 4 12660 13.55600000 3177884924 3177884924 -11.31000000
38.78823471 -27.36208916 0.00000000 17 5 12660 47.46800000 3177884924 3177884924 0.00000000
39.25510406 -33.88409805 -0.60370660 34 6 12660 51.86000000 3177884927 3177884927 -0.66700000
13.12884045 -9.26137829 -2.49960828 1 7 12660 16.26000000 3177884927 3177884927 -8.84300000
15.38495541 -12.02436924 -2.48546362 3 8 12661 19.68400000 3177884929 3177884929 -7.25400000
38.87127304 -24.67797661 0.26760375 28 9 12661 46.04400000 3177884929 3177884929 0.33300000
38.61709595 -30.19269753 -0.28490001 18 10 12662 49.02000000 3177884931 3177884931 -0.33300000
17.33655739 -12.23866177 -2.28587937 4 11 12662 21.34400000 3177884931 3177884931 -6.14800000
19.22619438 -16.61318016 -2.37193251 6 12 12663 25.52000000 3177884934 3177884934 -5.33300000
39.04106140 -27.57106400 1.11216426 25 13 12663 47.80800000 3177884934 3177884934 1.33300000
39.25262070 -33.92980194 0.60403252 38 14 12664 51.88800000 3177884936 3177884936 0.66700000
20.21564484 -14.28171539 -1.73079765 27 15 12664 24.81200000 3177884936 3177884936 -4.00000000
20.18351746 -15.79747677 -2.09236884 10 16 12665 25.71600000 3177884938 3177884938 -4.66700000
39.40507889 -25.05548668 1.35899341 28 17 12665 46.71600000 3177884938 3177884938 1.66700000
38.80706787 -30.37397766 0.86019421 27 18 12665 49.28800000 3177884941 3177884941 1.00000000
20.28191376 -12.89613533 -1.54035342 21 19 12665 24.08400000 3177884941 3177884941 -3.66700000
20.19255066 -17.46667671 -1.55487001 12 20 12666 26.74400000 3177884943 3177884943 -3.33300000
41.94811630 -29.65697670 2.99183393 31 21 12666 51.46000000 3177884943 3177884943 3.33300000
40.37803268 -31.62629509 2.08958602 39 22 12667 51.33200000 3177884945 3177884945 2.33300000
34.30553436 -24.26271629 -1.95728517 5 23 12667 42.06400000 3177884945 3177884945 -2.66700000
20.25234795 -15.86845684 -1.34838355 13 24 12668 25.76400000 3177884947 3177884947 -3.00000000
44.61260605 -31.56411171 6.71012592 19 25 12668 55.06000000 3177884947 3177884947 7.00000000
42.20250702 -33.07909775 4.37740850 36 26 12669 53.80000000 3177884950 3177884950 4.66700000
41.16841507 -26.21707153 -1.98846924 34 27 12669 48.84800000 3177884950 3177884950 -2.33300000
39.31971741 -34.05980682 -1.81658864 25 28 12670 52.05200000 3177884952 3177884952 -2.00000000
39.44959259 -27.94220734 -1.12491238 15 31 12671 48.35600000 3177884954 3177884954 -1.33300000
4.92997265 -3.87672019 -2.92451835 7 0 12678 6.92000000 3177884975 3177884975 -25.00000000
39.02853012 -24.94059372 -0.80846530 9 1 12678 46.32400000 3177884975 3177884975 -1.00000000
39.47644424 -31.05374527 -1.46174121 25 2 12679 50.24800000 3177884977 3177884977 -1.66700000
7.97295284 -5.66398859 -2.73780727 5 3 12679 10.15600000 3177884977 3177884977 -15.63900000
10.45852757 -8.23005009 -2.66170382 3 4 12680 13.57200000 3177884980 3177884980 -11.31000000
38.80334473 -27.57610130 0.00000000 17 5 12680 47.60400000 3177884980 3177884980 0.00000000
39.22110748 -34.09439087 -0.60501039 34 6 12680 51.97200000 3177884982 3177884982 -0.66700000
13.11254025 -9.31859779 -2.50268292 2 7 12680 16.28000000 3177884982 3177884982 -8.84300000
15.36159611 -12.09272575 -2.48849416 3 8 12681 19.70800000 3177884984 3177884984 -7.25400000
39.12182999 -25.02907562 0.26992851 28 9 12681 46.44400000 3177884984 3177884984 0.33300000
39.01113129 -30.72078705 -0.28859639 18 10 12682 49.65600000 3177884987 3177884987 -0.33300000
17.30993652 -12.31062794 -2.28802133 4 11 12682 21.36400000 3177884987 3177884987 -6.14800000
19.17109108 -16.68280602 -2.37230444 6 12 12683 25.52400000 3177884989 3177884989 -5.33300000
38.97390747 -27.72803879 1.11300170 26 13 12683 47.84400000 3177884989 3177884989 1.33300000
39.19729614 -34.12176132 0.60501039 57 14 12684 51.97200000 3177884991 3177884991 0.66700000
20.21118164 -14.38458633 -1.73470402 24 15 12684 24.86800000 3177884991 3177884991 -4.00000000
20.16582108 -15.89745140 -2.09627438 10 16 12685 25.76400000 3177884994 3177884994 -4.66700000
39.33757782 -25.20582771 1.35969162 28 17 12685 46.74000000 3177884994 3177884994 1.66700000
38.77304459 -30.56620407 0.86179984 27 18 12685 49.38000000 3177884996 3177884996 1.00000000
20.27038574 -12.98838997 -1.54291165 21 19 12685 24.12400000 3177884996 3177884996 -3.66700000
20.19770050 -17.59476089 -1.55998623 12 20 12686 26.83200000 3177884998 3177884998 -3.33300000
41.73700333 -29.72677231 2.98415971 20 21 12686 51.32800000 3177884998 3177884998 3.33300000
40.22973633 -31.73734283 2.08763218 39 22 12687 51.28400000 3177885000 3177885000 2.33300000
34.33127594 -24.46114922 -1.96361339 5 23 12687 42.20000000 3177885000 3177885000 -2.66700000
20.24700546 -15.97864819 -1.35173309 13 24 12688 25.82800000 3177885003 3177885003 -3.00000000
42.53737640 -33.58194351 4.42427444 38 26 12689 54.37600000 3177885005 3177885005 4.66700000
39.54283142 -25.37630272 -1.91421914 21 27 12689 47.02400000 3177885005 3177885005 -2.33300000
39.35422134 -34.33087540 -1.82370806 26 28 12690 52.25600000 3177885007 3177885007 -2.00000000
39.43645096 -28.14013290 -1.12733173 15 31 12691 48.46000000 3177885010 3177885010 -1.33300000
4.92141390 -3.89926624 -2.92789936 7 0 12699 6.92800000 3177885030 3177885030 -25.00000000
39.66979980 -25.55564308 -0.82368380 30 1 12699 47.19600000 3177885030 3177885030 -1.00000000
39.43756485 -31.25782967 -1.46453381 25 2 12700 50.34400000 3177885033 3177885033 -1.66700000
7.95840406 -5.69765759 -2.73996401 3 3 12700 10.16400000 3177885033 3177885033 -15.63900000
10.44058704 -8.27807426 -2.66484165 3 4 12701 13.58800000 3177885035 3177885035 -11.31000000
38.64997864 -27.68087196 0.00000000 34 5 12701 47.54000000 3177885035 3177885035 0.00000000
39.25535965 -34.37757492 -0.60747826 17 6 12701 52.18400000 3177885037 3177885037 -0.66700000
13.08472443 -9.37119770 -2.50391269 2 7 12701 16.28800000 3177885037 3177885037 -8.84300000
15.33271503 -12.16127682 -2.49101949 3 8 12702 19.72800000 3177885040 3177885040 -7.25400000
39.12395096 -25.23299980 0.27057946 19 9 12702 46.55600000 3177885040 3177885040 0.33300000
38.89826965 -30.86356544 -0.28859639 27 10 12703 49.65600000 3177885042 3177885042 -0.33300000
17.29055977 -12.39252377 -2.29144835 4 11 12703 21.39600000 3177885042 3177885042 -6.14800000
19.14275932 -16.78183937 -2.37639403 6 12 12704 25.56800000 3177885044 3177885044 -5.33300000
38.90776443 -27.89632988 1.11402524 26 13 12704 47.88800000 3177885044 3177885044 1.33300000
39.12910843 -34.31530380 0.60589510 19 14 12705 52.04800000 3177885046 3177885046 0.66700000
20.20696068 -14.49345207 -1.73888934 24 15 12705 24.92800000 3177885046 3177885046 -4.00000000
20.17297554 -16.02332878 -2.10310888 10 16 12706 25.84800000 3177885049 3177885049 -4.66700000
39.04005814 -25.21750259 1.35259342 57 17 12706 46.49600000 3177885049 3177885049 1.66700000
38.62004089 -30.67576981 0.86089230 27 18 12706 49.32800000 3177885051 3177885051 1.00000000
20.27294159 -13.09508610 -1.54674911 21 19 12706 24.18400000 3177885051 3177885051 -3.66700000
20.19010162 -17.71871567 -1.56440473 12 20 12707 26.90800000 3177885053 3177885053 -3.33300000
41.93595505 -30.10075569 3.00625253 21 21 12707 51.70800000 3177885053 3177885053 3.33300000
40.10062790 -31.87462997 2.08698082 38 22 12708 51.26800000 3177885056 3177885056 2.33300000
34.28033829 -24.61478043 -1.96584690 5 23 12708 42.24800000 3177885056 3177885056 -2.66700000
20.24458313 -16.09749985 -1.35550129 13 24 12709 25.90000000 3177885058 3177885058 -3.00000000
42.52320862 -33.82448578 4.43566561 57 26 12710 54.51600000 3177885060 3177885060 4.66700000
39.23479462 -25.38212585 -1.90379810 21 27 12710 46.76800000 3177885060 3177885060 -2.33300000
39.33622742 -34.56988525 -1.82873368 26 28 12711 52.40000000 3177885063 3177885063 -2.00000000
39.43044662 -28.35452652 -1.13012338 16 31 12712 48.58000000 3177885065 3177885065 -1.33300000
3.92168450 -3.12951922 -2.33961463 3 0 12719 5.53600000 3177885086 3177885086 -25.00000000
39.50990677 -25.64823151 -0.82221776 19 1 12719 47.11200000 3177885086 3177885086 -1.00000000
39.43445587 -31.48011398 -1.46849012 26 2 12720 50.48000000 3177885088 3177885088 -1.66700000
7.94471502 -5.72990942 -2.74212050 3 3 12720 10.17200000 3177885088 3177885088 -15.63900000
10.42082214 -8.32181072 -2.66719508 3 4 12721 13.60000000 3177885090 3177885090 -11.31000000
38.77370071 -27.97476387 0.00000000 17 5 12721 47.81200000 3177885090 3177885090 0.00000000
39.29710770 -34.65725327 -0.60999274 35 6 12721 52.40000000 3177885093 3177885093 -0.66700000
13.07116508 -9.43068981 -2.50760221 2 7 12721 16.31200000 3177885093 3177885093 -8.84300000
15.31187248 -12.23206043 -2.49455500 3 8 12722 19.75600000 3177885095 3177885095 -7.25400000
38.93501663 -25.30402374 0.26988202 28 9 12722 46.43600000 3177885095 3177885095 0.33300000
38.82467270 -31.02662468 -0.28885210 27 10 12723 49.70000000 3177885097 3177885097 -0.33300000
17.27621460 -12.47375584 -2.29530406 4 11 12723 21.43200000 3177885097 3177885097 -6.14800000
19.10496330 -16.86701012 -2.37899637 6 12 12724 25.59600000 3177885099 3177885099 -5.33300000
38.93982315 -28.12563133 1.11774731 26 13 12724 48.04800000 3177885099 3177885099 1.33300000
39.13199997 -34.56023788 0.60780424 39 14 12725 52.21200000 3177885102 3177885102 0.66700000
20.21122932 -14.60362816 -1.74363279 24 15 12725 24.99600000 3177885102 3177885102 -4.00000000
20.17607117 -16.14096832 -2.10929251 10 16 12726 25.92400000 3177885104 3177885104 -4.66700000
39.11264038 -25.45831871 1.35817885 19 17 12726 46.68800000 3177885104 3177885104 1.66700000
38.76256561 -31.01026535 0.86647707 27 18 12726 49.64800000 3177885106 3177885106 1.00000000
20.27394485 -13.19625854 -1.55033076 21 19 12726 24.24000000 3177885106 3177885106 -3.66700000
20.18498039 -17.83932877 -1.56882334 12 20 12727 26.98400000 3177885109 3177885109 -3.33300000
41.97300720 -30.34990883 3.01648498 32 21 12727 51.88400000 3177885109 3177885109 3.33300000
39.97663879 -32.00442123 2.08632946 25 22 12728 51.25200000 3177885111 3177885111 2.33300000
34.32694244 -24.83030701 -1.97347796 5 23 12728 42.41200000 3177885111 3177885111 -2.66700000
20.25062561 -16.21800804 -1.35968816 13 24 12729 25.98000000 3177885113 3177885113 -3.00000000
44.70825195 -32.35148621 6.77593565 20 25 12729 55.60000000 3177885113 3177885113 7.00000000
42.32398224 -33.90790558 4.42720366 38 26 12730 54.41200000 3177885116 3177885116 4.66700000
38.99194336 -25.41852760 -1.89630795 31 27 12730 46.58400000 3177885116 3177885116 -2.33300000
39.43384552 -34.90039062 -1.83892429 27 28 12731 52.69200000 3177885118 3177885118 -2.00000000
39.43984604 -28.56017876 -1.13310099 16 31 12731 48.70800000 3177885120 3177885120 -1.33300000
3.92203927 -3.15227365 -2.34637666 4 0 12739 5.55200000 3177885141 3177885141 -25.00000000
39.49042130 -25.83196640 -0.82368380 20 1 12739 47.19600000 3177885141 3177885141 -1.00000000
39.56738281 -31.81299210 -1.47756636 27 2 12740 50.79200000 3177885143 3177885143 -1.66700000
7.92778206 -5.75987053 -2.74319887 3 3 12740 10.17600000 3177885143 3177885143 -15.63900000
10.39782238 -8.36305237 -2.66876411 3 4 12741 13.60800000 3177885146 3177885146 -11.31000000
38.80200577 -28.20165634 0.00000000 17 5 12741 47.96800000 3177885146 3177885146 0.00000000
39.18775940 -34.81698990 -0.61027217 35 6 12742 52.42400000 3177885148 3177885148 -0.66700000
13.04929924 -9.48783207 -2.51006174 2 7 12742 16.32800000 3177885148 3177885148 -8.84300000
15.30308819 -12.31279564 -2.50011086 3 8 12742 19.80000000 3177885150 3177885150 -7.25400000
38.96691895 -25.51866722 0.27071893 29 9 12742 46.58000000 3177885150 3177885150 0.33300000
38.66004562 -31.11681557 -0.28843364 18 10 12743 49.62800000 3177885152 3177885152 -0.33300000
17.24864960 -12.54568195 -2.29744577 4 11 12743 21.45200000 3177885152 3177885152 -6.14800000
19.12335587 -17.00239944 -2.38866258 6 12 12744 25.70000000 3177885155 3177885155 -5.33300000
38.88991165 -28.29667854 1.11914313 26 13 12744 48.10800000 3177885155 3177885155 1.33300000
38.99319077 -34.68067551 0.60752487 39 14 12745 52.18800000 3177885157 3177885157 0.66700000
20.19561768 -14.69991970 -1.74670208 27 15 12745 25.04000000 3177885157 3177885157 -4.00000000
20.17548370 -16.25632095 -2.11515093 11 16 12746 25.99600000 3177885159 3177885159 -4.66700000
39.03691101 -25.60346222 1.35864425 19 17 12746 46.70400000 3177885159 3177885159 1.66700000
38.76385880 -31.24499321 0.86906004 27 18 12747 49.79600000 3177885162 3177885162 1.00000000
20.26215553 -13.29456615 -1.55314493 21 19 12747 24.28400000 3177885162 3177885162 -3.66700000
20.19119263 -17.97074127 -1.57417214 12 20 12747 27.07600000 3177885164 3177885164 -3.33300000
42.06047440 -30.63730431 3.03043842 21 21 12747 52.12400000 3177885164 3177885164 3.33300000
40.49315643 -32.65052795 2.11922097 28 22 12748 52.06000000 3177885166 3177885166 2.33300000
34.29172897 -24.98762894 -1.97645605 5 23 12748 42.47600000 3177885166 3177885166 -2.66700000
20.23741913 -16.32370758 -1.36261892 13 24 12749 26.03600000 3177885169 3177885169 -3.00000000
43.21062469 -34.86657715 4.53265190 21 26 12750 55.70800000 3177885171 3177885171 4.66700000
38.81946564 -25.49962234 -1.89223719 21 27 12750 46.48400000 3177885171 3177885171 -2.33300000
39.42816544 -35.14155960 -1.84436858 41 28 12751 52.84800000 3177885173 3177885173 -2.00000000
39.41098785 -28.74952316 -1.13514817 16 31 12751 48.79600000 3177885176 3177885176 -1.33300000
3.92847323 -3.17894483 -2.35651946 5 0 12758 5.57600000 3177885196 3177885196 -25.00000000
39.55148697 -26.05959702 -0.82675540 20 1 12758 47.37200000 3177885196 3177885196 -1.00000000
39.62015915 -32.07232666 -1.48350084 27 2 12759 50.99600000 3177885199 3177885199 -1.66700000
7.91174650 -5.78840303 -2.74427724 3 3 12759 10.18000000 3177885199 3177885199 -15.63900000
10.37612915 -8.40242386 -2.67033315 3 4 12760 13.61600000 3177885201 3177885201 -11.31000000
38.88580322 -28.46010590 0.00000000 17 5 12760 48.18800000 3177885201 3177885201 0.00000000
39.11978531 -34.98941422 -0.61101717 36 6 12761 52.48800000 3177885203 3177885203 -0.66700000
13.02414322 -9.53572273 -2.51129174 2 7 12761 16.33600000 3177885203 3177885203 -8.84300000
15.27450657 -12.37346554 -2.50213122 3 8 12761 19.81600000 3177885205 3177885205 -7.25400000
38.91547012 -25.66977119 0.27095142 19 9 12761 46.62000000 3177885205 3177885205 0.33300000
39.01036072 -31.61252022 -0.29182780 19 10 12762 50.21200000 3177885208 3177885208 -0.33300000
17.23262024 -12.62161064 -2.30087304 4 11 12762 21.48400000 3177885208 3177885208 -6.14800000
19.08467484 -17.08165741 -2.39089322 6 12 12763 25.72400000 3177885210 3177885210 -5.33300000
38.89263535 -28.49638939 1.12193477 26 13 12763 48.22800000 3177885210 3177885210 1.33300000
38.79453659 -34.73508453 0.60622102 38 14 12764 52.07600000 3177885212 3177885212 0.66700000
20.20469093 -14.80927086 -1.75172460 27 15 12764 25.11200000 3177885212 3177885212 -4.00000000
20.16790771 -16.36081123 -2.12003279 11 16 12765 26.05600000 3177885215 3177885215 -4.66700000
38.84503937 -25.66224861 1.35492074 28 17 12765 46.57600000 3177885215 3177885215 1.66700000
38.99163055 -31.63117790 0.87639004 43 18 12765 50.21600000 3177885217 3177885217 1.00000000
20.26358604 -13.38675976 -1.55647063 21 19 12765 24.33600000 3177885217 3177885217 -3.66700000
20.18204689 -18.08289909 -1.57812560 12 20 12766 27.14400000 3177885219 3177885219 -3.33300000
41.28568268 -30.28299713 2.98183417 20 21 12766 51.28800000 3177885219 3177885219 3.33300000
34.31820679 -25.18157578 -1.98278427 5 23 12767 42.61200000 3177885222 3177885222 -2.66700000
20.24519348 -16.44109154 -1.36680579 13 24 12768 26.11600000 3177885224 3177885224 -3.00000000
45.24223328 -36.75425339 4.75851965 25 26 12769 58.48400000 3177885226 3177885226 4.66700000
38.70136261 -25.60615921 -1.89060891 21 27 12769 46.44400000 3177885226 3177885226 -2.33300000
39.35604477 -35.31216049 -1.84646261 27 28 12770 52.90800000 3177885229 3177885229 -2.00000000
39.43467712 -28.96765137 -1.13859117 16 31 12770 48.94400000 3177885231 3177885231 -1.33300000
3.97074556 -3.23615360 -2.38863850 5 0 12778 5.65200000 3177885251 3177885251 -25.00000000
39.42362976 -26.17316628 -0.82598752 20 1 12778 47.32800000 3177885251 3177885251 -1.00000000
39.62262726 -32.30391312 -1.48780632 28 2 12779 51.14400000 3177885253 3177885253 -1.66700000
7.90389633 -5.82512569 -2.74859047 3 3 12779 10.19600000 3177885253 3177885253 -15.63900000
10.39536953 -8.47825623 -2.68288445 3 4 12780 13.68000000 3177885256 3177885256 -11.31000000
38.86349106 -28.65263748 0.00000000 26 5 12780 48.28400000 3177885256 3177885256 0.00000000
39.25025177 -35.34108353 -0.61488199 37 6 12780 52.82000000 3177885258 3177885258 -0.66700000
13.00199318 -9.58589649 -2.51313639 2 7 12780 16.34800000 3177885258 3177885258 -8.84300000
15.24351978 -12.43674183 -2.50415134 3 8 12781 19.83200000 3177885260 3177885260 -7.25400000
38.92889786 -25.87409210 0.27167210 19 9 12781 46.74400000 3177885260 3177885260 0.33300000
39.24684525 -32.03176498 -0.29443154 31 10 12782 50.66000000 3177885263 3177885263 -0.33300000
17.21085930 -12.69821453 -2.30387163 4 11 12782 21.51200000 3177885263 3177885263 -6.14800000
19.04859734 -17.16950417 -2.39386749 6 12 12783 25.75600000 3177885265 3177885265 -5.33300000
38.86692810 -28.68659592 1.12407494 26 13 12783 48.32000000 3177885265 3177885265 1.33300000
38.93148804 -35.10331345 0.61027217 59 14 12784 52.42400000 3177885267 3177885267 0.66700000
20.20102501 -14.91525936 -1.75590992 22 15 12784 25.17200000 3177885267 3177885267 -4.00000000
20.16624641 -16.47651291 -2.12589097 11 16 12785 26.12800000 3177885269 3177885269 -4.66700000
39.01816177 -25.97271347 1.36411333 19 17 12785 46.89200000 3177885269 3177885269 1.66700000
39.21546555 -32.04037857 0.88392949 30 18 12785 50.64800000 3177885272 3177885272 1.00000000
20.25993347 -13.48616695 -1.55979645 21 19 12785 24.38800000 3177885272 3177885272 -3.66700000
20.19292259 -18.22011375 -1.58393943 12 20 12786 27.24400000 3177885274 3177885274 -3.33300000
40.17405701 -32.84697342 2.11417341 28 22 12787 51.93600000 3177885276 3177885276 2.33300000
34.29114914 -25.34634018 -1.98632061 5 23 12787 42.68800000 3177885276 3177885276 -2.66700000
20.24024391 -16.55465126 -1.37036467 13 24 12788 26.18400000 3177885279 3177885279 -3.00000000
45.02417755 -36.83874130 4.74908161 51 26 12789 58.36800000 3177885281 3177885281 4.66700000
38.61839294 -25.74553108 -1.89093459 21 27 12789 46.45200000 3177885281 3177885281 -2.33300000
39.42237473 -35.62084961 -1.85539687 28 28 12790 53.16400000 3177885283 3177885283 -2.00000000
39.42975998 -29.17648697 -1.14138269 16 31 12790 49.06400000 3177885286 3177885286 -1.33300000
3.99808216 -3.28289318 -2.41230512 6 0 12799 5.70800000 3177885306 3177885306 -25.00000000
39.57339859 -26.48208046 -0.83115339 30 1 12799 47.62400000 3177885306 3177885306 -1.00000000
39.62136459 -32.54535675 -1.49222803 42 2 12800 51.29600000 3177885309 3177885309 -1.66700000
7.88867760 -5.85864925 -2.75074697 3 3 12800 10.20400000 3177885309 3177885309 -15.63900000
10.37937737 -8.52875137 -2.68680692 3 4 12801 13.70000000 3177885311 3177885311 -11.31000000
38.73573685 -28.77818871 0.00000000 26 5 12801 48.25600000 3177885311 3177885311 0.00000000
39.27154541 -35.62175369 -0.61725682 37 6 12801 53.02400000 3177885313 3177885313 -0.66700000
12.98580837 -9.64762974 -2.51682591 1 7 12801 16.37200000 3177885313 3177885313 -8.84300000
15.22848797 -12.51772594 -2.50920224 3 8 12802 19.87200000 3177885316 3177885316 -7.25400000
38.77730942 -25.97875214 0.27127689 29 9 12802 46.67600000 3177885316 3177885316 0.33300000
39.14462662 -32.18809891 -0.29454780 31 10 12803 50.68000000 3177885318 3177885318 -0.33300000
17.18654251 -12.77782059 -2.30687046 4 11 12803 21.54000000 3177885318 3177885318 -6.14800000
19.00617981 -17.25794601 -2.39646983 6 12 12804 25.78400000 3177885320 3177885320 -5.33300000
38.80002975 -28.85749435 1.12519157 17 13 12804 48.36800000 3177885320 3177885320 1.33300000
38.94763947 -35.37754440 0.61255378 40 14 12805 52.62000000 3177885322 3177885322 0.66700000
20.19104004 -15.02254677 -1.75981629 27 15 12805 25.22800000 3177885322 3177885322 -4.00000000
20.16420364 -16.59845734 -2.13207459 18 16 12806 26.20400000 3177885325 3177885325 -4.66700000
39.04555130 -26.19797325 1.36841869 28 17 12806 47.04000000 3177885325 3177885325 1.66700000
39.24906921 -32.30844116 0.88735014 45 18 12806 50.84400000 3177885327 3177885327 1.00000000
20.25677490 -13.59146976 -1.56337810 21 19 12806 24.44400000 3177885327 3177885327 -3.66700000
20.17033005 -18.33429146 -1.58742785 12 20 12807 27.30400000 3177885329 3177885329 -3.33300000
40.23540115 -33.14392471 2.12378025 29 22 12808 52.17200000 3177885332 3177885332 2.33300000
34.31338120 -25.55777740 -1.99302113 5 23 12808 42.83200000 3177885332 3177885332 -2.66700000
20.22258949 -16.66428947 -1.37329555 13 24 12809 26.24000000 3177885334 3177885334 -3.00000000
43.89244843 -32.70450974 6.72085047 19 25 12809 55.14800000 3177885334 3177885334 7.00000000
43.62143326 -35.95873642 4.61499310 45 26 12810 56.72000000 3177885336 3177885336 4.66700000
38.62329102 -25.95377541 -1.89581943 21 27 12810 46.57200000 3177885336 3177885336 -2.33300000
39.41275787 -35.87542725 -1.86112034 28 28 12811 53.32800000 3177885339 3177885339 -2.00000000
39.41231918 -29.38773918 -1.14398813 16 31 12811 49.17600000 3177885341 3177885341 -1.33300000
3.98717356 -3.29613328 -2.41230512 7 0 12818 5.70800000 3177885362 3177885362 -25.00000000
39.65118408 -26.72492981 -0.83464390 20 1 12818 47.82400000 3177885362 3177885362 -1.00000000
39.51630402 -32.67911530 -1.49234438 28 2 12819 51.30000000 3177885364 3177885364 -1.66700000
7.87846088 -5.89169741 -2.75398183 3 3 12819 10.21600000 3177885364 3177885364 -15.63900000
10.36312675 -8.57312393 -2.68994474 3 4 12820 13.71600000 3177885366 3177885366 -11.31000000
38.62407684 -28.89450264 0.00000000 17 5 12820 48.23600000 3177885366 3177885366 0.00000000
39.26544189 -35.85427475 -0.61902624 38 6 12820 53.17600000 3177885369 3177885369 -0.66700000
12.96640396 -9.70010948 -2.51928544 1 7 12820 16.38800000 3177885369 3177885369 -8.84300000
15.19912148 -12.57827568 -2.51122236 3 8 12821 19.88800000 3177885371 3177885371 -7.25400000
38.70089722 -26.11391258 0.27134663 29 9 12821 46.68800000 3177885371 3177885371 0.33300000
39.00069809 -32.28712082 -0.29426882 21 10 12822 50.63200000 3177885373 3177885373 -0.33300000
17.16317749 -12.84904385 -2.30944085 4 11 12822 21.56400000 3177885373 3177885373 -6.14800000
18.98118210 -17.35043526 -2.40055943 6 12 12823 25.82800000 3177885375 3177885375 -5.33300000
38.88656616 -29.12263870 1.13049555 27 13 12823 48.59600000 3177885375 3177885375 1.33300000
38.88914490 -35.56048584 0.61348510 40 14 12824 52.70000000 3177885378 3177885378 0.66700000
20.19859505 -15.13248444 -1.76483881 24 15 12824 25.30000000 3177885378 3177885378 -4.00000000
20.15816307 -16.70593452 -2.13728189 11 16 12825 26.26800000 3177885380 3177885380 -4.66700000
39.16054153 -26.46387100 1.37551677 19 17 12825 47.28400000 3177885380 3177885380 1.66700000
39.19147491 -32.49119568 0.88860673 30 18 12826 50.91600000 3177885382 3177885382 1.00000000
20.25219917 -13.69116020 -1.56670392 21 19 12826 24.49600000 3177885382 3177885382 -3.66700000
20.17717934 -18.46307945 -1.59277666 12 20 12826 27.39600000 3177885385 3177885385 -3.33300000
41.70115280 -31.26461029 3.03532195 22 21 12826 52.20800000 3177885385 3177885385 3.33300000
41.66038513 -34.55028534 2.20503187 36 22 12827 54.16800000 3177885387 3177885387 2.33300000
34.27638626 -25.70738602 -1.99581301 5 23 12827 42.89200000 3177885387 3177885387 -2.66700000
20.23792648 -16.78991890 -1.37811041 13 24 12828 26.33200000 3177885389 3177885389 -3.00000000
40.90042496 -33.94412994 4.33900452 17 26 12829 53.32800000 3177885392 3177885392 4.66700000
38.61975861 -26.13771439 -1.89989018 21 27 12829 46.67200000 3177885392 3177885392 -2.33300000
39.35841370 -36.06534195 -1.86419153 28 28 12830 53.41600000 3177885394 3177885394 -2.00000000
39.41378403 -29.59270668 -1.14687276 16 31 12830 49.30000000 3177885396 3177885396 -1.33300000
3.98678780 -3.31930923 -2.41906691 8 0 12838 5.72400000 3177885417 3177885417 -25.00000000
39.46501541 -26.80026245 -0.83268923 20 1 12838 47.71200000 3177885417 3177885417 -1.00000000
39.51873779 -32.91408920 -1.49676621 29 2 12839 51.45200000 3177885419 3177885419 -1.66700000
7.85784674 -5.91916227 -2.75398183 3 3 12839 10.21600000 3177885419 3177885419 -15.63900000
10.33313751 -8.60924625 -2.68994474 4 4 12840 13.71600000 3177885421 3177885421 -11.31000000
38.89993668 -29.31320572 0.00000000 26 5 12840 48.70800000 3177885421 3177885421 0.00000000
39.03073502 -35.90317535 -0.61739647 37 6 12841 53.03600000 3177885424 3177885424 -0.66700000
12.94338894 -9.75708485 -2.52174520 1 7 12841 16.40400000 3177885424 3177885424 -8.84300000
15.18255520 -12.65411854 -2.51576805 3 8 12841 19.92400000 3177885426 3177885426 -7.25400000
38.79474640 -26.37478065 0.27264848 19 9 12841 46.91200000 3177885426 3177885426 0.33300000
38.93691254 -32.46404648 -0.29464078 21 10 12842 50.69600000 3177885428 3177885428 -0.33300000
17.15315056 -12.93521595 -2.31415296 4 11 12842 21.60800000 3177885428 3177885428 -6.14800000
18.98789787 -17.47862434 -2.40911031 6 12 12843 25.92000000 3177885431 3177885431 -5.33300000
38.99217987 -29.41473770 1.13654399 27 13 12843 48.85600000 3177885431 3177885431 1.33300000
39.01192856 -35.92360687 0.61739647 41 14 12844 53.03600000 3177885433 3177885433 0.66700000
20.19342613 -15.23895264 -1.76902413 25 15 12844 25.36000000 3177885433 3177885433 -4.00000000
20.16094017 -16.82729149 -2.14379120 11 16 12845 26.34800000 3177885435 3177885435 -4.66700000
39.13072205 -26.64315987 1.37772775 29 17 12845 47.36000000 3177885435 3177885435 1.66700000
39.08658600 -32.62354279 0.88867652 46 18 12845 50.92000000 3177885438 3177885438 1.00000000
20.25288200 -13.78969574 -1.57028556 22 19 12845 24.55200000 3177885438 3177885438 -3.66700000
20.17133904 -18.58751869 -1.59742773 12 20 12846 27.47600000 3177885440 3177885440 -3.33300000
41.51528549 -31.35222816 3.02974057 21 21 12846 52.11200000 3177885440 3177885440 3.33300000
40.53953934 -33.86026382 2.15194964 47 22 12847 52.86400000 3177885442 3177885442 2.33300000
34.26933289 -25.88949776 -2.00065207 5 23 12847 42.99600000 3177885442 3177885442 -2.66700000
20.23437119 -16.90656281 -1.38187861 13 24 12848 26.40400000 3177885445 3177885445 -3.00000000
44.43711090 -37.14201736 4.72792673 25 26 12849 58.10800000 3177885447 3177885447 4.66700000
38.61744308 -26.33315849 -1.90428662 21 27 12849 46.78000000 3177885447 3177885447 -2.33300000
39.45262527 -36.40583420 -1.87466133 29 28 12850 53.71600000 3177885449 3177885449 -2.00000000
39.39116287 -29.80211067 -1.14938521 16 31 12851 49.40800000 3177885451 3177885451 -1.33300000
3.98131514 -3.33716941 -2.42244792 8 0 12857 5.73200000 3177885472 3177885472 -25.00000000
39.64331818 -27.11386871 -0.83834380 20 1 12857 48.03600000 3177885472 3177885472 -1.00000000
39.48596954 -33.10918045 -1.49967515 29 2 12858 51.55200000 3177885474 3177885474 -1.66700000
7.84431314 -5.94984293 -2.75613856 4 3 12858 10.22400000 3177885474 3177885474 -15.63900000
10.28349590 -8.62581921 -2.68445349 3 4 12859 13.68800000 3177885477 3177885477 -11.31000000
38.57946014 -29.27279282 0.00000000 26 5 12859 48.42800000 3177885477 3177885477 0.00000000
38.76765823 -35.89924622 -0.61511481 37 6 12860 52.84000000 3177885479 3177885479 -0.66700000
12.92985153 -9.81429100 -2.52543449 1 7 12860 16.42800000 3177885479 3177885479 -8.84300000
15.15874672 -12.71969891 -2.51879859 3 8 12860 19.94800000 3177885481 3177885481 -7.25400000
38.81598282 -26.57785797 0.27341565 19 9 12860 47.04400000 3177885481 3177885481 0.33300000
38.90869904 -32.65985107 -0.29524523 21 10 12861 50.80000000 3177885484 3177885484 -0.33300000
17.13549995 -13.01126671 -2.31758022 4 11 12861 21.64000000 3177885484 3177885484 -6.14800000
18.94443893 -17.55502892 -2.41096902 6 12 12862 25.94000000 3177885486 3177885486 -5.33300000
38.95492935 -29.58983803 1.13831198 27 13 12862 48.93200000 3177885486 3177885486 1.33300000
39.01285172 -36.16426086 0.61930561 62 14 12863 53.20000000 3177885488 3177885488 0.66700000
20.18725967 -15.33963108 -1.77293050 25 15 12863 25.41600000 3177885488 3177885488 -4.00000000
20.15996933 -16.94021988 -2.14964938 11 16 12864 26.42000000 3177885491 3177885491 -4.66700000
39.13118744 -26.83382988 1.38086951 29 17 12864 47.46800000 3177885491 3177885491 1.66700000
38.94144440 -32.72210693 0.88783884 30 18 12864 50.87200000 3177885493 3177885493 1.00000000
20.26300812 -13.89515972 -1.57463467 22 19 12864 24.62000000 3177885493 3177885493 -3.66700000
20.16814232 -18.70862198 -1.60207891 12 20 12865 27.55600000 3177885495 3177885495 -3.33300000
41.71305847 -31.71934700 3.05183339 22 21 12865 52.49200000 3177885495 3177885495 3.33300000
34.35502243 -26.13362885 -2.01070285 5 23 12866 43.21200000 3177885498 3177885498 -2.66700000
20.22710419 -17.01471138 -1.38522804 13 24 12867 26.46800000 3177885500 3177885500 -3.00000000
43.81821442 -33.34429169 6.76082373 20 25 12867 55.47600000 3177885500 3177885500 7.00000000
41.42798615 -34.86089706 4.42004347 57 26 12868 54.32400000 3177885502 3177885502 4.66700000
38.59579849 -26.50632477 -1.90754318 21 27 12868 46.86000000 3177885502 3177885502 -2.33300000
39.49862671 -36.69154358 -1.88261843 29 28 12869 53.94400000 3177885504 3177885504 -2.00000000
39.40550995 -30.00808716 -1.15254903 16 31 12869 49.54400000 3177885507 3177885507 -1.33300000
3.97459674 -3.35641718 -2.42582893 9 0 12878 5.74000000 3177885527 3177885527 -25.00000000
39.22426987 -27.03880692 -0.83157223 20 1 12878 47.64800000 3177885527 3177885527 -1.00000000
39.44071198 -33.31818771 -1.50258422 29 2 12879 51.65200000 3177885530 3177885530 -1.66700000
7.82857370 -5.98323202 -2.75829506 3 3 12879 10.23200000 3177885530 3177885530 -15.63900000
10.26379490 -8.67357922 -2.68759131 4 4 12880 13.70400000 3177885532 3177885532 -11.31000000
38.81192017 -29.67395401 0.00000000 27 5 12880 48.85600000 3177885532 3177885532 0.00000000
39.04871750 -36.41351700 -0.62158728 38 6 12880 53.39600000 3177885534 3177885534 -0.66700000
12.90179348 -9.86416626 -2.52666426 1 7 12880 16.43600000 3177885534 3177885534 -8.84300000
15.13020706 -12.79054356 -2.52182889 3 8 12881 19.97200000 3177885537 3177885537 -7.25400000
38.69855881 -26.70631599 0.27327618 29 9 12881 47.02000000 3177885537 3177885537 0.33300000
39.15829849 -33.11476517 -0.29805818 23 10 12882 51.28400000 3177885539 3177885539 -0.33300000
17.12244034 -13.10056686 -2.32229233 4 11 12882 21.68400000 3177885539 3177885539 -6.14800000
18.90325928 -17.64608765 -2.41394329 6 12 12883 25.97200000 3177885541 3177885541 -5.33300000
38.93830490 -29.80290031 1.14101052 27 13 12883 49.04800000 3177885541 3177885541 1.33300000
38.98235703 -36.40254974 0.62093538 62 14 12884 53.34000000 3177885544 3177885544 0.66700000
20.18159485 -15.45233059 -1.77739501 25 15 12884 25.48000000 3177885544 3177885544 -4.00000000
20.14947128 -17.05778694 -2.15518212 11 16 12885 26.48800000 3177885546 3177885546 -4.66700000
39.18058777 -27.07937050 1.38610578 19 17 12885 47.64800000 3177885546 3177885546 1.66700000
38.76935577 -32.82068253 0.88665205 30 18 12885 50.80400000 3177885548 3177885548 1.00000000
20.25463295 -13.99883842 -1.57796037 22 19 12885 24.67200000 3177885548 3177885548 -3.66700000
20.16945839 -18.84785080 -1.60766017 12 20 12886 27.65200000 3177885551 3177885551 -3.33300000
40.82944489 -31.28427124 2.99555492 21 21 12886 51.52400000 3177885551 3177885551 3.33300000
34.31291580 -26.30069351 -2.01386714 5 23 12887 43.28000000 3177885553 3177885553 -2.66700000
20.22860146 -17.14296722 -1.38962436 13 24 12888 26.55200000 3177885555 3177885555 -3.00000000
38.60683441 -26.72267151 -1.91291654 21 27 12889 46.99200000 3177885557 3177885557 -2.33300000
39.48939133 -36.95351791 -1.88862121 30 28 12890 54.11600000 3177885560 3177885560 -2.00000000
39.39785004 -30.24196053 -1.15571284 16 31 12891 49.68000000 3177885562 3177885562 -1.33300000
3.96561790 -3.37261915 -2.42751932 9 0 12898 5.74400000 3177885583 3177885583 -25.00000000
39.21833801 -27.23715782 -0.83345711 20 1 12898 47.75600000 3177885583 3177885583 -1.00000000
39.43989182 -33.55411148 -1.50700605 30 2 12899 51.80400000 3177885585 3177885585 -1.66700000
7.81679726 -6.01757145 -2.76152992 2 3 12899 10.24400000 3177885585 3177885585 -15.63900000
10.24839115 -8.72206497 -2.69151378 4 4 12900 13.72400000 3177885587 3177885587 -11.31000000
38.65422821 -29.76776314 0.00000000 27 5 12900 48.78800000 3177885587 3177885587 0.00000000
38.77850342 -36.41543961 -0.61930561 38 6 12900 53.20000000 3177885590 3177885590 -0.66700000
12.87667751 -9.91637611 -2.52850914 1 7 12900 16.44800000 3177885590 3177885590 -8.84300000
15.10963821 -12.86385822 -2.52586961 3 8 12901 20.00400000 3177885592 3177885592 -7.25400000
38.66421509 -26.88233757 0.27369463 29 9 12901 47.09200000 3177885592 3177885592 0.33300000
39.12468719 -33.32127380 -0.29868588 23 10 12902 51.39200000 3177885594 3177885594 -0.33300000
17.14905739 -13.21609116 -2.33214521 4 11 12902 21.77600000 3177885594 3177885594 -6.14800000
18.93440628 -17.79925728 -2.42584014 6 12 12903 26.10000000 3177885597 3177885597 -5.33300000
38.83720398 -29.94108009 1.14110351 18 13 12903 49.05200000 3177885597 3177885597 1.33300000
38.99491501 -36.66992569 0.62317044 63 14 12904 53.53200000 3177885599 3177885599 0.66700000
20.18756676 -15.56898403 -1.78269649 25 15 12904 25.55600000 3177885599 3177885599 -4.00000000
20.15351677 -17.18233490 -2.16201687 19 16 12905 26.57200000 3177885601 3177885601 -4.66700000
39.16785431 -27.27308846 1.38901484 29 17 12905 47.74800000 3177885601 3177885601 1.66700000
38.61499023 -32.92208099 0.88574451 30 18 12905 50.75200000 3177885604 3177885604 1.00000000
20.24822998 -14.09910870 -1.58128619 22 19 12905 24.72400000 3177885604 3177885604 -3.66700000
20.15879822 -18.97013664 -1.61207879 12 20 12906 27.72800000 3177885606 3177885606 -3.33300000
39.52599716 -33.72261429 2.11677861 42 22 12907 52.00000000 3177885608 3177885608 2.33300000
34.31262207 -26.49111938 -2.01926470 5 23 12907 43.39600000 3177885608 3177885608 -2.66700000
20.22029114 -17.25755692 -1.39318311 13 24 12908 26.62000000 3177885610 3177885610 -3.00000000
40.99858093 -35.00372314 4.40084171 37 26 12909 54.08800000 3177885613 3177885613 4.66700000
38.64772797 -26.95100212 -1.91959250 21 27 12909 47.15600000 3177885613 3177885613 -2.33300000
39.49398804 -37.21725082 -1.89504266 30 28 12910 54.30000000 3177885615 3177885615 -2.00000000
39.35531998 -30.42822075 -1.15757382 16 31 12911 49.76000000 3177885617 3177885617 -1.33300000
3.95991969 -3.39046669 -2.43090034 10 0 12917 5.75200000 3177885638 3177885638 -25.00000000
39.66527939 -27.74298859 -0.84490591 20 1 12917 48.41200000 3177885638 3177885638 -1.00000000
39.31322098 -33.67170715 -1.50642419 30 2 12918 51.78400000 3177885640 3177885640 -1.66700000
7.79984379 -6.04581928 -2.76260829 3 3 12918 10.24800000 3177885640 3177885640 -15.63900000
10.22536850 -8.76110554 -2.69308257 4 4 12919 13.73200000 3177885643 3177885643 -11.31000000
38.77657318 -30.06735611 0.00000000 27 5 12919 49.06800000 3177885643 3177885643 0.00000000
38.86680603 -36.74166489 -0.62265825 39 6 12919 53.48800000 3177885645 3177885645 -0.66700000
12.85933971 -9.97113228 -2.53158355 1 7 12919 16.46800000 3177885645 3177885645 -8.84300000
15.08798599 -12.93196869 -2.52940512 3 8 12920 20.03200000 3177885647 3177885647 -7.25400000
38.70591736 -27.10217667 0.27462456 29 9 12920 47.25200000 3177885647 3177885647 0.33300000
39.15061951 -33.56799316 -0.29973200 24 10 12921 51.57200000 3177885650 3177885650 -0.33300000
17.11770630 -13.28263950 -2.33385897 4 11 12921 21.79200000 3177885650 3177885650 -6.14800000
18.89842033 -17.88384819 -2.42881441 6 12 12922 26.13200000 3177885652 3177885652 -5.33300000
38.80088043 -30.11874580 1.14296460 27 13 12922 49.13200000 3177885652 3177885652 1.33300000
38.91376114 -36.83753204 0.62382239 63 14 12923 53.58800000 3177885654 3177885654 0.66700000
20.18940544 -15.67744637 -1.78743994 23 15 12923 25.62400000 3177885654 3177885654 -4.00000000
20.14785576 -17.29321480 -2.16754961 19 16 12924 26.64000000 3177885657 3177885657 -4.66700000
39.19832230 -27.48776245 1.39332020 19 17 12924 47.89600000 3177885657 3177885657 1.66700000
38.56629944 -33.10205078 0.88714075 15 18 12924 50.83200000 3177885659 3177885659 1.00000000
20.25365829 -14.20284653 -1.58537948 22 19 12924 24.78800000 3177885659 3177885659 -3.66700000
20.15955734 -19.09729767 -1.61719501 13 20 12925 27.81600000 3177885661 3177885661 -3.33300000
40.73221970 -31.65212059 3.00415945 21 21 12925 51.67200000 3177885661 3177885661 3.33300000
39.38969803 -33.83266830 2.11547589 42 22 12926 51.96800000 3177885663 3177885663 2.33300000
34.25297546 -26.62682915 -2.02093983 5 23 12926 43.43200000 3177885663 3177885663 -2.66700000
20.22051620 -17.37397575 -1.39716065 13 24 12927 26.69600000 3177885666 3177885666 -3.00000000
40.94274902 -35.19145966 4.40735102 37 26 12928 54.16800000 3177885668 3177885668 4.66700000
38.76419830 -27.22372437 -1.92985070 22 27 12928 47.40800000 3177885668 3177885668 -2.33300000
39.37615204 -37.35351562 -1.89532185 30 28 12929 54.30800000 3177885670 3177885670 -2.00000000
39.37095261 -30.64944839 -1.16101682 16 31 12930 49.90800000 3177885673 3177885673 -1.33300000
3.95080614 -3.40663600 -2.43259072 10 0 12937 5.75600000 3177885693 3177885693 -25.00000000
39.58127594 -27.89049149 -0.84518516 10 1 12937 48.42800000 3177885693 3177885693 -1.00000000
39.48307037 -34.05682755 -1.51747859 31 2 12938 52.16400000 3177885696 3177885696 -1.66700000
7.78476477 -6.07775021 -2.76476502 3 3 12938 10.25600000 3177885696 3177885696 -15.63900000
10.20957279 -8.80955696 -2.69700503 3 4 12939 13.75200000 3177885698 3177885698 -11.31000000
38.68714523 -30.21483803 0.00000000 27 5 12939 49.08800000 3177885698 3177885698 0.00000000
38.97586823 -37.10324860 -0.62647653 39 6 12939 53.81600000 3177885700 3177885700 -0.66700000
12.83068562 -10.02082443 -2.53281355 2 7 12939 16.47600000 3177885700 3177885700 -8.84300000
15.05777168 -12.99752045 -2.53193045 3 8 12940 20.05200000 3177885703 3177885703 -7.25400000
38.69932938 -27.29937363 0.27525222 19 9 12940 47.36000000 3177885703 3177885703 0.33300000
39.00293350 -33.67831039 -0.29949954 36 10 12941 51.53200000 3177885705 3177885705 -0.33300000
17.08690453 -13.35455608 -2.33600092 4 11 12941 21.81200000 3177885705 3177885705 -6.14800000
18.85894394 -17.97168732 -2.43178868 6 12 12942 26.16400000 3177885707 3177885707 -5.33300000
38.71126175 -30.26631737 1.14342988 18 13 12942 49.15200000 3177885707 3177885707 1.33300000
38.80809784 -36.99522018 0.62419486 42 14 12943 53.62000000 3177885709 3177885709 0.66700000
20.18484688 -15.78715801 -1.79190433 23 15 12943 25.68800000 3177885709 3177885709 -4.00000000
20.14165878 -17.41036606 -2.17340779 11 16 12944 26.71200000 3177885712 3177885712 -4.66700000
39.14785004 -27.65672112 1.39494932 19 17 12944 47.95200000 3177885712 3177885712 1.66700000
39.45202255 -34.10216522 0.91024768 51 18 12944 52.15600000 3177885714 3177885714 1.00000000
20.25612259 -14.31031132 -1.58947277 22 19 12944 24.85200000 3177885714 3177885714 -3.66700000
20.15345001 -19.22543526 -1.62207866 13 20 12945 27.90000000 3177885716 3177885716 -3.33300000
40.37620926 -31.60213470 2.98602009 20 21 12945 51.36000000 3177885716 3177885716 3.33300000
39.15045166 -33.86537170 2.10896277 27 22 12946 51.80800000 3177885719 3177885719 2.33300000
34.32656479 -26.87678719 -2.03080440 5 23 12946 43.64400000 3177885719 3177885719 -2.66700000
20.21714020 -17.49411583 -1.40113819 13 24 12947 26.77200000 3177885721 3177885721 -3.00000000
40.85582733 -35.36547470 4.41125631 37 26 12948 54.21600000 3177885723 3177885723 4.66700000
38.79617691 -27.44889641 -1.93620110 33 27 12948 47.56400000 3177885723 3177885723 -2.33300000
39.30044556 -37.54320145 -1.89797425 30 28 12949 54.38400000 3177885726 3177885726 -2.00000000
39.34239578 -30.84837914 -1.16334307 17 31 12950 50.00800000 3177885728 3177885728 -1.33300000
3.95257688 -3.43229079 -2.44104314 9 0 12957 5.77600000 3177885749 3177885749 -25.00000000
39.31083298 -27.90578842 -0.84148520 30 1 12957 48.21600000 3177885749 3177885749 -1.00000000
39.41828156 -34.24163818 -1.51957309 31 2 12958 52.23600000 3177885751 3177885751 -1.66700000
7.77258587 -6.11203003 -2.76799989 3 3 12958 10.26800000 3177885751 3177885751 -15.63900000
10.18171978 -8.84771442 -2.69778943 3 4 12959 13.75600000 3177885753 3177885753 -11.31000000
38.58143997 -30.34969711 0.00000000 27 5 12959 49.08800000 3177885753 3177885753 0.00000000
38.84034348 -37.23353958 -0.62638342 39 6 12959 53.80800000 3177885756 3177885756 -0.66700000
12.81426716 -10.08021355 -2.53650284 1 7 12959 16.50000000 3177885756 3177885756 -8.84300000
15.03327370 -13.06822491 -2.53546596 3 8 12960 20.08000000 3177885758 3177885758 -7.25400000
38.62988281 -27.45282936 0.27543822 29 9 12960 47.39200000 3177885758 3177885758 0.33300000
39.09339905 -33.99535751 -0.30110362 25 10 12961 51.80800000 3177885760 3177885760 -0.33300000
17.05893326 -13.42887878 -2.33857107 4 11 12961 21.83600000 3177885760 3177885760 -6.14800000
18.79609680 -18.03740692 -2.43178868 6 12 12962 26.16400000 3177885762 3177885762 -5.33300000
38.90383911 -30.63629723 1.15226984 18 13 12962 49.53200000 3177885762 3177885762 1.33300000
38.77682877 -37.22463608 0.62577808 42 14 12963 53.75600000 3177885765 3177885765 0.66700000
20.18290329 -15.89949703 -1.79664779 25 15 12963 25.75600000 3177885765 3177885765 -4.00000000
20.13789558 -17.53030205 -2.17959142 11 16 12964 26.78800000 3177885767 3177885767 -4.66700000
39.17811584 -27.88362312 1.39948738 30 17 12964 48.10800000 3177885767 3177885767 1.66700000
39.15778351 -34.08736801 0.90619874 33 18 12964 51.92400000 3177885769 3177885769 1.00000000
20.24832535 -14.41102123 -1.59279859 22 19 12964 24.90400000 3177885769 3177885769 -3.66700000
20.15245056 -19.35929298 -1.62742746 13 20 12965 27.99200000 3177885772 3177885772 -3.33300000
40.29074097 -31.76265907 2.98788047 31 21 12965 51.39200000 3177885772 3177885772 3.33300000
39.69800186 -34.58200073 2.14494801 31 22 12966 52.69200000 3177885774 3177885774 2.33300000
34.32666016 -27.07067108 -2.03638816 6 23 12966 43.76400000 3177885774 3177885774 -2.66700000
20.21618080 -17.61706543 -1.40532506 13 24 12967 26.85200000 3177885776 3177885776 -3.00000000
40.92145538 -35.67291641 4.43176031 38 26 12968 54.46800000 3177885779 3177885779 4.66700000
38.65130615 -27.54935837 -1.93375862 22 27 12968 47.50400000 3177885779 3177885779 -2.33300000
39.29303741 -37.79932785 -1.90397692 15 28 12969 54.55600000 3177885781 3177885781 -2.00000000
39.37484741 -31.08522415 -1.16734433 17 31 12969 50.18000000 3177885783 3177885783 -1.33300000
3.94875860 -3.45322657 -2.44611454 9 0 12977 5.78800000 3177885804 3177885804 -25.00000000
39.25222015 -28.07075500 -0.84232295 20 1 12977 48.26400000 3177885804 3177885804 -1.00000000
39.46101761 -34.52118683 -1.52585673 32 2 12978 52.45200000 3177885806 3177885806 -1.66700000
7.75120354 -6.13912392 -2.76799989 3 3 12978 10.26800000 3177885806 3177885806 -15.63900000
10.15962791 -8.89095020 -2.70014286 3 4 12979 13.76800000 3177885809 3177885809 -11.31000000
38.54110336 -30.53635216 0.00000000 27 5 12979 49.17200000 3177885809 3177885809 0.00000000
38.59140396 -37.26728439 -0.62456739 19 6 12980 53.65200000 3177885811 3177885811 -0.66700000
