# .PCD v0.7 - Point Cloud Data file format
VERSION 0.7
FIELDS x y z intensity laser_id azimuth distance_m adjustedtime timestamp vertical_angle
SIZE 4 4 4 1 1 2 8 8 4 8
TYPE F F F U U U F U U F
COUNT 1 1 1 1 1 1 1 1 1 1
WIDTH 521
HEIGHT 1
VIEWPOINT 0 0 0 1 0 0 0
POINTS 521
DATA ascii
5.83381033 7.04184961 -2.55988765 6 3 4104 9.49600000 3175561218 3175561218 -15.63900000
8.07444096 8.82715797 -2.39263105 1 4 4105 12.20000000 3175561220 3175561220 -11.31000000
36.96618652 44.60512924 0.00000000 18 5 4105 57.93200000 3175561220 3175561220 0.00000000
20.95188904 20.76984215 -0.34345850 15 6 4105 29.50400000 3175561222 3175561222 -0.66700000
8.99865723 10.85820103 -2.19399810 1 7 4105 14.27200000 3175561222 3175561222 -8.84300000
10.94244194 11.95833015 -2.06322289 2 8 4106 16.34000000 3175561225 3175561225 -7.25400000
39.45584106 52.62672806 0.38228443 28 9 4106 65.77600000 3175561225 3175561225 0.33300000
34.99928665 38.23519516 -0.30126637 12 10 4107 51.83600000 3175561227 3175561227 -0.33300000
11.38893795 13.73266602 -1.92174947 1 11 4107 17.94400000 3175561227 3175561227 -6.14800000
11.68187904 11.56825638 -1.53469241 31 12 4108 16.51200000 3175561229 3175561229 -5.33300000
40.48010635 48.79317093 1.47525525 19 13 4108 63.41600000 3175561229 3175561229 1.33300000
40.70196152 40.29201126 0.66675466 25 14 4109 57.27600000 3175561232 3175561232 0.66700000
11.67050648 12.73612309 -1.41020906 30 16 4110 17.33200000 3175561234 3175561234 -4.66700000
40.28554916 53.65531540 1.95267296 28 17 4110 67.12400000 3175561234 3175561234 1.66700000
40.85617447 44.58668900 1.05559134 28 18 4110 60.48400000 3175561236 3175561236 1.00000000
14.80001640 19.71177101 -1.57975125 3 19 4110 24.70000000 3175561236 3175561236 -3.66700000
40.25928497 48.47532654 3.66973495 62 21 4111 63.12000000 3175561239 3175561239 3.33300000
39.51781464 43.09591675 2.38218999 25 22 4112 58.52000000 3175561241 3175561241 2.33300000
11.76340675 14.15903187 -0.85747552 10 23 4112 18.42800000 3175561241 3175561241 -2.66700000
12.43441677 13.55552769 -0.96402830 3 24 4113 18.42000000 3175561243 3175561243 -3.00000000
50.70936584 61.01469421 9.74126053 28 25 4113 79.93200000 3175561243 3175561243 7.00000000
112.71033478 122.82948303 13.60902214 28 26 4114 167.26000000 3175561245 3175561245 4.66700000
18.04323006 23.99641609 -1.22317231 4 27 4114 30.04800000 3175561245 3175561245 -2.33300000
12.07812214 11.93145466 -0.59287268 1 28 4115 16.98800000 3175561248 3175561248 -2.00000000
49.99017334 60.10665131 20.94777870 28 29 4115 80.93600000 3175561248 3175561248 15.00000000
20.98511124 25.22289848 -0.76349628 12 31 4116 32.82000000 3175561250 3175561250 -1.33300000
3.60427570 3.91550374 -2.48161435 13 0 4123 5.87200000 3175561271 3175561271 -25.00000000
20.99787521 27.83478546 -0.60860032 18 1 4123 34.87200000 3175561271 3175561271 -1.00000000
20.90894127 22.70646667 -0.89831567 15 2 4124 30.88000000 3175561273 3175561273 -1.66700000
5.85341978 7.01552773 -2.55773115 6 3 4124 9.48800000 3175561273 3175561273 -15.63900000
8.10520363 8.79891968 -2.39263105 1 4 4125 12.20000000 3175561275 3175561275 -11.31000000
37.50613022 44.93645859 0.00000000 19 5 4125 58.53200000 3175561275 3175561275 0.00000000
20.95585442 20.62923813 -0.34234098 15 6 4125 29.40800000 3175561278 3175561278 -0.66700000
9.02890682 10.81762028 -2.19215345 1 7 4125 14.26000000 3175561278 3175561278 -8.84300000
10.97874069 11.91422558 -2.06221271 2 8 4126 16.33200000 3175561280 3175561280 -7.25400000
39.65135574 52.50463867 0.38240066 56 9 4126 65.79600000 3175561280 3175561280 0.33300000
35.10271835 38.08044052 -0.30101064 12 10 4127 51.79200000 3175561282 3175561282 -0.33300000
11.45210075 13.71114159 -1.92431974 2 11 4127 17.96800000 3175561282 3175561282 -6.14800000
11.66823483 11.47435188 -1.52762866 31 12 4128 16.43600000 3175561285 3175561285 -5.33300000
40.57069778 48.55644226 1.47237062 19 13 4128 63.29200000 3175561285 3175561285 1.33300000
40.68262863 39.99266815 0.66414708 25 14 4129 57.05200000 3175561287 3175561287 0.66700000
11.88150215 14.21515846 -1.29551721 2 15 4129 18.57200000 3175561287 3175561287 -4.00000000
11.66082001 12.63670921 -1.40369987 30 16 4130 17.25200000 3175561289 3175561289 -4.66700000
40.27965164 53.25924683 1.94336402 28 17 4130 66.80400000 3175561289 3175561289 1.66700000
40.99257660 44.42322922 1.05510271 28 18 4130 60.45600000 3175561292 3175561292 1.00000000
14.81816673 19.59312820 -1.57437885 3 19 4130 24.61600000 3175561292 3175561292 -3.66700000
11.74789238 11.54059124 -0.95906126 4 20 4131 16.49600000 3175561294 3175561294 -3.33300000
40.28477859 48.16297150 3.65671182 41 21 4131 62.89600000 3175561294 3175561294 3.33300000
39.73579025 43.03111649 2.38626075 26 22 4132 58.62000000 3175561296 3175561296 2.33300000
11.76147747 14.05659485 -0.85375303 11 23 4132 18.34800000 3175561296 3175561296 -2.66700000
12.36510849 13.38586998 -0.95502651 2 24 4133 18.24800000 3175561298 3175561298 -3.00000000
50.84558868 60.74597931 9.72663593 28 25 4133 79.81200000 3175561298 3175561298 7.00000000
112.86783600 122.14250183 13.57647610 28 26 4134 166.86000000 3175561301 3175561301 4.66700000
18.10757828 23.90780067 -1.22186971 4 27 4134 30.01600000 3175561301 3175561301 -2.33300000
12.22243118 11.99000072 -0.59789819 1 28 4135 17.13200000 3175561303 3175561303 -2.00000000
20.98570442 25.04527855 -0.76033247 12 31 4136 32.68400000 3175561305 3175561305 -1.33300000
3.65981841 3.94809580 -2.51035237 18 0 4143 5.94000000 3175561326 3175561326 -25.00000000
20.99328041 27.62757683 -0.60566831 18 1 4143 34.70400000 3175561326 3175561326 -1.00000000
20.90923309 22.54832077 -0.89494121 10 2 4144 30.76400000 3175561328 3175561328 -1.66700000
5.88035107 6.99800205 -2.55880928 6 3 4144 9.49200000 3175561328 3175561328 -15.63900000
8.12519836 8.75907135 -2.38949299 3 4 4145 12.18400000 3175561331 3175561331 -11.31000000
37.70394135 44.85425568 0.00000000 19 5 4145 58.59600000 3175561331 3175561331 0.00000000
20.95909119 20.48885918 -0.34122342 15 6 4145 29.31200000 3175561333 3175561333 -0.66700000
9.06661224 10.78603745 -2.19215345 1 7 4145 14.26000000 3175561333 3175561333 -8.84300000
11.01486397 11.87001228 -2.06120253 2 8 4146 16.32400000 3175561335 3175561335 -7.25400000
39.73509979 52.23538589 0.38144752 28 9 4146 65.63200000 3175561335 3175561335 0.33300000
35.11569214 37.82868576 -0.29998773 12 10 4147 51.61600000 3175561338 3175561338 -0.33300000
11.50245190 13.67412567 -1.92474818 2 11 4147 17.97200000 3175561338 3175561338 -6.14800000
11.67117405 11.39737892 -1.52279556 31 12 4148 16.38400000 3175561340 3175561340 -5.33300000
40.60348129 48.25236130 1.46743894 18 13 4148 63.08000000 3175561340 3175561340 1.33300000
40.85346222 39.88114929 0.66465926 25 14 4149 57.09600000 3175561342 3175561342 0.66700000
11.78457832 13.99959469 -1.27961278 1 15 4149 18.34400000 3175561342 3175561342 -4.00000000
11.65600967 12.54335976 -1.39784169 30 16 4150 17.18000000 3175561345 3175561345 -4.66700000
40.11399078 52.65714264 1.92649150 28 17 4150 66.22400000 3175561345 3175561345 1.66700000
40.99493408 44.11580276 1.05119336 28 18 4150 60.23200000 3175561347 3175561347 1.00000000
14.87195587 19.52223206 -1.57284379 3 19 4150 24.59200000 3175561347 3175561347 -3.66700000
40.32144928 47.86630249 3.64485145 40 21 4151 62.69200000 3175561349 3175561349 3.33300000
39.48023224 42.45605850 2.36199927 24 22 4152 58.02400000 3175561351 3175561351 2.33300000
11.75897694 13.95434475 -0.85003054 10 23 4152 18.26800000 3175561351 3175561351 -2.66700000
11.90027046 12.79277706 -0.91566992 2 24 4153 17.49600000 3175561354 3175561354 -3.00000000
113.25548553 121.70691681 13.57191944 28 26 4154 166.80400000 3175561356 3175561356 4.66700000
18.19819450 23.85397911 -1.22235823 4 27 4154 30.02800000 3175561356 3175561356 -2.33300000
12.39592838 12.07557869 -0.60431969 1 28 4155 17.31600000 3175561358 3175561358 -2.00000000
20.98789406 24.87101746 -0.75726175 12 31 4156 32.55200000 3175561361 3175561361 -1.33300000
3.61668038 3.87434578 -2.47147155 12 0 4163 5.84800000 3175561381 3175561381 -25.00000000
20.99235916 27.42709160 -0.60287595 18 1 4163 34.54400000 3175561381 3175561381 -1.00000000
12.24175453 13.10931396 -0.52200055 1 2 4164 17.94400000 3175561384 3175561384 -1.66700000
5.89976597 6.97155237 -2.55665278 6 3 4164 9.48400000 3175561384 3175561384 -15.63900000
8.15304661 8.72778893 -2.38870859 3 4 4165 12.18000000 3175561386 3175561386 -11.31000000
37.81892776 44.67352295 0.00000000 19 5 4165 58.53200000 3175561386 3175561386 0.00000000
20.95873642 20.34592438 -0.34005931 15 6 4165 29.21200000 3175561388 3175561388 -0.66700000
9.08888435 10.73622417 -2.18846393 1 7 4165 14.23600000 3175561388 3175561388 -8.84300000
11.04539394 11.81989479 -2.05918217 6 8 4166 16.30800000 3175561391 3175561391 -7.25400000
39.81015396 51.95666504 0.38042462 28 9 4166 65.45600000 3175561391 3175561391 0.33300000
35.16011810 37.61237717 -0.29924381 12 10 4167 51.48800000 3175561393 3175561393 -0.33300000
11.53983116 13.62175369 -1.92303455 1 11 4167 17.95600000 3175561393 3175561393 -6.14800000
11.67086029 11.31775284 -1.51759076 31 12 4168 16.32800000 3175561395 3175561395 -5.33300000
40.33990479 47.60085678 1.45189905 18 13 4168 62.41200000 3175561395 3175561395 1.33300000
40.93786240 39.68540573 0.66377455 25 14 4169 57.02000000 3175561397 3175561397 0.66700000
11.78950787 13.90663052 -1.27486932 1 15 4169 18.27600000 3175561397 3175561397 -4.00000000
11.65886211 12.45893192 -1.39295983 30 16 4170 17.12000000 3175561400 3175561400 -4.66700000
40.19045639 52.37722397 1.92137158 28 17 4170 66.04800000 3175561400 3175561400 1.66700000
41.02570724 43.84102631 1.04805195 28 18 4170 60.05200000 3175561402 3175561402 1.00000000
14.93272018 19.46069908 -1.57207632 3 19 4170 24.58000000 3175561402 3175561402 -3.66700000
40.40303802 47.62477493 3.63717723 40 21 4171 62.56000000 3175561404 3175561404 3.33300000
39.48613358 42.16629028 2.35353208 49 22 4172 57.81600000 3175561407 3175561407 2.33300000
11.76883316 13.86751652 -0.84723872 11 23 4172 18.20800000 3175561407 3175561407 -2.66700000
11.91208267 12.71617603 -0.91315776 2 24 4173 17.44800000 3175561409 3175561409 -3.00000000
113.13441467 120.72902679 13.50682831 28 26 4174 166.00400000 3175561411 3175561411 4.66700000
18.27647972 23.78397179 -1.22203255 4 27 4174 30.02000000 3175561411 3175561411 -2.33300000
12.28859901 11.88770390 -0.59706056 1 28 4175 17.10800000 3175561414 3175561414 -2.00000000
20.98394394 24.69095612 -0.75400490 12 31 4176 32.41200000 3175561416 3175561416 -1.33300000
3.66742778 3.90131831 -2.49682879 10 0 4183 5.90800000 3175561437 3175561437 -25.00000000
20.99761963 27.23645401 -0.60029298 18 1 4183 34.39600000 3175561437 3175561437 -1.00000000
12.26278782 13.04028702 -0.52095330 1 2 4184 17.90800000 3175561439 3175561439 -1.66700000
5.91656971 6.94212103 -2.55341792 6 3 4184 9.47200000 3175561439 3175561439 -15.63900000
8.18077469 8.69641972 -2.38792419 3 4 4185 12.17600000 3175561441 3175561441 -11.31000000
38.88034058 45.60355377 0.00000000 21 5 4185 59.92800000 3175561441 3175561441 0.00000000
20.95763969 20.20324326 -0.33889520 15 6 4185 29.11200000 3175561444 3175561444 -0.66700000
9.10835552 10.68337822 -2.18415952 1 7 4185 14.20800000 3175561444 3175561444 -8.84300000
11.06755066 11.76103878 -2.05564666 38 8 4186 16.28000000 3175561446 3175561446 -7.25400000
39.83486557 51.61472702 0.37893677 28 9 4186 65.20000000 3175561446 3175561446 0.33300000
35.26377869 37.46028900 -0.29901135 12 10 4187 51.44800000 3175561448 3175561448 -0.33300000
11.61312199 13.61164379 -1.92731845 3 11 4187 17.99600000 3175561448 3175561448 -6.14800000
11.66439533 11.23274326 -1.51164234 31 12 4188 16.26400000 3175561450 3175561450 -5.33300000
40.24102402 47.14950180 1.44240773 18 13 4188 62.00400000 3175561450 3175561450 1.33300000
40.84273529 39.31757355 0.66000283 24 14 4189 56.69600000 3175561453 3175561453 0.66700000
11.85093403 13.88056660 -1.27626443 1 15 4189 18.29600000 3175561453 3175561453 -4.00000000
11.64759731 12.36013031 -1.38645065 30 16 4190 17.04000000 3175561455 3175561455 -4.66700000
40.04051590 51.80636978 1.90554631 28 17 4190 65.50400000 3175561455 3175561455 1.66700000
40.91791916 43.42104340 1.04141998 27 18 4190 59.67200000 3175561457 3175561457 1.00000000
14.99323654 19.39898109 -1.57130885 3 19 4190 24.56800000 3175561457 3175561457 -3.66700000
40.50159073 47.40451431 3.63113070 40 21 4191 62.45600000 3175561460 3175561460 3.33300000
39.49597931 41.88281631 2.34539056 24 22 4192 57.61600000 3175561462 3175561462 2.33300000
11.77303600 13.77471447 -0.84407461 11 23 4192 18.14000000 3175561462 3175561462 -2.66700000
11.92076397 12.63674450 -0.91043627 2 24 4193 17.39600000 3175561464 3175561464 -3.00000000
18.34226608 23.69790649 -1.22089279 4 27 4194 29.99200000 3175561467 3175561467 -2.33300000
12.43668652 11.94720459 -0.60222572 1 28 4195 17.25600000 3175561469 3175561469 -2.00000000
20.97471619 24.51488495 -0.75074804 12 31 4195 32.27200000 3175561471 3175561471 -1.33300000
3.66607022 3.87269664 -2.48668575 10 0 4203 5.88400000 3175561492 3175561492 -25.00000000
20.99444962 27.03663826 -0.59750056 18 1 4203 34.23600000 3175561492 3175561492 -1.00000000
12.30548382 12.99450016 -0.52083695 1 2 4204 17.90400000 3175561494 3175561494 -1.66700000
5.94578409 6.92727184 -2.55557442 6 3 4204 9.48000000 3175561494 3175561494 -15.63900000
8.21647644 8.67350578 -2.38949299 3 4 4205 12.18400000 3175561497 3175561497 -11.31000000
38.96372223 45.37955093 0.00000000 20 5 4205 59.81200000 3175561497 3175561497 0.00000000
20.95930481 20.05715942 -0.33773109 15 6 4206 29.01200000 3175561499 3175561499 -0.66700000
9.14487553 10.64692497 -2.18354464 2 7 4206 14.20400000 3175561499 3175561499 -8.84300000
11.11126614 11.72521496 -2.05615187 22 8 4206 16.28400000 3175561501 3175561501 -7.25400000
39.85767746 51.27325058 0.37744892 28 9 4206 64.94400000 3175561501 3175561501 0.33300000
35.67226028 37.63016129 -0.30135936 12 10 4207 51.85200000 3175561503 3175561503 -0.33300000
11.66833973 13.58007336 -1.92860365 4 11 4207 18.00800000 3175561503 3175561503 -6.14800000
11.67187119 11.16168022 -1.50755274 28 12 4208 16.22000000 3175561506 3175561506 -5.33300000
40.16033936 46.72367859 1.43366075 18 13 4208 61.62800000 3175561506 3175561506 1.33300000
40.83517075 39.03657532 0.65767461 24 14 4209 56.49600000 3175561508 3175561508 0.66700000
11.65225124 12.27891064 -1.38189423 32 16 4210 16.98400000 3175561510 3175561510 -4.66700000
39.83795547 51.17410660 1.88739383 28 17 4210 64.88000000 3175561510 3175561510 1.66700000
40.64724350 42.81828690 1.03052974 26 18 4211 59.04800000 3175561513 3175561513 1.00000000
15.04952049 19.32500076 -1.56977379 3 19 4211 24.54400000 3175561513 3175561513 -3.66700000
12.07246399 11.53266621 -0.97231698 2 20 4211 16.72400000 3175561515 3175561515 -3.33300000
40.45585251 47.01766586 3.61229372 39 21 4211 62.13200000 3175561515 3175561515 3.33300000
39.65294647 41.75628662 2.34604192 24 22 4212 57.63200000 3175561517 3175561517 2.33300000
11.78194714 13.68811035 -0.84128273 18 23 4212 18.08000000 3175561517 3175561517 -2.66700000
12.06934547 12.70510769 -0.91839135 2 24 4213 17.54800000 3175561520 3175561520 -3.00000000
115.38610077 121.42169952 13.67411327 28 26 4214 168.06000000 3175561522 3175561522 4.66700000
18.34869766 23.53602409 -1.21584511 4 27 4214 29.86800000 3175561522 3175561522 -2.33300000
12.33368778 11.76575375 -0.59524584 1 28 4215 17.05600000 3175561524 3175561524 -2.00000000
20.97663116 24.34457970 -0.74777037 12 31 4215 32.14400000 3175561527 3175561527 -1.33300000
3.68707013 3.86774802 -2.49175715 11 0 4223 5.89600000 3175561547 3175561547 -25.00000000
20.99014091 26.83717728 -0.59470820 18 1 4223 34.07600000 3175561547 3175561547 -1.00000000
12.31489658 12.91385078 -0.51932424 1 2 4224 17.85200000 3175561550 3175561550 -1.66700000
5.96740961 6.90356064 -2.55449605 7 3 4224 9.47600000 3175561550 3175561550 -15.63900000
8.23857975 8.63625813 -2.38713956 3 4 4225 12.17200000 3175561552 3175561552 -11.31000000
38.98583984 45.08592987 0.00000000 20 5 4225 59.60400000 3175561552 3175561552 0.00000000
20.95670509 19.91499519 -0.33656698 15 6 4226 28.91200000 3175561554 3175561554 -0.66700000
9.18198490 10.61493778 -2.18354464 2 7 4226 14.20400000 3175561554 3175561554 -8.84300000
11.13295174 11.66626358 -2.05261636 12 8 4226 16.25600000 3175561556 3175561556 -7.25400000
39.95750427 51.03302765 0.37670499 28 9 4226 64.81600000 3175561556 3175561556 0.33300000
35.83654022 37.54013062 -0.30163833 12 10 4227 51.90000000 3175561559 3175561559 -0.33300000
11.66883087 13.48512745 -1.92089272 4 11 4227 17.93600000 3175561559 3175561559 -6.14800000
40.35721207 46.62251663 1.43487048 18 13 4228 61.68000000 3175561561 3175561561 1.33300000
40.92477417 38.84973526 0.65692961 24 14 4229 56.43200000 3175561563 3175561563 0.66700000
11.66544724 13.47171116 -1.24612963 28 15 4229 17.86400000 3175561563 3175561563 -4.00000000
11.65648079 12.19781017 -1.37733781 32 16 4230 16.92800000 3175561566 3175561566 -4.66700000
40.11996460 51.16688538 1.89228106 28 17 4230 65.04800000 3175561566 3175561566 1.66700000
39.53456116 41.37055206 0.99883610 24 18 4230 57.23200000 3175561568 3175561568 1.00000000
15.11105919 19.27184677 -1.56951797 3 19 4230 24.54000000 3175561568 3175561568 -3.66700000
40.37129593 46.58946609 3.59020090 38 21 4231 61.75200000 3175561570 3175561570 3.33300000
39.82332230 41.64361191 2.34750748 24 22 4232 57.66800000 3175561573 3175561573 2.33300000
11.79301548 13.60463047 -0.83867699 18 23 4232 18.02400000 3175561573 3175561573 -2.66700000
13.14633083 13.74243641 -0.99668592 3 24 4233 19.04400000 3175561575 3175561575 -3.00000000
115.94705963 121.16220856 13.69038582 28 26 4234 168.26000000 3175561577 3175561577 4.66700000
18.41840172 23.45611382 -1.21503091 4 27 4234 29.84800000 3175561577 3175561577 -2.33300000
12.37468338 11.72262955 -0.59524584 1 28 4235 17.05600000 3175561580 3175561580 -2.00000000
20.96713066 24.16247749 -0.74442047 16 31 4235 32.00000000 3175561582 3175561582 -1.33300000
3.74322796 3.89931321 -2.52049541 11 0 4243 5.96400000 3175561602 3175561602 -25.00000000
20.98469543 26.63807869 -0.59191585 17 1 4243 33.91600000 3175561602 3175561602 -1.00000000
12.35159111 12.86213303 -0.51897514 1 2 4244 17.84000000 3175561604 3175561604 -1.66700000
5.98388338 6.87397242 -2.55126119 6 3 4244 9.46400000 3175561604 3175561604 -15.63900000
8.26867580 8.60744667 -2.38713956 3 4 4245 12.17200000 3175561607 3175561607 -11.31000000
39.07731247 44.87415314 0.00000000 20 5 4245 59.50400000 3175561607 3175561607 0.00000000
20.95282555 19.77949524 -0.33544946 15 6 4245 28.81600000 3175561609 3175561609 -0.66700000
9.21194267 10.57847023 -2.18231487 2 7 4245 14.19600000 3175561609 3175561609 -8.84300000
39.98678589 50.70479202 0.37531015 28 9 4246 64.57600000 3175561611 3175561611 0.33300000
36.10596466 37.55899048 -0.30280071 13 10 4247 52.10000000 3175561614 3175561614 -0.33300000
11.71583176 13.44431305 -1.92089272 4 11 4247 17.93600000 3175561614 3175561614 -6.14800000
11.79876804 11.12637424 -1.51387298 1 12 4248 16.28800000 3175561616 3175561616 -5.33300000
40.45664215 46.40901566 1.43263721 18 13 4248 61.58400000 3175561616 3175561616 1.33300000
40.92625427 38.58044052 0.65478766 24 14 4249 56.24800000 3175561618 3175561618 0.66700000
11.67043972 13.38279057 -1.24166524 27 15 4249 17.80000000 3175561618 3175561618 -4.00000000
11.66028595 12.11682987 -1.37278140 32 16 4250 16.87200000 3175561620 3175561620 -4.66700000
40.42966080 51.19282913 1.89844823 28 17 4250 65.26000000 3175561620 3175561620 1.66700000
40.52177811 42.10835648 1.02005827 25 18 4250 58.44800000 3175561623 3175561623 1.00000000
15.16339397 19.20018768 -1.56798303 3 19 4250 24.51600000 3175561623 3175561623 -3.66700000
12.00734997 11.31119823 -0.96068919 2 20 4251 16.52400000 3175561625 3175561625 -3.33300000
40.49429321 46.40312958 3.58671260 38 21 4251 61.69200000 3175561625 3175561625 3.33300000
39.41675186 40.93145752 2.31510448 22 22 4252 56.87200000 3175561627 3175561627 2.33300000
13.12493801 13.62454319 -0.99145234 3 24 4253 18.94400000 3175561630 3175561630 -3.00000000
97.43870544 101.11241913 11.46327782 28 26 4254 140.88800000 3175561632 3175561632 4.66700000
18.51008224 23.40421867 -1.21568227 4 27 4254 29.86400000 3175561632 3175561632 -2.33300000
12.63390541 11.88479137 -0.60571569 1 28 4255 17.35600000 3175561634 3175561634 -2.00000000
20.96977043 23.99579620 -0.74153584 12 31 4255 31.87600000 3175561637 3175561637 -1.33300000
3.82667589 3.95987177 -2.56782866 14 0 4262 6.07600000 3175561657 3175561657 -25.00000000
20.98095894 26.45240784 -0.58933288 17 1 4262 33.76800000 3175561657 3175561657 -1.00000000
12.36916447 12.79523087 -0.51792789 3 2 4263 17.80400000 3175561660 3175561660 -1.66700000
6.00918436 6.85698843 -2.55233955 6 3 4263 9.46800000 3175561660 3175561660 -15.63900000
8.29990101 8.58279896 -2.38792419 3 4 4264 12.17600000 3175561662 3175561662 -11.31000000
39.15470886 44.66311264 0.00000000 20 5 4264 59.39600000 3175561662 3175561662 0.00000000
20.95119667 19.64697647 -0.33437848 15 6 4264 28.72400000 3175561664 3175561664 -0.66700000
9.23915577 10.53894711 -2.18047023 2 7 4264 14.18400000 3175561664 3175561664 -8.84300000
11.21761990 11.59591770 -2.05362630 2 8 4265 16.26400000 3175561667 3175561667 -7.25400000
40.14724731 50.56251526 0.37524039 28 9 4265 64.56400000 3175561667 3175561667 0.33300000
36.28594589 37.49654007 -0.30326566 13 10 4266 52.18000000 3175561669 3175561669 -0.33300000
11.75772667 13.40239906 -1.92046428 2 11 4266 17.93200000 3175561669 3175561669 -6.14800000
11.66992378 10.93198872 -1.49268174 1 12 4267 16.06000000 3175561671 3175561671 -5.33300000
40.52063751 46.17240906 1.42947340 17 13 4267 61.44800000 3175561671 3175561671 1.33300000
40.87587738 38.27774048 0.65194720 23 14 4268 56.00400000 3175561673 3175561673 0.66700000
11.66736889 13.29004097 -1.23664272 26 15 4268 17.72800000 3175561673 3175561673 -4.00000000
11.65324688 12.02941799 -1.36724865 32 16 4269 16.80400000 3175561676 3175561676 -4.66700000
40.48473358 50.91452026 1.89309561 28 17 4269 65.07600000 3175561676 3175561676 1.66700000
40.51927185 41.82725143 1.01649797 25 18 4269 58.24400000 3175561678 3175561678 1.00000000
12.26347160 11.47595310 -0.97813088 2 20 4270 16.82400000 3175561680 3175561680 -3.33300000
40.37121964 45.95359421 3.56229401 37 21 4270 61.27200000 3175561680 3175561680 3.33300000
39.70248795 40.95548248 2.32389712 23 22 4271 57.08800000 3175561683 3175561683 2.33300000
11.79302692 13.41899681 -0.83216262 1 23 4271 17.88400000 3175561683 3175561683 -2.66700000
13.20897770 13.62109089 -0.99438316 3 24 4272 19.00000000 3175561685 3175561685 -3.00000000
96.45491028 99.42951965 11.30868530 28 26 4273 138.98800000 3175561687 3175561687 4.66700000
18.58261299 23.33645439 -1.21535659 4 27 4273 29.85600000 3175561687 3175561687 -2.33300000
12.60022831 11.77459621 -0.60222572 1 28 4274 17.25600000 3175561690 3175561690 -2.00000000
20.96206284 23.82704544 -0.73846513 12 31 4274 31.74400000 3175561692 3175561692 -1.33300000
3.62809849 3.72825098 -2.42582893 8 0 4282 5.74000000 3175561713 3175561713 -25.00000000
20.98330307 26.26651955 -0.58681971 17 1 4282 33.62400000 3175561713 3175561713 -1.00000000
12.33287239 12.66889191 -0.51455337 3 2 4283 17.68800000 3175561715 3175561715 -1.66700000
6.03053427 6.83308268 -2.55126119 6 3 4283 9.46400000 3175561715 3175561715 -15.63900000
8.33254623 8.55658531 -2.38870859 1 4 4284 12.18000000 3175561717 3175561717 -11.31000000
39.21771622 44.42121506 0.00000000 20 5 4284 59.25600000 3175561717 3175561717 0.00000000
20.94354439 19.50285339 -0.33316779 15 6 4284 28.62000000 3175561720 3175561720 -0.66700000
9.26803970 10.49774361 -2.17862535 2 7 4284 14.17200000 3175561720 3175561720 -8.84300000
11.24695396 11.54532146 -2.05160618 2 8 4285 16.24800000 3175561722 3175561722 -7.25400000
40.23356247 50.30960846 0.37440348 28 9 4285 64.42000000 3175561722 3175561722 0.33300000
36.40265656 37.35532379 -0.30314943 13 10 4286 52.16000000 3175561724 3175561724 -0.33300000
11.80707169 13.36425591 -1.92089272 2 11 4286 17.93600000 3175561724 3175561724 -6.14800000
11.67593575 10.86134720 -1.48859215 1 12 4287 16.01600000 3175561726 3175561726 -5.33300000
40.67097092 46.01869965 1.42910123 17 13 4287 61.43200000 3175561726 3175561726 1.33300000
40.43808365 37.60369873 0.64286715 23 14 4288 55.22400000 3175561729 3175561729 0.66700000
11.66347218 13.19243431 -1.23134124 27 15 4288 17.65200000 3175561729 3175561729 -4.00000000
11.65340710 11.94586086 -1.36236680 31 16 4289 16.74400000 3175561731 3175561731 -4.66700000
40.66720963 50.77913284 1.89332831 28 17 4289 65.08400000 3175561731 3175561731 1.66700000
40.56616211 41.56969070 1.01384521 25 18 4290 58.09200000 3175561733 3175561733 1.00000000
11.70553780 14.61089897 -1.19984341 22 19 4290 18.76000000 3175561733 3175561733 -3.66700000
12.33855724 11.46569538 -0.98092157 2 20 4290 16.87200000 3175561736 3175561736 -3.33300000
40.03657913 45.25312042 3.51880622 35 21 4290 60.52400000 3175561736 3175561736 3.33300000
39.83404160 40.80520630 2.32324600 46 22 4291 57.07200000 3175561738 3175561738 2.33300000
12.02781391 13.59018993 -0.84537745 1 23 4291 18.16800000 3175561738 3175561738 -2.66700000
12.29360771 12.58893299 -0.92215955 2 24 4292 17.62000000 3175561740 3175561740 -3.00000000
97.06047821 99.35743713 11.33895302 28 26 4293 139.36000000 3175561743 3175561743 4.66700000
12.78776646 11.86649990 -0.60920560 1 28 4294 17.45600000 3175561745 3175561745 -2.00000000
20.96024704 23.65794945 -0.73548746 16 31 4294 31.61600000 3175561747 3175561747 -1.33300000
3.55735803 3.63011885 -2.37004328 6 0 4302 5.60800000 3175561768 3175561768 -25.00000000
20.97708511 26.07159042 -0.58409715 17 1 4302 33.46800000 3175561768 3175561768 -1.00000000
12.30144787 12.54867458 -0.51141161 3 2 4303 17.58000000 3175561770 3175561770 -1.66700000
6.05179071 6.80911160 -2.55018282 6 3 4303 9.46000000 3175561770 3175561770 -15.63900000
8.34863186 8.51344490 -2.38478637 3 4 4304 12.16000000 3175561772 3175561772 -11.31000000
39.23964691 44.13457870 0.00000000 20 5 4304 59.05600000 3175561772 3175561772 0.00000000
20.95026970 19.36623001 -0.33214340 15 6 4305 28.53200000 3175561775 3175561775 -0.66700000
9.30908012 10.46665764 -2.17924023 2 7 4305 14.17600000 3175561775 3175561775 -8.84300000
11.28440762 11.50315952 -2.05110097 2 8 4305 16.24400000 3175561777 3175561777 -7.25400000
40.28347778 50.01310349 0.37324110 28 9 4305 64.22000000 3175561777 3175561777 0.33300000
36.66450500 37.36220932 -0.30424204 13 10 4306 52.34800000 3175561779 3175561779 -0.33300000
11.84571934 13.31404591 -1.91960752 4 11 4306 17.92400000 3175561779 3175561779 -6.14800000
11.69037342 10.79890537 -1.48561800 3 12 4307 15.98400000 3175561782 3175561782 -5.33300000
40.47243881 45.47318649 1.41653907 17 13 4307 60.89200000 3175561782 3175561782 1.33300000
40.57791519 37.47045517 0.64300686 23 14 4308 55.23600000 3175561784 3175561784 0.66700000
11.66699696 13.10395718 -1.22687685 28 15 4308 17.58800000 3175561784 3175561784 -4.00000000
11.65592098 11.86529350 -1.35781038 31 16 4309 16.68800000 3175561786 3175561786 -4.66700000
40.83166122 50.62131119 1.89274645 28 17 4309 65.06400000 3175561786 3175561786 1.66700000
40.68136597 41.41211319 1.01328671 50 18 4309 58.06000000 3175561789 3175561789 1.00000000
11.68375206 14.48500443 -1.19268024 26 19 4309 18.64800000 3175561789 3175561789 -3.66700000
12.21709728 11.27361298 -0.96813101 2 20 4310 16.65200000 3175561791 3175561791 -3.33300000
40.15179443 45.06538773 3.51508522 35 21 4310 60.46000000 3175561791 3175561791 3.33300000
39.96502686 40.65451050 2.32259464 23 22 4311 57.05600000 3175561793 3175561793 2.33300000
12.09910583 13.57496834 -0.84705257 1 23 4311 18.20400000 3175561793 3175561793 -2.66700000
12.44670677 12.65702057 -0.93032396 2 24 4312 17.77600000 3175561796 3175561796 -3.00000000
97.31445312 98.92424011 11.32821274 28 26 4313 139.22800000 3175561798 3175561798 4.66700000
18.53412056 22.94499397 -1.20167887 21 27 4313 29.52000000 3175561798 3175561798 -2.33300000
12.78207397 11.77844715 -0.60697204 1 28 4314 17.39200000 3175561800 3175561800 -2.00000000
20.96693420 23.49146461 -0.73269588 20 31 4315 31.49600000 3175561802 3175561802 -1.33300000
3.56491518 3.61251855 -2.36666226 6 0 4322 5.60000000 3175561823 3175561823 -25.00000000
20.97228050 25.88013268 -0.58144438 16 1 4322 33.31600000 3175561823 3175561823 -1.00000000
12.33113194 12.49143124 -0.51082981 3 2 4323 17.56000000 3175561825 3175561825 -1.66700000
6.06781530 6.77933455 -2.54694796 6 3 4323 9.44800000 3175561825 3175561825 -15.63900000
8.38381100 8.48983192 -2.38635516 3 4 4324 12.16800000 3175561828 3175561828 -11.31000000
39.26806259 43.85727692 0.00000000 19 5 4324 58.86800000 3175561828 3175561828 0.00000000
20.93818665 19.21995354 -0.33088616 14 6 4325 28.42400000 3175561830 3175561830 -0.66700000
9.33764744 10.42526627 -2.17739558 2 7 4325 14.16400000 3175561830 3175561830 -8.84300000
11.32170391 11.46087646 -2.05059600 2 8 4325 16.24000000 3175561832 3175561832 -7.25400000
40.32929230 49.71376038 0.37205547 28 9 4325 64.01600000 3175561832 3175561832 0.33300000
36.90153885 37.34211349 -0.30512547 14 10 4326 52.50000000 3175561835 3175561835 -0.33300000
11.88416004 13.26373005 -1.91832232 2 11 4326 17.91200000 3175561835 3175561835 -6.14800000
11.69864845 10.73111057 -1.48190022 1 12 4327 15.94400000 3175561837 3175561837 -5.33300000
40.17451859 44.82242203 1.40062714 17 13 4327 60.20800000 3175561837 3175561837 1.33300000
40.74678802 37.36372757 0.64361221 23 14 4328 55.28800000 3175561839 3175561839 0.66700000
11.66738319 13.01264572 -1.22213340 27 15 4328 17.52000000 3175561839 3175561839 -4.00000000
11.65521145 11.78202057 -1.35292840 31 16 4329 16.62800000 3175561842 3175561842 -4.66700000
40.16102600 49.43576050 1.85364878 28 17 4329 63.72000000 3175561842 3175561842 1.66700000
39.98469162 40.41972351 0.99241364 23 18 4329 56.86400000 3175561844 3175561844 1.00000000
11.66628361 14.36047935 -1.18577278 24 19 4329 18.54000000 3175561844 3175561844 -3.66700000
12.39474869 11.35769463 -0.97906113 2 20 4330 16.84000000 3175561846 3175561846 -3.33300000
40.15951538 44.75851440 3.50206208 51 21 4330 60.23600000 3175561846 3175561846 3.33300000
39.73554611 40.13983536 2.30110121 44 22 4331 56.52800000 3175561849 3175561849 2.33300000
12.27185822 13.67240810 -0.85580045 1 23 4331 18.39200000 3175561849 3175561849 -2.66700000
12.33060169 12.45171165 -0.91839135 2 24 4332 17.54800000 3175561851 3175561851 -3.00000000
96.62946320 97.54449463 11.20876980 28 26 4333 137.76000000 3175561853 3175561853 4.66700000
18.59140015 22.85225487 -1.20021343 8 27 4333 29.48400000 3175561853 3175561853 -2.33300000
13.07084370 11.96044540 -0.61869830 1 28 4334 17.72800000 3175561855 3175561855 -2.00000000
20.95652008 23.32364464 -0.72962511 16 31 4334 31.36400000 3175561858 3175561858 -1.33300000
3.56472683 3.58719516 -2.35820985 7 0 4342 5.58000000 3175561878 3175561878 -25.00000000
20.97145271 25.69522476 -0.57893121 16 1 4342 33.17200000 3175561878 3175561878 -1.00000000
12.36620331 12.43980408 -0.51048070 3 2 4343 17.54800000 3175561881 3175561881 -1.66700000
6.09144258 6.75811291 -2.54694796 6 3 4343 9.44800000 3175561881 3175561881 -15.63900000
8.41339493 8.46051598 -2.38635516 3 4 4344 12.16800000 3175561883 3175561883 -11.31000000
39.28966141 43.57437515 0.00000000 19 5 4344 58.67200000 3175561883 3175561883 0.00000000
20.93974113 19.09382057 -0.32990831 14 6 4344 28.34000000 3175561885 3175561885 -0.66700000
9.38804817 10.41185665 -2.18108511 2 7 4344 14.18800000 3175561885 3175561885 -8.84300000
11.35324574 11.41284657 -2.04908085 2 8 4345 16.22800000 3175561888 3175561888 -7.25400000
40.22166443 49.22885895 0.36947498 28 9 4345 63.57200000 3175561888 3175561888 0.33300000
37.10219574 37.28395844 -0.30570665 14 10 4346 52.60000000 3175561890 3175561890 -0.33300000
11.92505836 13.21625996 -1.91746557 2 11 4346 17.90400000 3175561890 3175561890 -6.14800000
11.72425842 10.67948151 -1.48041308 1 12 4347 15.92800000 3175561892 3175561892 -5.33300000
40.19676208 44.53348923 1.39597452 17 13 4347 60.00800000 3175561892 3175561892 1.33300000
40.39786530 36.78501511 0.63606876 22 14 4348 54.64000000 3175561895 3175561895 0.66700000
11.65657806 12.90964603 -1.21627390 27 15 4348 17.43600000 3175561895 3175561895 -4.00000000
11.66250420 11.70737076 -1.34902298 30 16 4349 16.58000000 3175561897 3175561897 -4.66700000
40.43462372 49.41904831 1.85830331 28 17 4349 63.88000000 3175561897 3175561897 1.66700000
40.37674713 40.53208160 0.99862671 24 18 4349 57.22000000 3175561899 3175561899 1.00000000
11.65567303 14.24552155 -1.17963290 26 19 4349 18.44400000 3175561899 3175561899 -3.66700000
12.27778244 11.17192268 -0.96673566 7 20 4350 16.62800000 3175561902 3175561902 -3.33300000
40.03976059 44.31288147 3.47810888 33 21 4350 59.82400000 3175561902 3175561902 3.33300000
39.61300278 39.73764801 2.28595805 21 22 4351 56.15600000 3175561904 3175561904 2.33300000
12.36773682 13.68284416 -0.85915065 1 23 4351 18.46400000 3175561904 3175561904 -2.66700000
96.63994598 96.87636566 11.17069149 28 26 4353 137.29200000 3175561908 3175561908 4.66700000
18.68878746 22.80886078 -1.20135331 4 27 4353 29.51200000 3175561908 3175561908 -2.33300000
13.11251354 11.91474628 -0.61869830 1 28 4354 17.72800000 3175561911 3175561911 -2.00000000
20.95330620 23.14884186 -0.72655439 16 31 4355 31.23200000 3175561913 3175561913 -1.33300000
3.56184077 3.55935502 -2.34806705 6 0 4362 5.55600000 3175561934 3175561934 -25.00000000
20.97467232 25.51681900 -0.57655770 16 1 4362 33.03600000 3175561934 3175561934 -1.00000000
12.40389347 12.39091110 -0.51024795 3 2 4363 17.54000000 3175561936 3175561936 -1.66700000
6.11240673 6.73395634 -2.54586983 6 3 4363 9.44400000 3175561936 3175561936 -15.63900000
8.36793900 8.35626316 -2.36517453 3 4 4364 12.06000000 3175561938 3175561938 -11.31000000
39.30976486 43.29185486 0.00000000 19 5 4364 58.47600000 3175561938 3175561938 0.00000000
20.94103622 18.96154976 -0.32888389 14 6 4364 28.25200000 3175561941 3175561941 -0.66700000
9.40573597 10.35853958 -2.17678070 1 7 4364 14.16000000 3175561941 3175561941 -8.84300000
11.39863110 11.37875366 -2.05009079 2 8 4365 16.23600000 3175561943 3175561943 -7.25400000
40.15435028 48.79782486 0.36728969 56 9 4365 63.19600000 3175561943 3175561943 0.33300000
37.51525116 37.43675995 -0.30803144 14 10 4366 53.00000000 3175561945 3175561945 -0.33300000
11.97111893 13.17455292 -1.91746557 4 11 4366 17.90400000 3175561945 3175561945 -6.14800000
11.68171692 10.56635666 -1.47037518 1 12 4367 15.82000000 3175561948 3175561948 -5.33300000
40.51335144 44.57045364 1.40155768 17 13 4367 60.24800000 3175561948 3175561948 1.33300000
40.43405533 36.56061554 0.63462532 22 14 4368 54.51600000 3175561950 3175561950 0.66700000
11.66398716 12.82754707 -1.21236753 28 15 4368 17.38000000 3175561950 3175561950 -4.00000000
11.64965343 11.61311245 -1.34283924 26 16 4369 16.50400000 3175561952 3175561952 -4.66700000
40.23310471 48.82401657 1.84119809 28 17 4369 63.29200000 3175561952 3175561952 1.66700000
40.24890137 40.12265396 0.99199480 23 18 4369 56.84000000 3175561955 3175561955 1.00000000
11.63678646 14.12157249 -1.17272544 29 19 4369 18.33600000 3175561955 3175561955 -3.66700000
12.23966980 11.05939102 -0.96068919 7 20 4370 16.52400000 3175561957 3175561957 -3.33300000
39.80988312 43.75049210 3.44485331 32 21 4370 59.25200000 3175561957 3175561957 3.33300000
39.56742477 39.41578674 2.27537417 42 22 4371 55.89600000 3175561959 3175561959 2.33300000
12.48266506 13.71346092 -0.86380380 1 23 4371 18.56400000 3175561959 3175561959 -2.66700000
11.85113811 11.80159950 -0.87652260 2 24 4372 16.74800000 3175561961 3175561961 -3.00000000
97.96359253 97.52005768 11.28427601 28 26 4373 138.68800000 3175561964 3175561964 4.66700000
18.76829147 22.74348450 -1.20135331 4 27 4373 29.51200000 3175561964 3175561964 -2.33300000
13.15105629 11.86622429 -0.61855870 1 28 4374 17.72400000 3175561966 3175561966 -2.00000000
20.96394157 22.99872017 -0.72413504 16 31 4375 31.12800000 3175561968 3175561968 -1.33300000
3.56652379 3.53923941 -2.34299564 5 0 4382 5.54400000 3175561989 3175561989 -25.00000000
20.96924973 25.32946205 -0.57397473 16 1 4382 32.88800000 3175561989 3175561989 -1.00000000
12.44707012 12.34753799 -0.51024795 3 2 4383 17.54000000 3175561991 3175561991 -1.66700000
6.13067770 6.70689297 -2.54371309 6 3 4383 9.43600000 3175561991 3175561991 -15.63900000
8.47503948 8.40433502 -2.38713956 4 4 4384 12.17200000 3175561994 3175561994 -11.31000000
39.33647537 43.01858902 0.00000000 19 5 4384 58.29200000 3175561994 3175561994 0.00000000
20.93868828 18.82682800 -0.32781291 14 6 4384 28.16000000 3175561996 3175561996 -0.66700000
9.44183731 10.32564449 -2.17678070 1 7 4384 14.16000000 3175561996 3175561996 -8.84300000
11.43264484 11.33330917 -2.04908085 2 8 4385 16.22800000 3175561998 3175561998 -7.25400000
40.16364670 48.46333694 0.36582509 28 9 4385 62.94400000 3175561998 3175561998 0.33300000
37.55478287 37.21548462 -0.30728751 14 10 4386 52.87200000 3175562001 3175562001 -0.33300000
12.01971817 13.13562012 -1.91789389 2 11 4386 17.90800000 3175562001 3175562001 -6.14800000
11.71852875 10.52551556 -1.47037518 1 12 4387 15.82000000 3175562003 3175562003 -5.33300000
40.53638077 44.28422928 1.39699805 17 13 4387 60.05200000 3175562003 3175562003 1.33300000
40.35012436 36.22952652 0.63131922 43 14 4388 54.23200000 3175562005 3175562005 0.66700000
11.66018772 12.73378277 -1.20734501 26 15 4388 17.30800000 3175562005 3175562005 -4.00000000
11.63912106 11.52189159 -1.33698106 31 16 4389 16.43200000 3175562008 3175562008 -4.66700000
40.29348755 48.55097961 1.83619452 28 17 4389 63.12000000 3175562008 3175562008 1.66700000
40.80084229 40.38989258 1.00211716 24 18 4389 57.42000000 3175562010 3175562010 1.00000000
11.62737560 14.01021576 -1.16684139 33 19 4389 18.24400000 3175562010 3175562010 -3.66700000
12.28711700 11.02459908 -0.96138686 4 20 4390 16.53600000 3175562012 3175562012 -3.33300000
39.99203491 43.64365005 3.44741130 32 21 4390 59.29600000 3175562012 3175562012 3.33300000
39.70761108 39.28024292 2.27553701 21 22 4391 55.90000000 3175562014 3175562014 2.33300000
12.46835899 13.60205936 -0.85952294 1 23 4391 18.47200000 3175562014 3175562014 -2.66700000
96.32157135 95.21836853 11.05678082 28 26 4393 135.89200000 3175562019 3175562019 4.66700000
12.42028618 14.94437885 -0.79167521 1 27 4393 19.44800000 3175562019 3175562019 -2.33300000
20.96026421 22.83407784 -0.72125041 16 31 4395 31.00400000 3175562024 3175562024 -1.33300000
3.56594563 3.51404548 -2.33454323 6 0 4402 5.52400000 3175562044 3175562044 -25.00000000
20.96533775 25.14552689 -0.57146162 16 1 4402 32.74400000 3175562044 3175562044 -1.00000000
12.49294376 12.30681992 -0.51036435 3 2 4403 17.54400000 3175562047 3175562047 -1.66700000
6.15666056 6.68828583 -2.54479146 6 3 4403 9.44000000 3175562047 3175562047 -15.63900000
8.43166161 8.30314541 -2.36674356 3 4 4404 12.06800000 3175562049 3175562049 -11.31000000
39.48640060 42.88101578 0.00000000 19 5 4404 58.29200000 3175562049 3175562049 0.00000000
20.92968941 18.68702698 -0.32664880 14 6 4404 28.06000000 3175562051 3175562051 -0.66700000
9.46711349 10.28099346 -2.17432117 2 7 4404 14.14400000 3175562051 3175562051 -8.84300000
11.46930790 11.29054832 -2.04857564 2 8 4405 16.22400000 3175562054 3175562054 -7.25400000
40.21723175 48.18465424 0.36477894 56 9 4405 62.76400000 3175562054 3175562054 0.33300000
37.70441818 37.10380554 -0.30745023 14 10 4406 52.90000000 3175562056 3175562056 -0.33300000
12.05202198 13.07896042 -1.91575205 2 11 4406 17.88800000 3175562056 3175562056 -6.14800000
39.35992813 42.69878006 1.35130930 15 13 4407 58.08800000 3175562058 3175562058 1.33300000
40.19272995 35.83559036 0.62689561 43 14 4408 53.85200000 3175562060 3175562060 0.66700000
11.65857983 12.64313507 -1.20260155 26 15 4408 17.24000000 3175562060 3175562060 -4.00000000
11.63946629 11.44206524 -1.33242464 31 16 4409 16.37600000 3175562063 3175562063 -4.66700000
40.32938004 48.25050735 1.83014369 28 17 4409 62.91200000 3175562063 3175562063 1.66700000
40.81608963 40.12386322 0.99904555 24 18 4409 57.24400000 3175562065 3175562065 1.00000000
11.61988926 13.90216160 -1.16121304 29 19 4409 18.15600000 3175562065 3175562065 -3.66700000
12.34043217 10.99492455 -0.96254963 4 20 4410 16.55600000 3175562067 3175562067 -3.33300000
39.98165512 43.32770157 3.43345809 48 21 4410 59.05600000 3175562067 3175562067 3.33300000
39.82737732 39.12459183 2.27455997 21 22 4411 55.87600000 3175562070 3175562070 2.33300000
12.56996727 13.61717415 -0.86324543 1 23 4411 18.55200000 3175562070 3175562070 -2.66700000
11.82778645 11.61502075 -0.86877686 23 24 4412 16.60000000 3175562072 3175562072 -3.00000000
68.04967499 66.80223083 7.78462744 28 26 4413 95.67600000 3175562074 3175562074 4.66700000
12.44415760 14.86721992 -0.78988409 4 27 4413 19.40400000 3175562074 3175562074 -2.33300000
20.83743286 18.53939629 -0.97397518 7 28 4414 27.90800000 3175562077 3175562077 -2.00000000
20.95026588 22.66386986 -0.71817964 16 31 4415 30.87200000 3175562079 3175562079 -1.33300000
3.58596325 3.50918317 -2.33961463 10 0 4422 5.53600000 3175562100 3175562100 -25.00000000
20.96297073 24.96499252 -0.56901824 16 1 4422 32.60400000 3175562100 3175562100 -1.00000000
12.55011749 12.27711678 -0.51094615 3 2 4423 17.56400000 3175562102 3175562102 -1.66700000
6.17473221 6.66110468 -2.54263473 6 3 4423 9.43200000 3175562102 3175562102 -15.63900000
8.45218086 8.26543617 -2.36439013 3 4 4424 12.05600000 3175562104 3175562104 -11.31000000
39.47809219 42.57280350 0.00000000 18 5 4424 58.06000000 3175562104 3175562104 0.00000000
20.93792915 18.56343842 -0.32576406 14 6 4424 27.98400000 3175562107 3175562107 -0.66700000
9.50294304 10.24788475 -2.17432117 2 7 4424 14.14400000 3175562107 3175562107 -8.84300000
11.50297451 11.24489689 -2.04756546 2 8 4425 16.21600000 3175562109 3175562109 -7.25400000
40.12008286 47.72860336 0.36238444 56 9 4425 62.35200000 3175562109 3175562109 0.33300000
37.97674179 37.11174774 -0.30861261 15 10 4426 53.10000000 3175562111 3175562111 -0.33300000
12.09760284 13.03681087 -1.91575205 2 11 4426 17.88800000 3175562111 3175562111 -6.14800000
11.66948414 10.33518505 -1.45513237 35 12 4427 15.65600000 3175562113 3175562113 -5.33300000
40.87720108 44.03532410 1.39811468 17 13 4427 60.10000000 3175562113 3175562113 1.33300000
40.41639709 35.78256607 0.62843221 21 14 4428 53.98400000 3175562116 3175562116 0.66700000
11.66462898 12.56142616 -1.19869530 26 15 4428 17.18400000 3175562116 3175562116 -4.00000000
11.64795494 11.37073231 -1.32884455 31 16 4429 16.33200000 3175562118 3175562118 -4.66700000
40.47695923 48.08496857 1.82921278 28 17 4429 62.88000000 3175562118 3175562118 1.66700000
40.82711411 39.85542679 0.99590415 24 18 4429 57.06400000 3175562120 3175562120 1.00000000
11.61950302 13.80349255 -1.15635228 31 19 4429 18.08000000 3175562120 3175562120 -3.66700000
12.42359829 10.99147129 -0.96603799 4 20 4430 16.61600000 3175562123 3175562123 -3.33300000
40.01576614 43.06209183 3.42345810 32 21 4430 58.88400000 3175562123 3175562123 3.33300000
39.82065964 38.84578705 2.26641846 20 22 4431 55.67600000 3175562125 3175562125 2.33300000
11.85841942 12.75671387 -0.81131667 1 23 4431 17.43600000 3175562125 3175562125 -2.66700000
98.49697876 96.01853943 11.22927380 28 26 4433 138.01200000 3175562130 3175562130 4.66700000
12.34657288 14.64645481 -0.78043997 3 27 4433 19.17200000 3175562130 3175562130 -2.33300000
20.84510040 18.41625786 -0.97132277 11 28 4434 27.83200000 3175562132 3175562132 -2.00000000
20.94630432 22.50937462 -0.71548116 16 31 4434 30.75600000 3175562134 3175562134 -1.33300000
3.61118984 3.50927687 -2.34806705 8 0 4442 5.55600000 3175562155 3175562155 -25.00000000
20.95960045 24.78478241 -0.56657493 16 1 4442 32.46400000 3175562155 3175562155 -1.00000000
12.63304615 12.27223778 -0.51257521 3 2 4443 17.62000000 3175562157 3175562157 -1.66700000
6.19268894 6.63387871 -2.54047823 5 3 4443 9.42400000 3175562157 3175562157 -15.63900000
8.47535324 8.23041630 -2.36282110 1 4 4444 12.04800000 3175562160 3175562160 -11.31000000
39.49814606 42.29733658 0.00000000 18 5 4444 57.87200000 3175562160 3175562160 0.00000000
20.94277382 18.43108177 -0.32478622 14 6 4445 27.90000000 3175562162 3175562162 -0.66700000
9.54043961 10.21298599 -2.17432117 1 7 4445 14.14400000 3175562162 3175562162 -8.84300000
11.54500389 11.20743942 -2.04807067 2 8 4445 16.22000000 3175562164 3175562164 -7.25400000
40.05384064 47.31350708 0.36029217 56 9 4445 61.99200000 3175562164 3175562164 0.33300000
38.57394791 37.43301010 -0.31240198 16 10 4446 53.75200000 3175562166 3175562166 -0.33300000
12.13760567 12.98869133 -1.91489518 2 11 4446 17.88000000 3175562166 3175562166 -6.14800000
11.68754578 10.27860737 -1.45290172 35 12 4447 15.63200000 3175562169 3175562169 -5.33300000
40.89685440 43.74922180 1.39355516 16 13 4447 59.90400000 3175562169 3175562169 1.33300000
40.40287399 35.51979065 0.62629026 21 14 4448 53.80000000 3175562171 3175562171 0.66700000
11.65934753 12.46817112 -1.19367278 26 15 4448 17.11200000 3175562171 3175562171 -4.00000000
11.64750004 11.29115486 -1.32428813 31 16 4449 16.27600000 3175562173 3175562173 -4.66700000
40.37308121 47.62314987 1.81699479 28 17 4449 62.46000000 3175562173 3175562173 1.66700000
40.86090851 39.59697342 0.99318153 23 18 4450 56.90800000 3175562176 3175562176 1.00000000
11.61837959 13.69992352 -1.15123570 31 19 4450 18.00000000 3175562176 3175562176 -3.66700000
12.63288784 11.09826374 -0.97929364 5 20 4450 16.84400000 3175562178 3175562178 -3.33300000
39.80022049 42.53144455 3.39229560 31 21 4450 58.34800000 3175562178 3175562178 3.33300000
40.05361557 38.80110168 2.27195477 21 22 4451 55.81200000 3175562180 3175562180 2.33300000
11.84553337 12.65398502 -0.80740803 1 23 4451 17.35200000 3175562180 3175562180 -2.66700000
12.78379536 12.37970924 -0.93262672 2 24 4452 17.82000000 3175562183 3175562183 -3.00000000
96.93529510 93.83846283 11.01382065 28 26 4453 135.36400000 3175562185 3175562185 4.66700000
11.92685986 14.04875183 -0.75080508 6 27 4453 18.44400000 3175562185 3175562185 -2.33300000
20.84014130 18.28274918 -0.96811205 11 28 4454 27.74000000 3175562187 3175562187 -2.00000000
20.94271851 22.34858322 -0.71268958 16 31 4454 30.63600000 3175562190 3175562190 -1.33300000
3.64428687 3.51678920 -2.36159086 6 0 4462 5.58800000 3175562210 3175562210 -25.00000000
20.96300697 24.61403656 -0.56434101 15 1 4462 32.33600000 3175562210 3175562210 -1.00000000
12.68731785 12.23916912 -0.51304066 3 2 4463 17.63600000 3175562213 3175562213 -1.66700000
6.21053123 6.60660887 -2.53832150 6 3 4463 9.41600000 3175562213 3175562213 -15.63900000
8.50967789 8.20622730 -2.36439013 3 4 4464 12.05600000 3175562215 3175562215 -11.31000000
39.59348679 42.10383987 0.00000000 37 5 4464 57.79600000 3175562215 3175562215 0.00000000
20.94072342 18.29996300 -0.32376179 9 6 4465 27.81200000 3175562217 3175562217 -0.66700000
9.57061481 10.17386341 -2.17309117 1 7 4465 14.13600000 3175562217 3175562217 -8.84300000
11.58119774 11.16431808 -2.04756546 2 8 4465 16.21600000 3175562219 3175562219 -7.25400000
40.08640289 47.01816940 0.35910651 56 9 4465 61.78800000 3175562219 3175562219 0.33300000
38.62373352 37.22042084 -0.31175104 16 10 4466 53.64000000 3175562222 3175562222 -0.33300000
12.18287086 12.94624424 -1.91489518 2 11 4466 17.88000000 3175562222 3175562222 -6.14800000
11.71735382 10.23250866 -1.45215809 26 12 4467 15.62400000 3175562224 3175562224 -5.33300000
40.95886612 43.51011276 1.39048445 16 13 4467 59.77200000 3175562224 3175562224 1.33300000
40.46635437 35.32593155 0.62535900 21 14 4468 53.72000000 3175562226 3175562226 0.66700000
11.65082264 12.37220287 -1.18837130 27 15 4468 17.03600000 3175562226 3175562226 -4.00000000
11.63801575 11.20342541 -1.31875539 33 16 4469 16.20800000 3175562229 3175562229 -4.66700000
