# .PCD v0.7 - Point Cloud Data file format
VERSION 0.7
FIELDS x y z intensity laser_id azimuth distance_m adjustedtime timestamp vertical_angle
SIZE 4 4 4 1 1 2 8 8 4 8
TYPE F F F U U U F U U F
COUNT 1 1 1 1 1 1 1 1 1 1
WIDTH 525
HEIGHT 1
VIEWPOINT 0 0 0 1 0 0 0
POINTS 525
DATA ascii
40.39984512 9.71406078 0.24149664 25 9 8068 41.55200000 3176772318 3176772318 0.33300000
39.98720551 5.55579662 -0.23463859 15 10 8069 40.37200000 3176772320 3176772320 -0.33300000
17.11970711 3.23789668 -1.87676871 4 11 8069 17.52400000 3176772320 3176772320 -6.14800000
19.47756767 1.73832667 -1.82542145 4 12 8070 19.64000000 3176772323 3176772323 -5.33300000
39.82041168 7.52414513 0.94299465 56 13 8070 40.53600000 3176772323 3176772323 1.33300000
39.98696899 3.56170750 0.46736622 17 14 8071 40.14800000 3176772325 3176772325 0.66700000
20.57744026 3.88442802 -1.46432793 24 15 8071 20.99200000 3176772325 3176772325 -4.00000000
20.51158524 2.83892035 -1.69042826 10 16 8072 20.77600000 3176772327 3176772327 -4.66700000
40.18801117 9.63345242 1.20271909 24 17 8072 41.34400000 3176772327 3176772327 1.66700000
39.47364044 5.46337700 0.69558311 25 18 8072 39.85600000 3176772330 3176772330 1.00000000
20.55823326 4.92800570 -1.35487652 19 19 8072 21.18400000 3176772330 3176772330 -3.66700000
20.57220078 1.82516313 -1.20278001 21 20 8073 20.68800000 3176772332 3176772332 -3.33300000
39.86585236 7.51111412 2.36253715 28 21 8073 40.63600000 3176772332 3176772332 3.33300000
39.59928131 5.46667910 1.62861693 25 22 8074 40.00800000 3176772334 3176772334 2.33300000
20.61523247 3.88038445 -0.97715360 24 23 8074 21.00000000 3176772334 3176772334 -2.66700000
20.59267426 2.83915520 -1.08942521 35 24 8075 20.81600000 3176772336 3176772336 -3.00000000
41.97942352 7.89415884 5.24476910 17 25 8075 43.03600000 3176772336 3176772336 7.00000000
40.49789810 5.57632780 3.33724523 26 26 8076 41.01600000 3176772339 3176772339 4.66700000
20.65285683 4.93544388 -0.86511111 24 27 8076 21.25200000 3176772339 3176772339 -2.33300000
34.38602448 3.02653050 -1.20542860 5 28 8077 34.54000000 3176772341 3176772341 -2.00000000
105.89193726 14.54304981 19.48806763 28 30 8078 108.64800000 3176772343 3176772343 10.33300000
39.20987320 7.35209560 -0.92829233 15 31 8078 39.90400000 3176772343 3176772343 -1.33300000
5.81563902 0.79147375 -2.73687577 7 0 8085 6.47600000 3176772364 3176772364 -25.00000000
39.29453278 9.32504845 -0.70493758 25 1 8085 40.39200000 3176772364 3176772364 -1.00000000
39.01659775 5.30298996 -1.14593434 16 2 8086 39.39200000 3176772366 3176772366 -1.66700000
8.73643684 1.62551248 -2.48764133 2 3 8086 9.22800000 3176772366 3176772366 -15.63900000
11.53566456 1.56583393 -2.32830453 2 4 8087 11.87200000 3176772369 3176772369 -11.31000000
39.93986511 7.42404938 0.00000000 19 5 8087 40.62400000 3176772369 3176772369 0.00000000
39.99277496 3.44968534 -0.46731964 19 6 8087 40.14400000 3176772371 3176772371 -0.66700000
13.56953239 2.52231383 -2.14726496 2 7 8087 13.96800000 3176772371 3176772371 -8.84300000
15.90502167 2.15609694 -2.04301977 2 8 8088 16.18000000 3176772373 3176772373 -7.25400000
40.41015244 9.56745052 0.24135715 25 9 8088 41.52800000 3176772373 3176772373 0.33300000
39.97068024 5.41135168 -0.23442934 22 10 8089 40.33600000 3176772376 3176772376 -0.33300000
17.12699318 3.17739272 -1.87634027 2 11 8089 17.52000000 3176772376 3176772376 -6.14800000
19.48748589 1.67066681 -1.82579327 4 12 8090 19.64400000 3176772378 3176772378 -5.33300000
39.99584961 7.41279221 0.94653064 18 13 8090 40.68800000 3176772378 3176772378 1.33300000
39.91945648 3.41528606 0.46643493 25 14 8091 40.06800000 3176772380 3176772380 0.66700000
20.57125664 3.80894327 -1.46293283 26 15 8091 20.97200000 3176772380 3176772380 -4.00000000
20.50951767 2.76570582 -1.68945193 7 16 8092 20.76400000 3176772383 3176772383 -4.66700000
40.03071594 9.44810772 1.19701731 23 17 8092 41.14800000 3176772383 3176772383 1.66700000
39.89278793 5.37953758 0.70263386 17 18 8092 40.26000000 3176772385 3176772385 1.00000000
20.55976868 4.85254622 -1.35385323 26 19 8092 21.16800000 3176772385 3176772385 -3.66700000
20.57048798 1.75266361 -1.20231497 21 20 8093 20.68000000 3176772387 3176772387 -3.33300000
40.07245636 7.40529060 2.37323475 29 21 8093 40.82000000 3176772387 3176772387 3.33300000
39.61019897 5.32735300 1.62829125 25 22 8094 40.00000000 3176772389 3176772389 2.33300000
20.62472153 3.80767488 -0.97696745 24 23 8094 20.99600000 3176772389 3176772389 -2.66700000
20.59849930 2.76672435 -1.08921587 35 24 8095 20.81200000 3176772392 3176772392 -3.00000000
42.14337540 7.77277851 5.26183081 25 25 8095 43.17600000 3176772392 3176772392 7.00000000
40.48155212 5.43015957 3.33431602 26 26 8096 40.98000000 3176772394 3176772394 4.66700000
20.65828705 4.86057568 -0.86462265 22 27 8096 21.24000000 3176772394 3176772394 -2.33300000
34.42824554 2.90917516 -1.20654535 11 28 8097 34.57200000 3176772396 3176772396 -2.00000000
105.10737610 14.06166267 19.33452797 28 30 8098 107.79200000 3176772399 3176772399 10.33300000
39.23136520 7.21445942 -0.92819929 15 31 8098 39.90000000 3176772399 3176772399 -1.33300000
5.82195997 0.77164483 -2.73856640 7 0 8105 6.48000000 3176772419 3176772419 -25.00000000
39.33073807 9.18873787 -0.70500743 59 1 8105 40.39600000 3176772419 3176772419 -1.00000000
39.03487015 5.16676426 -1.14593434 16 2 8106 39.39200000 3176772422 3176772422 -1.66700000
8.74963665 1.59638941 -2.48979807 2 3 8106 9.23600000 3176772422 3176772422 -15.63900000
11.54883671 1.52658534 -2.32987332 4 4 8107 11.88000000 3176772424 3176772424 -11.31000000
39.94979477 7.28171921 0.00000000 19 5 8107 40.60800000 3176772424 3176772424 0.00000000
39.96869659 3.30709505 -0.46690056 28 6 8107 40.10800000 3176772426 3176772426 -0.66700000
13.58214283 2.47564077 -2.14787984 2 7 8107 13.97200000 3176772426 3176772426 -8.84300000
15.90458298 2.09952641 -2.04200983 2 8 8108 16.17200000 3176772429 3176772429 -7.25400000
40.39266205 9.41453075 0.24105494 25 9 8108 41.47600000 3176772429 3176772429 0.33300000
39.89811707 5.25977087 -0.23389466 22 10 8109 40.24400000 3176772431 3176772431 -0.33300000
17.15363121 3.12043619 -1.87805378 2 11 8109 17.53600000 3176772431 3176772431 -6.14800000
19.50510597 1.60361159 -1.82690859 4 12 8110 19.65600000 3176772433 3176772433 -5.33300000
39.94672394 7.25955057 0.94476265 18 13 8110 40.61200000 3176772433 3176772433 1.33300000
39.93910599 3.27657461 0.46652806 25 14 8111 40.07600000 3176772435 3176772435 0.66700000
20.56872177 3.73426199 -1.46181667 26 15 8111 20.95600000 3176772435 3176772435 -4.00000000
20.51904678 2.69409752 -1.68945193 21 16 8112 20.76400000 3176772438 3176772438 -4.66700000
39.98945618 9.29112434 1.19480646 23 17 8112 41.07200000 3176772438 3176772438 1.66700000
39.86373901 5.23400497 0.70179617 17 18 8112 40.21200000 3176772440 3176772440 1.00000000
20.55325317 4.77532959 -1.35231817 33 19 8112 21.14400000 3176772440 3176772440 -3.66700000
20.57250214 1.68052340 -1.20208240 21 20 8113 20.67600000 3176772442 3176772442 -3.33300000
40.10592270 7.26679039 2.37369990 35 21 8113 40.82800000 3176772442 3176772442 3.33300000
39.61270523 5.18697977 1.62763989 25 22 8114 39.98400000 3176772445 3176772445 2.33300000
20.63002396 3.73423457 -0.97659522 24 23 8114 20.98800000 3176772445 3176772445 -2.66700000
20.60011101 2.69376945 -1.08879721 31 24 8115 20.80400000 3176772447 3176772447 -3.00000000
41.35763168 7.47867775 5.16043568 16 25 8115 42.34400000 3176772447 3176772447 7.00000000
40.70187378 5.31514740 3.35091448 17 26 8116 41.18400000 3176772449 3176772449 4.66700000
20.64787292 4.78212261 -0.86348283 24 27 8116 21.21200000 3176772449 3176772449 -2.33300000
34.42623901 2.78801227 -1.20612657 17 28 8117 34.56000000 3176772452 3176772452 -2.00000000
105.21044922 13.70179844 19.34457397 28 30 8118 107.84800000 3176772454 3176772454 10.33300000
39.22875977 7.07250595 -0.92754793 10 31 8118 39.87200000 3176772454 3176772454 -1.33300000
5.82461834 0.75131774 -2.73856640 7 0 8125 6.48000000 3176772475 3176772475 -25.00000000
39.35087967 9.04870319 -0.70479798 25 1 8125 40.38400000 3176772475 3176772475 -1.00000000
39.04870224 5.02996492 -1.14581800 16 2 8126 39.38800000 3176772477 3176772477 -1.66700000
8.75894737 1.56651592 -2.49087644 2 3 8126 9.24000000 3176772477 3176772477 -15.63900000
11.56576538 1.48776436 -2.33222675 2 4 8127 11.89200000 3176772479 3176772479 -11.31000000
39.90803146 7.13026381 0.00000000 19 5 8127 40.54000000 3176772479 3176772479 0.00000000
39.90025330 3.16124010 -0.46596926 28 6 8127 40.02800000 3176772482 3176772482 -0.66700000
13.59848309 2.42960548 -2.14910984 2 7 8127 13.98000000 3176772482 3176772482 -8.84300000
15.90787983 2.04349065 -2.04150462 2 8 8128 16.16800000 3176772484 3176772484 -7.25400000
40.36679840 9.26006222 0.24070622 25 9 8128 41.41600000 3176772484 3176772484 0.33300000
39.92416763 5.12148619 -0.23394115 22 10 8129 40.25200000 3176772486 3176772486 -0.33300000
17.16441917 3.06053972 -1.87805378 2 11 8129 17.53600000 3176772486 3176772486 -6.14800000
19.52249718 1.53645372 -1.82802391 6 12 8130 19.66800000 3176772488 3176772488 -5.33300000
39.76316452 7.08289862 0.93983084 18 13 8130 40.40000000 3176772488 3176772488 1.33300000
40.04599762 3.14465594 0.46764559 17 14 8131 40.17200000 3176772491 3176772491 0.66700000
20.56984520 3.66034365 -1.46097958 24 15 8131 20.94400000 3176772491 3176772491 -4.00000000
20.51250839 2.62043548 -1.68815005 18 16 8132 20.74800000 3176772493 3176772493 -4.66700000
39.93979263 9.13276196 1.19236279 23 17 8132 40.98800000 3176772493 3176772493 1.66700000
39.62390137 5.06188107 0.69725853 25 18 8132 39.95200000 3176772495 3176772495 1.00000000
20.55034065 4.69910717 -1.35103905 30 19 8132 21.12400000 3176772495 3176772495 -3.66700000
20.57426071 1.60839057 -1.20184982 21 20 8133 20.67200000 3176772498 3176772498 -3.33300000
40.18608475 7.13652515 2.37695575 29 21 8133 40.88400000 3176772498 3176772498 3.33300000
39.61470795 5.04665375 1.62698853 25 22 8134 39.96800000 3176772500 3176772500 2.33300000
20.63506508 3.66080356 -0.97622299 24 23 8134 20.98000000 3176772500 3176772500 -2.66700000
20.59749985 2.62033296 -1.08816922 28 24 8135 20.79200000 3176772502 3176772502 -3.00000000
41.31311798 7.32179642 5.15166092 41 25 8135 42.27200000 3176772502 3176772502 7.00000000
40.47497177 5.14188814 3.33073616 26 26 8136 40.93600000 3176772505 3176772505 4.66700000
20.65275002 4.70735455 -0.86299437 22 27 8136 21.20000000 3176772505 3176772505 -2.33300000
34.33612061 2.66010594 -1.20263660 11 28 8137 34.46000000 3176772507 3176772507 -2.00000000
106.81294250 13.55043602 19.63084602 28 30 8137 109.44400000 3176772509 3176772509 10.33300000
39.23624802 6.93959379 -0.92717570 10 31 8137 39.85600000 3176772509 3176772509 -1.33300000
5.83067465 0.73245031 -2.74025679 5 0 8144 6.48400000 3176772530 3176772530 -25.00000000
39.32215881 8.90491104 -0.70375085 17 1 8144 40.32400000 3176772530 3176772530 -1.00000000
39.05723190 4.89945173 -1.14558518 16 2 8145 39.38000000 3176772532 3176772532 -1.66700000
8.76409435 1.53746152 -2.49087644 2 3 8145 9.24000000 3176772532 3176772532 -15.63900000
11.57063580 1.44940269 -2.33222675 4 4 8146 11.89200000 3176772535 3176772535 -11.31000000
39.67929840 6.95369482 0.00000000 19 5 8146 40.28400000 3176772535 3176772535 0.00000000
39.93098831 3.02345276 -0.46620211 28 6 8147 40.04800000 3176772537 3176772537 -0.66700000
13.61466789 2.38348627 -2.15033960 2 7 8147 13.98800000 3176772537 3176772537 -8.84300000
15.93031788 1.99269700 -2.04352498 2 8 8147 16.18400000 3176772539 3176772539 -7.25400000
40.17879486 9.07679081 0.23940435 25 9 8147 41.19200000 3176772539 3176772539 0.33300000
40.02031326 4.99898052 -0.23440610 22 10 8148 40.33200000 3176772541 3176772541 -0.33300000
17.17447472 3.00360370 -1.87805378 4 11 8148 17.53600000 3176772541 3176772541 -6.14800000
19.53939819 1.47260427 -1.82913923 6 12 8149 19.68000000 3176772544 3176772544 -5.33300000
39.73916245 6.94274139 0.93871421 18 13 8149 40.35200000 3176772544 3176772544 1.33300000
40.02030945 3.00914216 0.46722651 25 14 8150 40.13600000 3176772546 3176772546 0.66700000
20.57400894 3.59073949 -1.46042156 26 15 8150 20.93600000 3176772546 3176772546 -4.00000000
20.51712799 2.55190706 -1.68782461 18 16 8151 20.74400000 3176772548 3176772548 -4.66700000
39.89964676 8.98445702 1.19026828 23 17 8151 40.91600000 3176772548 3176772548 1.66700000
39.53813553 4.91072035 0.69544351 16 18 8152 39.84800000 3176772551 3176772551 1.00000000
20.55882835 4.62559175 -1.35052741 28 19 8152 21.11600000 3176772551 3176772551 -3.66700000
20.56753540 1.53926098 -1.20115221 21 20 8152 20.66000000 3176772553 3176772553 -3.33300000
40.17412567 6.99705744 2.37486267 17 21 8152 40.84800000 3176772553 3176772553 3.33300000
39.55190277 4.90542030 1.62373197 25 22 8153 39.88800000 3176772555 3176772555 2.33300000
20.62740898 3.58893061 -0.97529233 24 23 8153 20.96000000 3176772555 3176772555 -2.66700000
20.60211182 2.55152392 -1.08795989 28 24 8154 20.78800000 3176772558 3176772558 -3.00000000
41.45451736 7.20515251 5.16628504 16 25 8154 42.39200000 3176772558 3176772558 7.00000000
40.48388672 5.00666142 3.33008504 26 26 8155 40.92800000 3176772560 3176772560 4.66700000
20.64874840 4.63446522 -0.86218017 24 27 8155 21.18000000 3176772560 3176772560 -2.33300000
34.34076691 2.54593301 -1.20249701 11 28 8156 34.45600000 3176772562 3176772562 -2.00000000
112.36789703 13.87667942 20.64320374 28 30 8156 115.08800000 3176772565 3176772565 10.33300000
39.23934555 6.80602646 -0.92671043 10 31 8156 39.83600000 3176772565 3176772565 -1.33300000
5.82959700 0.71165371 -2.73856640 7 0 8164 6.48000000 3176772585 3176772585 -25.00000000
39.34519577 8.76585770 -0.70361120 25 1 8164 40.31600000 3176772585 3176772585 -1.00000000
39.02647018 4.75728130 -1.14418888 16 2 8165 39.33200000 3176772588 3176772588 -1.66700000
8.76561165 1.50620747 -2.48979807 2 3 8165 9.23600000 3176772588 3176772588 -15.63900000
11.57562447 1.40900481 -2.33222675 2 4 8166 11.89200000 3176772590 3176772590 -11.31000000
39.67179108 6.80973244 0.00000000 19 5 8166 40.25200000 3176772590 3176772590 0.00000000
39.99714661 2.88808203 -0.46685401 19 6 8167 40.10400000 3176772592 3176772592 -0.66700000
13.63069630 2.33728361 -2.15156937 2 7 8167 13.99600000 3176772592 3176772592 -8.84300000
15.94505405 1.93803525 -2.04453516 2 8 8167 16.19200000 3176772594 3176772594 -7.25400000
40.18680573 8.93127823 0.23926486 25 9 8167 41.16800000 3176772594 3176772594 0.33300000
40.06134415 4.86214495 -0.23454559 22 10 8168 40.35600000 3176772597 3176772597 -0.33300000
17.19269371 2.94497824 -1.87891066 2 11 8168 17.54400000 3176772597 3176772597 -6.14800000
19.54442024 1.40439010 -1.82913923 4 12 8169 19.68000000 3176772599 3176772599 -5.33300000
39.79074860 6.80870485 0.93936563 12 13 8169 40.38000000 3176772599 3176772599 1.33300000
39.94280243 2.86313558 0.46620211 25 14 8170 40.04800000 3176772601 3176772601 0.66700000
20.56281853 3.51486707 -1.45874739 26 15 8170 20.91200000 3176772601 3176772601 -4.00000000
20.52591133 2.48027325 -1.68782461 15 16 8171 20.74400000 3176772604 3176772604 -4.66700000
39.93466949 8.84599113 1.19038463 23 17 8171 40.92000000 3176772604 3176772604 1.66700000
39.70508194 4.79781199 0.69809628 17 18 8171 40.00000000 3176772606 3176772606 1.00000000
20.55067062 4.55221128 -1.34899247 28 19 8171 21.09200000 3176772606 3176772606 -3.66700000
20.57278252 1.46745741 -1.20115221 21 20 8172 20.66000000 3176772608 3176772608 -3.33300000
40.18649673 6.85476685 2.37416506 17 21 8172 40.83600000 3176772608 3176772608 3.33300000
39.58862305 4.76971912 1.62454617 25 22 8173 39.90800000 3176772611 3176772611 2.33300000
20.62799454 3.51489210 -0.97473395 24 23 8173 20.94800000 3176772611 3176772611 -2.66700000
20.59502983 2.47768497 -1.08712244 28 24 8174 20.77200000 3176772613 3176772613 -3.00000000
41.42070770 7.05041265 5.15897322 24 25 8174 42.33200000 3176772613 3176772613 7.00000000
40.61194992 4.87862968 3.33919787 26 26 8175 41.04000000 3176772615 3176772615 4.66700000
20.65309143 4.55977488 -0.86169171 22 27 8175 21.16800000 3176772615 3176772615 -2.33300000
34.36140442 2.42689085 -1.20291591 11 28 8176 34.46800000 3176772618 3176772618 -2.00000000
111.58734131 13.38500118 20.49109840 28 30 8176 114.24000000 3176772620 3176772620 10.33300000
39.25891876 6.66834450 -0.92661738 15 31 8176 39.83200000 3176772620 3176772620 -1.33300000
5.82868671 0.68883902 -2.73687577 8 0 8186 6.47600000 3176772640 3176772640 -25.00000000
39.38637924 8.61642838 -0.70375085 17 1 8186 40.32400000 3176772640 3176772640 -1.00000000
39.00871277 4.60317850 -1.14314163 16 2 8187 39.29600000 3176772642 3176772642 -1.66700000
8.77132988 1.47253895 -2.48979807 2 3 8187 9.23600000 3176772642 3176772642 -15.63900000
11.58094978 1.36454737 -2.33222675 2 4 8188 11.89200000 3176772645 3176772645 -11.31000000
39.76865387 6.66926193 0.00000000 13 5 8188 40.32400000 3176772645 3176772645 0.00000000
40.02741623 2.74283290 -0.46708682 19 6 8188 40.12400000 3176772647 3176772647 -0.66700000
13.62747669 2.28534794 -2.14972472 2 7 8188 13.98400000 3176772647 3176772647 -8.84300000
15.96026039 1.87772369 -2.04554534 2 8 8189 16.20000000 3176772649 3176772649 -7.25400000
40.27160645 8.78799343 0.23956709 25 9 8189 41.22000000 3176772649 3176772649 0.33300000
40.03601837 4.70315123 -0.23428987 22 10 8190 40.31200000 3176772652 3176772652 -0.33300000
17.21171951 2.88025427 -1.87976742 2 11 8190 17.55200000 3176772652 3176772652 -6.14800000
19.56158829 1.33014536 -1.83025455 4 12 8191 19.69200000 3176772654 3176772654 -5.33300000
39.83631897 6.65916634 0.93983084 18 13 8191 40.40000000 3176772654 3176772654 1.33300000
40.02133942 2.71434665 0.46699369 17 14 8192 40.11600000 3176772656 3176772656 0.66700000
20.56042099 3.43325686 -1.45763123 24 15 8192 20.89600000 3176772656 3176772656 -4.00000000
20.52340317 2.40005231 -1.68684828 18 16 8193 20.73200000 3176772658 3176772658 -4.66700000
39.88629532 8.67474365 1.18794107 23 17 8193 40.83600000 3176772658 3176772658 1.66700000
39.77088165 4.65089464 0.69893396 17 18 8193 40.04800000 3176772661 3176772661 1.00000000
20.56019783 4.47157192 -1.34848082 28 19 8193 21.08400000 3176772661 3176772661 -3.66700000
20.57029724 1.38791537 -1.20068705 21 20 8194 20.65200000 3176772663 3176772663 -3.33300000
40.07071686 6.67678404 2.36579299 35 21 8194 40.69200000 3176772663 3176772663 3.33300000
39.67810059 4.62600565 1.62747705 25 22 8195 39.98000000 3176772665 3176772665 2.33300000
20.61768913 3.43172455 -0.97361726 24 23 8195 20.92400000 3176772665 3176772665 -2.66700000
20.59248734 2.39720201 -1.08649445 31 24 8196 20.76000000 3176772668 3176772668 -3.00000000
41.52580261 6.90434027 5.16872263 24 25 8196 42.41200000 3176772668 3176772668 7.00000000
40.60662079 4.71989393 3.33724523 26 26 8197 41.01600000 3176772670 3176772670 4.66700000
20.65482330 4.47705269 -0.86104041 22 27 8197 21.15200000 3176772670 3176772670 -2.33300000
34.40238190 2.29706550 -1.20403266 5 28 8198 34.50000000 3176772672 3176772672 -2.00000000
110.34407043 12.80627918 20.25361443 28 30 8198 112.91600000 3176772675 3176772675 10.33300000
39.30395889 6.52082491 -0.92708266 15 31 8198 39.85200000 3176772675 3176772675 -1.33300000
5.84186029 0.66972756 -2.74194717 7 0 8206 6.48800000 3176772695 3176772695 -25.00000000
39.43576431 8.48309708 -0.70409989 25 1 8206 40.34400000 3176772695 3176772695 -1.00000000
39.01659775 4.46607542 -1.14290893 24 2 8207 39.28800000 3176772698 3176772698 -1.66700000
8.78781986 1.44378579 -2.49303293 2 3 8207 9.24800000 3176772698 3176772698 -15.63900000
11.60122967 1.32589555 -2.33536458 2 4 8208 11.90800000 3176772700 3176772700 -11.31000000
39.83116531 6.53688097 0.00000000 19 5 8208 40.36400000 3176772700 3176772700 0.00000000
40.11657333 2.60828471 -0.46801811 9 6 8208 40.20400000 3176772702 3176772702 -0.66700000
13.63927174 2.23840523 -2.15033960 2 7 8208 13.98800000 3176772702 3176772702 -8.84300000
15.96671677 1.82200062 -2.04554534 2 8 8209 16.20000000 3176772705 3176772705 -7.25400000
40.16124344 8.61715603 0.23873016 25 9 8209 41.07600000 3176772705 3176772705 0.33300000
40.09590912 4.56835175 -0.23454559 22 10 8210 40.35600000 3176772707 3176772707 -0.33300000
17.22167015 2.82015657 -1.87976742 2 11 8210 17.55200000 3176772707 3176772707 -6.14800000
19.58201027 1.26287985 -1.83174169 6 12 8211 19.70800000 3176772709 3176772709 -5.33300000
39.42520905 6.44905996 0.92959505 42 13 8211 39.96000000 3176772709 3176772709 1.33300000
39.97468948 2.57103539 0.46634179 17 14 8212 40.06000000 3176772711 3176772711 0.66700000
20.55652618 3.35889292 -1.45651519 22 15 8212 20.88000000 3176772711 3176772711 -4.00000000
20.52373505 2.32749915 -1.68619740 18 16 8213 20.72400000 3176772714 3176772714 -4.66700000
39.91242218 8.53462601 1.18782473 23 17 8213 40.83200000 3176772714 3176772714 1.66700000
39.83456039 4.51744795 0.69977170 17 18 8213 40.09600000 3176772716 3176772716 1.00000000
20.55616188 4.39560270 -1.34720159 28 19 8213 21.06400000 3176772716 3176772716 -3.66700000
20.57103157 1.31584823 -1.20045447 21 20 8214 20.64800000 3176772718 3176772718 -3.33300000
40.08983994 6.53622770 2.36556053 17 21 8214 40.68800000 3176772718 3176772718 3.33300000
39.76549149 4.49555683 1.63040805 25 22 8215 40.05200000 3176772721 3176772721 2.33300000
20.61771202 3.35780764 -0.97305888 24 23 8215 20.91200000 3176772721 3176772721 -2.66700000
20.59676170 2.32485819 -1.08628511 31 24 8216 20.75600000 3176772723 3176772723 -3.00000000
41.63193893 6.77273321 5.17895985 24 25 8216 42.49600000 3176772723 3176772723 7.00000000
40.56738663 4.57187080 3.33268881 26 26 8217 40.96000000 3176772725 3176772725 4.66700000
20.64687157 4.39992857 -0.86006343 24 27 8217 21.12800000 3176772725 3176772725 -2.33300000
34.64158630 2.19160414 -1.21212935 6 28 8218 34.73200000 3176772728 3176772728 -2.00000000
107.88150024 12.13898182 19.79371262 28 30 8218 110.35200000 3176772730 3176772730 10.33300000
39.35016632 6.38743305 -0.92764097 15 31 8218 39.87600000 3176772730 3176772730 -1.33300000
5.83312702 0.65016681 -2.73687577 8 0 8224 6.47600000 3176772751 3176772751 -25.00000000
39.47787094 8.36247921 -0.70437914 25 1 8224 40.36000000 3176772751 3176772751 -1.00000000
39.04632950 4.34524822 -1.14337432 24 2 8225 39.30400000 3176772753 3176772753 -1.66700000
8.79231167 1.41617095 -2.49303293 2 3 8225 9.24800000 3176772753 3176772753 -15.63900000
11.60533810 1.28944266 -2.33536458 4 4 8226 11.90800000 3176772755 3176772755 -11.31000000
39.94233704 6.42632914 0.00000000 19 5 8226 40.45600000 3176772755 3176772755 0.00000000
40.14852142 2.48372388 -0.46829748 19 6 8226 40.22800000 3176772758 3176772758 -0.66700000
13.65794277 2.19742870 -2.15218425 2 7 8226 14.00000000 3176772758 3176772758 -8.84300000
15.97630596 1.77226830 -2.04605031 2 8 8227 16.20400000 3176772760 3176772760 -7.25400000
40.27030182 8.50830746 0.23921837 25 9 8227 41.16000000 3176772760 3176772760 0.33300000
40.06235504 4.43708038 -0.23426662 22 10 8228 40.30800000 3176772762 3176772762 -0.33300000
17.26185799 2.77108216 -1.88319445 2 11 8228 17.58400000 3176772762 3176772762 -6.14800000
19.59383202 1.20184267 -1.83248520 6 12 8229 19.71600000 3176772764 3176772764 -5.33300000
39.55978012 6.34353209 0.93229359 12 13 8229 40.07600000 3176772764 3176772764 1.33300000
40.00652313 2.44690394 0.46662119 17 14 8230 40.08400000 3176772767 3176772767 0.66700000
20.55909729 3.29303384 -1.45595717 24 15 8230 20.87200000 3176772767 3176772767 -4.00000000
20.52301979 2.26213694 -1.68554640 21 16 8231 20.71600000 3176772769 3176772769 -4.66700000
39.92729950 8.40672398 1.18747556 46 17 8231 40.82000000 3176772769 3176772769 1.66700000
39.78571701 4.37832737 0.69865471 25 18 8232 40.03200000 3176772771 3176772771 1.00000000
20.56281281 4.32576847 -1.34668994 28 19 8232 21.05600000 3176772771 3176772771 -3.66700000
20.56310654 1.25048888 -1.19975686 25 20 8232 20.63600000 3176772774 3176772774 -3.33300000
39.85386658 6.36928749 2.35044432 40 21 8232 40.42800000 3176772774 3176772774 3.33300000
39.58078003 4.34878302 1.62226653 25 22 8233 39.85200000 3176772776 3176772776 2.33300000
20.62421227 3.29238868 -0.97287273 24 23 8233 20.90800000 3176772776 3176772776 -2.66700000
20.59602165 2.25926900 -1.08586645 35 24 8234 20.74800000 3176772778 3176772778 -3.00000000
41.63732910 6.63940907 5.17700958 41 25 8234 42.48000000 3176772778 3176772778 7.00000000
40.77970123 4.46610355 3.34896183 26 26 8235 41.16000000 3176772781 3176772781 4.66700000
20.64103508 4.33093929 -0.85924929 30 27 8235 21.10800000 3176772781 3176772781 -2.33300000
34.75603867 2.08924007 -1.21589851 6 28 8236 34.84000000 3176772783 3176772783 -2.00000000
107.11326599 11.71189213 19.64591217 28 30 8236 109.52800000 3176772785 3176772785 10.33300000
39.37003708 6.26377964 -0.92764097 25 31 8236 39.87600000 3176772785 3176772785 -1.33300000
5.84256935 0.63057947 -2.74025679 7 0 8244 6.48400000 3176772806 3176772806 -25.00000000
39.47941589 8.21891880 -0.70389044 25 1 8244 40.33200000 3176772806 3176772806 -1.00000000
39.06523514 4.20935297 -1.14349067 24 2 8245 39.30800000 3176772808 3176772808 -1.66700000
8.78959179 1.38427293 -2.49087644 2 3 8245 9.24000000 3176772808 3176772808 -15.63900000
11.60976887 1.24892461 -2.33536458 4 4 8246 11.90800000 3176772810 3176772810 -11.31000000
39.91315842 6.27878475 0.00000000 19 5 8246 40.40400000 3176772810 3176772810 0.00000000
40.14537811 2.33585835 -0.46815780 19 6 8247 40.21600000 3176772813 3176772813 -0.66700000
13.67371464 2.14858222 -2.15341401 2 7 8247 14.00800000 3176772813 3176772813 -8.84300000
15.99028587 1.71733713 -2.04706049 2 8 8247 16.21200000 3176772815 3176772815 -7.25400000
39.98252487 8.30181789 0.23733531 34 9 8247 40.83600000 3176772815 3176772815 0.33300000
40.08555222 4.29806280 -0.23431312 15 10 8248 40.31600000 3176772817 3176772817 -0.33300000
17.27535439 2.71142673 -1.88362288 2 11 8248 17.58800000 3176772817 3176772817 -6.14800000
19.60188293 1.13367009 -1.83285701 6 12 8249 19.72000000 3176772820 3176772820 -5.33300000
39.60538483 6.20912027 0.93285191 18 13 8249 40.10000000 3176772820 3176772820 1.33300000
39.95492554 2.30378652 0.46592271 25 14 8250 40.02400000 3176772822 3176772822 0.66700000
20.56258202 3.22001457 -1.45539904 26 15 8250 20.86400000 3176772822 3176772822 -4.00000000
20.51889801 2.18921566 -1.68457007 21 16 8251 20.70400000 3176772824 3176772824 -4.66700000
39.94073868 8.26406002 1.18701017 23 17 8251 40.80400000 3176772824 3176772824 1.66700000
39.86762238 4.25358200 0.69984150 25 18 8251 40.10000000 3176772827 3176772827 1.00000000
20.55359077 4.25270319 -1.34515500 26 19 8251 21.03200000 3176772827 3176772827 -3.66700000
20.55937386 1.17824566 -1.19929171 21 20 8252 20.62800000 3176772829 3176772829 -3.33300000
39.86796570 6.22889996 2.34997916 28 21 8252 40.42000000 3176772829 3176772829 3.33300000
39.58777237 4.20974874 1.62194085 25 22 8253 39.84400000 3176772831 3176772831 2.33300000
20.61189270 3.21668005 -0.97175598 24 23 8253 20.88400000 3176772831 3176772831 -2.66700000
20.59583855 2.18651843 -1.08544779 35 24 8254 20.74000000 3176772834 3176772834 -3.00000000
41.67594147 6.49647284 5.17895985 24 25 8254 42.49600000 3176772834 3176772834 7.00000000
40.72764587 4.31658554 3.34342885 17 26 8255 41.09200000 3176772836 3176772836 4.66700000
20.64819908 4.25724792 -0.85892361 26 27 8255 21.10000000 3176772836 3176772836 -2.33300000
34.90680313 1.97603989 -1.22092402 6 28 8256 34.98400000 3176772838 3176772838 -2.00000000
108.50167084 11.46142673 19.89272499 28 30 8257 110.90400000 3176772840 3176772840 10.33300000
39.32555771 6.10900354 -0.92605907 25 31 8257 39.80800000 3176772840 3176772840 -1.33300000
5.84473515 0.61018121 -2.74025679 7 0 8264 6.48400000 3176772861 3176772861 -25.00000000
39.45692444 8.07064056 -0.70298290 25 1 8264 40.28000000 3176772861 3176772861 -1.00000000
39.06776047 4.07172060 -1.14314163 24 2 8265 39.29600000 3176772863 3176772863 -1.66700000
8.79817772 1.35416901 -2.49195457 2 3 8265 9.24400000 3176772863 3176772863 -15.63900000
11.60625458 1.20757961 -2.33379579 2 4 8266 11.90000000 3176772866 3176772866 -11.31000000
40.04552841 6.15644217 0.00000000 13 5 8266 40.51600000 3176772866 3176772866 0.00000000
40.16926193 2.19658422 -0.46834406 28 6 8267 40.23200000 3176772868 3176772868 -0.66700000
13.67722416 2.10023904 -2.15279913 2 7 8267 14.00400000 3176772868 3176772868 -8.84300000
16.00802422 1.66273999 -2.04857564 2 8 8267 16.22400000 3176772870 3176772870 -7.25400000
40.01910019 8.16380119 0.23738180 25 9 8267 40.84400000 3176772870 3176772870 0.33300000
40.08439636 4.15646172 -0.23422012 15 10 8268 40.30000000 3176772873 3176772873 -0.33300000
17.28864479 2.65171099 -1.88405132 4 11 8268 17.59200000 3176772873 3176772873 -6.14800000
19.61367416 1.06567192 -1.83360052 6 12 8269 19.72800000 3176772875 3176772875 -5.33300000
39.80074310 6.09747887 0.93694621 18 13 8269 40.27600000 3176772875 3176772875 1.33300000
39.93077087 2.16257334 0.46555018 25 14 8270 39.99200000 3176772877 3176772877 0.66700000
20.55397606 3.14520025 -1.45400393 24 15 8270 20.84400000 3176772877 3176772877 -4.00000000
20.53038025 2.11798692 -1.68489552 21 16 8271 20.70800000 3176772880 3176772880 -4.66700000
39.86746979 8.10388279 1.18398476 23 17 8271 40.70000000 3176772880 3176772880 1.66700000
39.98168182 4.12465239 0.70158672 17 18 8271 40.20000000 3176772882 3176772882 1.00000000
20.55266380 4.17775106 -1.34413171 30 19 8271 21.01600000 3176772882 3176772882 -3.66700000
20.56336021 1.10647297 -1.19929171 25 20 8272 20.62800000 3176772884 3176772884 -3.33300000
39.90920639 6.09271002 2.35114193 34 21 8272 40.44000000 3176772884 3176772884 3.33300000
39.57041931 4.06826591 1.62063825 25 22 8273 39.81200000 3176772887 3176772887 2.33300000
20.61509514 3.14350700 -0.97138375 24 23 8273 20.87600000 3176772887 3176772887 -2.66700000
20.58745003 2.11298084 -1.08461034 31 24 8274 20.72400000 3176772889 3176772889 -3.00000000
41.58454514 6.33362103 5.16482258 66 25 8274 42.38000000 3176772889 3176772889 7.00000000
40.80591965 4.18089485 3.34863615 26 26 8275 41.15600000 3176772891 3176772891 4.66700000
20.63943100 4.18038607 -0.85794663 28 27 8275 21.07600000 3176772891 3176772891 -2.33300000
34.96538162 1.85693645 -1.22273874 6 28 8276 35.03600000 3176772893 3176772893 -2.00000000
108.72698975 11.12077904 19.92716408 28 30 8276 111.09600000 3176772896 3176772896 10.33300000
39.34559631 5.97856188 -0.92605907 15 31 8276 39.80800000 3176772896 3176772896 -1.33300000
5.85043621 0.59013945 -2.74194717 7 0 8284 6.48800000 3176772916 3176772916 -25.00000000
39.41035843 7.91789389 -0.70165652 25 1 8284 40.20400000 3176772916 3176772916 -1.00000000
39.08173752 3.93532395 -1.14314163 24 2 8285 39.29600000 3176772919 3176772919 -1.66700000
8.81046867 1.32459474 -2.49411130 2 3 8285 9.25200000 3176772919 3176772919 -15.63900000
11.62991238 1.16902030 -2.33771801 2 4 8286 11.92000000 3176772921 3176772921 -11.31000000
40.01931000 6.00949144 0.00000000 13 5 8286 40.46800000 3176772921 3176772921 0.00000000
40.03651810 2.05618596 -0.46671429 28 6 8286 40.09200000 3176772923 3176772923 -0.66700000
13.68802261 2.05545926 -2.15341401 2 7 8286 14.00800000 3176772923 3176772923 -8.84300000
16.01767731 1.60724759 -2.04908085 2 8 8287 16.22800000 3176772926 3176772926 -7.25400000
39.84733200 7.98398209 0.23619618 25 9 8287 40.64000000 3176772926 3176772926 0.33300000
40.01110077 4.00774527 -0.23370868 22 10 8288 40.21200000 3176772928 3176772928 -0.33300000
17.30959511 2.59311390 -1.88533640 4 11 8288 17.60400000 3176772928 3176772928 -6.14800000
19.63716316 0.99821192 -1.83545947 6 12 8289 19.74800000 3176772930 3176772930 -5.33300000
39.81782913 5.95791912 0.93685317 18 13 8289 40.27200000 3176772930 3176772930 1.33300000
39.94606781 2.02358055 0.46564332 17 14 8290 40.00000000 3176772933 3176772933 0.66700000
20.54904366 3.07107520 -1.45288789 26 15 8290 20.82800000 3176772933 3176772933 -4.00000000
20.52178001 2.04472852 -1.68359363 23 16 8291 20.69200000 3176772935 3176772935 -4.66700000
39.71515274 7.92866278 1.17863202 31 17 8291 40.51600000 3176772935 3176772935 1.66700000
39.98389816 3.98387575 0.70137733 25 18 8291 40.18800000 3176772937 3176772937 1.00000000
20.55537796 4.10363913 -1.34336412 33 19 8291 21.00400000 3176772937 3176772937 -3.66700000
20.55912209 1.03428543 -1.19882667 25 20 8292 20.62000000 3176772940 3176772940 -3.33300000
39.95392609 5.95689678 2.35253739 17 21 8292 40.46400000 3176772940 3176772940 3.33300000
39.50881195 3.92261219 1.61754453 24 22 8293 39.73600000 3176772942 3176772942 2.33300000
20.61013412 3.06917357 -0.97063923 24 23 8293 20.86000000 3176772942 3176772942 -2.66700000
20.59072495 2.04071045 -1.08440101 35 24 8294 20.72000000 3176772944 3176772944 -3.00000000
40.97808075 6.09497118 5.08682632 16 25 8294 41.74000000 3176772944 3176772944 7.00000000
40.92341614 4.04863501 3.35709810 26 26 8295 41.26000000 3176772946 3176772946 4.66700000
20.63821793 4.10519648 -0.85729533 26 27 8295 21.06000000 3176772946 3176772946 -2.33300000
35.09941483 1.74121130 -1.22720587 6 28 8296 35.16400000 3176772949 3176772949 -2.00000000
106.88334656 10.53650951 19.58205795 28 30 8297 109.17200000 3176772951 3176772951 10.33300000
39.34746933 5.83138180 -0.92559379 15 31 8297 39.78800000 3176772951 3176772951 -1.33300000
5.85246038 0.56971401 -2.74194717 8 0 8304 6.48800000 3176772972 3176772972 -25.00000000
39.45344925 7.78337383 -0.70193577 25 1 8304 40.22000000 3176772972 3176772972 -1.00000000
39.11911011 3.80119944 -1.14383984 16 2 8305 39.32000000 3176772974 3176772974 -1.66700000
8.82266140 1.29495108 -2.49626780 2 3 8305 9.26000000 3176772974 3176772974 -15.63900000
11.63392258 1.12841713 -2.33771801 4 4 8306 11.92000000 3176772976 3176772976 -11.31000000
39.75904465 5.82856798 0.00000000 13 5 8306 40.18400000 3176772976 3176772976 0.00000000
40.02746964 1.91565514 -0.46652806 19 6 8306 40.07600000 3176772979 3176772979 -0.66700000
13.69511414 2.00766659 -2.15341401 2 7 8306 14.00800000 3176772979 3176772979 -8.84300000
16.01134300 1.55017853 -2.04756546 2 8 8307 16.21600000 3176772981 3176772981 -7.25400000
39.89065552 7.84792852 0.23628916 25 9 8307 40.65600000 3176772981 3176772981 0.33300000
39.99299622 3.86497784 -0.23352270 22 10 8308 40.18000000 3176772983 3176772983 -0.33300000
17.31460571 2.53210068 -1.88490808 4 11 8308 17.60000000 3176772983 3176772983 -6.14800000
19.64052773 0.92965937 -1.83545947 6 12 8309 19.74800000 3176772986 3176772986 -5.33300000
39.68010712 5.79577446 0.93313110 18 13 8309 40.11200000 3176772986 3176772986 1.33300000
40.01681137 1.88714492 0.46638834 17 14 8310 40.06400000 3176772988 3176772988 0.66700000
20.55569077 2.99875093 -1.45260882 26 15 8310 20.82400000 3176772988 3176772988 -4.00000000
20.51291847 1.97155607 -1.68229187 21 16 8311 20.67600000 3176772990 3176772990 -4.66700000
39.87991333 7.81690025 1.18270481 15 17 8311 40.65600000 3176772990 3176772990 1.66700000
39.96173096 3.84083796 0.70074904 25 18 8311 40.15200000 3176772993 3176772993 1.00000000
20.54998970 4.02802324 -1.34208500 33 19 8311 20.98400000 3176772993 3176772993 -3.66700000
20.56659508 0.96270108 -1.19905913 21 20 8312 20.62400000 3176772995 3176772995 -3.33300000
39.90334702 5.80704403 2.34835124 17 21 8312 40.39200000 3176772995 3176772995 3.33300000
39.55409241 3.78772449 1.61884713 25 22 8313 39.76800000 3176772997 3176772997 2.33300000
20.61281395 2.99606252 -0.97026700 23 23 8313 20.85200000 3176772997 3176772997 -2.66700000
20.58579445 1.96768272 -1.08377302 35 24 8314 20.70800000 3176772999 3176772999 -3.00000000
41.13662338 5.97185707 5.10388803 32 25 8314 41.88000000 3176772999 3176772999 7.00000000
40.81030273 3.89364409 3.34668350 26 26 8315 41.13200000 3176773002 3176773002 4.66700000
20.63673019 4.03006649 -0.85664403 26 27 8315 21.04400000 3176773002 3176773002 -2.33300000
35.16917419 1.62162697 -1.22943950 6 28 8316 35.22800000 3176773004 3176773004 -2.00000000
111.56951141 10.60536671 20.43370056 28 30 8317 113.92000000 3176773006 3176773006 10.33300000
39.34779358 5.69113588 -0.92512858 15 31 8317 39.76800000 3176773006 3176773006 -1.33300000
5.84719467 0.54860431 -2.73856640 7 0 8324 6.48000000 3176773027 3176773027 -25.00000000
39.50001144 7.64941025 -0.70228481 17 1 8324 40.24000000 3176773027 3176773027 -1.00000000
39.21176147 3.67208099 -1.14616704 16 2 8325 39.40000000 3176773029 3176773029 -1.66700000
8.82331467 1.26360035 -2.49518967 2 3 8325 9.25600000 3176773029 3176773029 -15.63900000
11.64560127 1.08853042 -2.33928704 2 4 8326 11.92800000 3176773032 3176773032 -11.31000000
39.90585709 5.70787144 0.00000000 19 5 8326 40.31200000 3176773032 3176773032 0.00000000
39.98196793 1.77361715 -0.46592271 19 6 8326 40.02400000 3176773034 3176773034 -0.66700000
13.70986366 1.96096873 -2.15464401 2 7 8326 14.01600000 3176773034 3176773034 -8.84300000
16.03245926 1.49575353 -2.04958582 2 8 8327 16.23200000 3176773036 3176773036 -7.25400000
39.92173767 7.70939493 0.23631240 25 9 8327 40.66000000 3176773036 3176773036 0.33300000
39.95845413 3.72090220 -0.23324372 22 10 8328 40.13200000 3176773039 3176773039 -0.33300000
17.32727623 2.47220778 -1.88533640 4 11 8328 17.60400000 3176773039 3176773039 -6.14800000
19.68344116 0.86283964 -1.83917725 6 12 8329 19.78800000 3176773041 3176773041 -5.33300000
39.69613647 5.65666580 0.93303806 18 13 8329 40.10800000 3176773041 3176773041 1.33300000
40.03913879 1.74814653 0.46657461 17 14 8330 40.08000000 3176773043 3176773043 0.66700000
20.55418205 2.92529321 -1.45177174 26 15 8330 20.81200000 3176773043 3176773043 -4.00000000
20.51173592 1.89920557 -1.68164098 21 16 8331 20.66800000 3176773046 3176773046 -4.66700000
39.98155594 7.69199800 1.18491566 23 17 8331 40.73200000 3176773046 3176773046 1.66700000
39.95896530 3.69984722 0.70046979 17 18 8331 40.13600000 3176773048 3176773048 1.00000000
20.54432487 3.95249510 -1.34080589 33 19 8331 20.96400000 3176773048 3176773048 -3.66700000
20.55786133 0.89038604 -1.19836152 21 20 8332 20.61200000 3176773050 3176773050 -3.33300000
39.98663330 5.67670059 2.35207224 17 21 8332 40.45600000 3176773050 3176773050 3.33300000
39.52329636 3.64559388 1.61705601 24 22 8333 39.72400000 3176773052 3176773052 2.33300000
20.61919022 2.92353129 -0.97008085 23 23 8333 20.84800000 3176773052 3176773052 -2.66700000
20.58856010 1.89544666 -1.08356369 35 24 8334 20.70400000 3176773055 3176773055 -3.00000000
41.01963425 5.80874395 5.08682632 24 25 8334 41.74000000 3176773055 3176773055 7.00000000
40.87525558 3.75590825 3.35091448 26 26 8335 41.18400000 3176773057 3176773057 4.66700000
20.63104630 3.95424485 -0.85582989 24 27 8335 21.02400000 3176773057 3176773057 -2.33300000
35.31840134 1.50498056 -1.23446500 6 28 8336 35.37200000 3176773059 3176773059 -2.00000000
106.53499603 9.75169086 19.50528717 28 30 8337 108.74400000 3176773062 3176773062 10.33300000
39.35950089 5.55263424 -0.92494243 15 31 8337 39.76000000 3176773062 3176773062 -1.33300000
5.84907436 0.52819049 -2.73856640 6 0 8344 6.48000000 3176773082 3176773082 -25.00000000
39.51468658 7.50924301 -0.70207542 25 1 8344 40.22800000 3176773082 3176773082 -1.00000000
39.27212524 3.53949094 -1.14756334 24 2 8345 39.44800000 3176773085 3176773085 -1.66700000
8.82385635 1.23226082 -2.49411130 2 3 8345 9.25200000 3176773085 3176773085 -15.63900000
11.66104889 1.04892719 -2.34164047 4 4 8346 11.94000000 3176773087 3176773087 -11.31000000
39.97307968 5.57516956 0.00000000 19 5 8346 40.36000000 3176773087 3176773087 0.00000000
39.87202072 1.62930739 -0.46457234 19 6 8346 39.90800000 3176773089 3176773089 -0.66700000
13.72445488 1.91419232 -2.15587378 2 7 8346 14.02400000 3176773089 3176773089 -8.84300000
16.04548645 1.44049025 -2.05059600 2 8 8347 16.24000000 3176773092 3176773092 -7.25400000
39.91696167 7.56403732 0.23612642 25 9 8347 40.62800000 3176773092 3176773092 0.33300000
39.98713303 3.58282638 -0.23333672 22 10 8348 40.14800000 3176773094 3176773094 -0.33300000
17.33973885 2.41225719 -1.88576484 4 11 8348 17.60800000 3176773094 3176773094 -6.14800000
19.69429207 0.79444736 -1.83992076 6 12 8349 19.79600000 3176773096 3176773096 -5.33300000
39.60077286 5.50210667 0.93033952 18 13 8349 39.99200000 3176773096 3176773096 1.33300000
40.05698776 1.60885477 0.46671429 17 14 8350 40.09200000 3176773098 3176773098 0.66700000
20.56031418 2.85297942 -1.45149267 24 15 8350 20.80800000 3176773098 3176773098 -4.00000000
20.51029968 1.82688725 -1.68098998 23 16 8351 20.66000000 3176773101 3176773101 -4.66700000
39.73706818 7.50121450 1.17688668 23 17 8351 40.45600000 3176773101 3176773101 1.66700000
39.46173477 3.51492381 0.69153416 24 18 8351 39.62400000 3176773103 3176773103 1.00000000
20.55015182 3.87927699 -1.34029424 33 19 8351 20.95600000 3176773103 3176773103 -3.66700000
20.56084442 0.81862026 -1.19836152 21 20 8352 20.61200000 3176773105 3176773105 -3.33300000
39.90731430 5.52339983 2.34625840 17 21 8352 40.35600000 3176773105 3176773105 3.33300000
39.38450241 3.49418807 1.61086845 24 22 8353 39.57200000 3176773108 3176773108 2.33300000
20.61739540 2.84989786 -0.96952248 20 23 8353 20.83600000 3176773108 3176773108 -2.66700000
20.58311462 1.82251072 -1.08293557 38 24 8354 20.69200000 3176773110 3176773110 -3.00000000
41.14978027 5.68072557 5.10047579 73 25 8354 41.85200000 3176773110 3176773110 7.00000000
41.28921127 3.64864826 3.38378572 27 26 8355 41.58800000 3176773112 3176773112 4.66700000
20.63686752 3.88072777 -0.85550421 24 27 8355 21.01600000 3176773112 3176773112 -2.33300000
35.38735199 1.38418710 -1.23669851 6 28 8356 35.43600000 3176773115 3176773115 -2.00000000
115.38048553 10.15536308 21.11817169 28 30 8357 117.73600000 3176773117 3176773117 10.33300000
39.39448929 5.41738939 -0.92531466 15 31 8357 39.77600000 3176773117 3176773117 -1.33300000
5.85449409 0.50808358 -2.74025679 7 0 8364 6.48400000 3176773138 3176773138 -25.00000000
39.56818008 7.37639570 -0.70256406 25 1 8364 40.25600000 3176773138 3176773138 -1.00000000
39.30415726 3.40410900 -1.14814520 16 2 8365 39.46800000 3176773140 3176773140 -1.66700000
8.82428741 1.20093286 -2.49303293 2 3 8365 9.24800000 3176773140 3176773140 -15.63900000
11.66854763 1.00855398 -2.34242487 4 4 8366 11.94400000 3176773142 3176773142 -11.31000000
39.93284225 5.42752314 0.00000000 13 5 8366 40.30000000 3176773142 3176773142 0.00000000
39.88945389 1.49056613 -0.46471205 19 6 8366 39.92000000 3176773145 3176773145 -0.66700000
13.73496914 1.86680567 -2.15648866 2 7 8366 14.02800000 3176773145 3176773145 -8.84300000
16.06623077 1.38583624 -2.05261636 2 8 8367 16.25600000 3176773147 3176773147 -7.25400000
39.84874344 7.40711117 0.23556848 25 9 8367 40.53200000 3176773147 3176773147 0.33300000
39.99142456 3.44253731 -0.23329021 22 10 8368 40.14000000 3176773149 3176773149 -0.33300000
17.34411430 2.35118127 -1.88533640 4 11 8368 17.60400000 3176773149 3176773149 -6.14800000
19.70092583 0.72584325 -1.84029257 6 12 8369 19.80000000 3176773151 3176773151 -5.33300000
39.48104095 5.34506321 0.92708266 18 13 8369 39.85200000 3176773151 3176773151 1.33300000
40.06635666 1.46916664 0.46676087 17 14 8370 40.09600000 3176773154 3176773154 0.66700000
20.55037689 2.77851987 -1.45009756 26 15 8370 20.78800000 3176773154 3176773154 -4.00000000
20.51655006 1.75528181 -1.68098998 26 16 8371 20.66000000 3176773156 3176773156 -4.66700000
39.99496841 7.40540934 1.18375206 23 17 8371 40.69200000 3176773156 3176773156 1.66700000
39.46579361 3.37647343 0.69139451 16 18 8371 39.61600000 3176773158 3176773158 1.00000000
20.54786873 3.80461287 -1.33927083 36 19 8371 20.94000000 3176773158 3176773158 -3.66700000
20.55559540 0.74655467 -1.19789636 21 20 8372 20.60400000 3176773161 3176773161 -3.33300000
39.82345963 5.37018871 2.34021187 28 21 8372 40.25200000 3176773161 3176773161 3.33300000
39.61149979 3.37501144 1.61966133 25 22 8373 39.78800000 3176773163 3176773163 2.33300000
20.60741806 2.77524590 -0.96859187 22 23 8373 20.81600000 3176773163 3176773163 -2.66700000
20.58536911 1.75031269 -1.08272624 38 24 8374 20.68800000 3176773165 3176773165 -3.00000000
41.56283569 5.58997154 5.14922333 24 25 8374 42.25200000 3176773165 3176773165 7.00000000
41.16266251 3.49270248 3.37239480 27 26 8375 41.44800000 3176773168 3176773168 4.66700000
20.63456726 3.80576825 -0.85485291 24 27 8375 21.00000000 3176773168 3176773168 -2.33300000
35.51181793 1.26492286 -1.24088645 6 28 8376 35.55600000 3176773170 3176773170 -2.00000000
112.41781616 9.51902771 20.57002068 28 30 8376 114.68000000 3176773172 3176773172 10.33300000
39.44394684 5.29097605 -0.92605907 30 31 8376 39.80800000 3176773172 3176773172 -1.33300000
5.85984468 0.48794535 -2.74194717 6 0 8384 6.48800000 3176773193 3176773193 -25.00000000
39.60155487 7.23967028 -0.70270371 25 1 8384 40.26400000 3176773193 3176773193 -1.00000000
39.28791046 3.26457357 -1.14733064 16 2 8385 39.44000000 3176773195 3176773195 -1.66700000
8.83606243 1.17113519 -2.49518967 2 3 8385 9.25600000 3176773195 3176773195 -15.63900000
11.66808796 0.96749288 -2.34164047 2 4 8386 11.94000000 3176773198 3176773198 -11.31000000
39.88016891 5.27865076 0.00000000 13 5 8386 40.22800000 3176773198 3176773198 0.00000000
40.00258255 1.34799099 -0.46596926 19 6 8387 40.02800000 3176773200 3176773200 -0.66700000
13.73780060 1.81593406 -2.15587378 3 7 8387 14.02400000 3176773200 3176773200 -8.84300000
16.08283424 1.33072782 -2.05413151 2 8 8387 16.26800000 3176773202 3176773202 -7.25400000
39.85467911 7.26438189 0.23545225 25 9 8387 40.51200000 3176773202 3176773202 0.33300000
39.98725128 3.30160356 -0.23319723 15 10 8388 40.12400000 3176773204 3176773204 -0.33300000
17.36404228 2.29218626 -1.88662159 4 11 8388 17.61600000 3176773204 3176773204 -6.14800000
19.70731926 0.65720254 -1.84066439 6 12 8389 19.80400000 3176773207 3176773207 -5.33300000
39.78094864 5.24432468 0.93368942 18 13 8389 40.13600000 3176773207 3176773207 1.33300000
40.05924606 1.32890213 0.46662119 17 14 8390 40.08400000 3176773209 3176773209 0.66700000
20.55203819 2.70572710 -1.44953954 26 15 8390 20.78000000 3176773209 3176773209 -4.00000000
20.50665855 1.68235111 -1.67968822 23 16 8391 20.64400000 3176773211 3176773211 -4.66700000
39.81994247 7.22933054 1.17781758 23 17 8391 40.48800000 3176773211 3176773211 1.66700000
39.99608994 3.27422214 0.70046979 25 18 8392 40.13600000 3176773214 3176773214 1.00000000
20.54989052 3.72713852 -1.33850336 36 19 8392 20.92800000 3176773214 3176773214 -3.66700000
20.55408478 0.67466670 -1.19766378 21 20 8392 20.60000000 3176773216 3176773216 -3.33300000
39.97261810 5.24830055 2.34788632 17 21 8392 40.38400000 3176773216 3176773216 3.33300000
39.54337311 3.23021293 1.61640465 24 22 8393 39.70800000 3176773218 3176773218 2.33300000
20.60905647 2.70225668 -0.96821964 22 23 8393 20.80800000 3176773218 3176773218 -2.66700000
20.57542801 1.67714751 -1.08188891 38 24 8394 20.67200000 3176773221 3176773221 -3.00000000
41.61358643 5.44897985 5.15312338 24 25 8394 42.28400000 3176773221 3176773221 7.00000000
41.02360535 3.33671498 3.36002731 44 26 8395 41.29600000 3176773223 3176773223 4.66700000
20.63592720 3.73158360 -0.85436440 22 27 8395 20.98800000 3176773223 3176773223 -2.33300000
35.56795883 1.14262438 -1.24270129 6 28 8396 35.60800000 3176773225 3176773225 -2.00000000
111.13640594 9.01991749 20.32966614 28 30 8396 113.34000000 3176773228 3176773228 10.33300000
39.47407150 5.15481186 -0.92633826 25 31 8396 39.82000000 3176773228 3176773228 -1.33300000
5.86151218 0.46748769 -2.74194717 7 0 8404 6.48800000 3176773248 3176773248 -25.00000000
39.64233017 7.10421324 -0.70298290 25 1 8404 40.28000000 3176773248 3176773248 -1.00000000
39.35885239 3.13217092 -1.14907610 16 2 8405 39.50000000 3176773251 3176773251 -1.66700000
8.83627701 1.13979173 -2.49411130 2 3 8405 9.25200000 3176773251 3176773251 -15.63900000
11.67921448 0.92737865 -2.34320951 2 4 8406 11.94800000 3176773253 3176773253 -11.31000000
39.91421890 5.14145470 0.00000000 19 5 8406 40.24400000 3176773253 3176773253 0.00000000
40.00304413 1.20822704 -0.46592271 19 6 8407 40.02400000 3176773255 3176773255 -0.66700000
