# .PCD v0.7 - Point Cloud Data file format
VERSION 0.7
FIELDS x y z intensity laser_id azimuth distance_m adjustedtime timestamp vertical_angle
SIZE 4 4 4 1 1 2 8 8 4 8
TYPE F F F U U U F U U F
COUNT 1 1 1 1 1 1 1 1 1 1
WIDTH 522
HEIGHT 1
VIEWPOINT 0 0 0 1 0 0 0
POINTS 522
DATA ascii
2.03901029 5.38755131 -2.68616176 14 0 1933 6.35600000 3187555195 3187555195 -25.00000000
12.89819336 47.70350647 -0.86256772 10 1 1933 49.42400000 3187555195 3187555195 -1.00000000
14.29646111 37.75475311 -1.17490852 8 2 1934 40.38800000 3187555197 3187555197 -1.66700000
2.55447197 7.88995981 -2.32158303 18 3 1934 8.61200000 3187555197 3187555197 -15.63900000
3.52552533 9.30546570 -1.99019825 6 4 1935 10.14800000 3187555200 3187555200 -11.31000000
13.69212818 42.26550293 0.00000000 7 5 1935 44.42800000 3187555200 3187555200 0.00000000
19.26787567 44.18648529 -0.56119335 13 6 1936 48.20800000 3187555202 3187555202 -0.66700000
3.97922087 12.27593708 -2.00768042 13 7 1936 13.06000000 3187555202 3187555202 -8.84300000
6.27707100 16.55932236 -2.25414038 4 8 1936 17.85200000 3187555204 3187555204 -7.25400000
12.29833889 45.39062500 0.27332267 19 9 1936 47.02800000 3187555204 3187555204 0.33300000
20.41427231 53.82583237 -0.33458024 23 10 1937 57.56800000 3187555206 3187555206 -0.33300000
6.10912466 18.83550453 -2.13294482 4 11 1937 19.91600000 3187555206 3187555206 -6.14800000
8.59844780 19.69981003 -2.00647664 2 12 1938 21.58800000 3187555209 3187555209 -5.33300000
21.55752563 49.36671066 0.62712842 21 14 1939 53.87200000 3187555211 3187555211 0.66700000
8.14366341 25.07851219 -1.84380317 3 15 1939 26.43200000 3187555211 3187555211 -4.00000000
8.37397385 22.04464149 -1.92508340 3 16 1940 23.66000000 3187555213 3187555213 -4.66700000
12.22752094 45.00475311 1.35724795 9 17 1940 46.65600000 3187555213 3187555213 1.66700000
42.86178589 112.77514648 2.10587716 28 18 1941 120.66400000 3187555216 3187555216 1.00000000
7.42837000 27.32209587 -1.81460333 4 19 1941 28.37200000 3187555216 3187555216 -3.66700000
11.17289162 25.56157684 -1.62463677 4 20 1941 27.94400000 3187555218 3187555218 -3.33300000
44.72483444 137.56718445 8.42434406 42 21 1941 144.90000000 3187555218 3187555218 3.33300000
41.26142883 108.50736237 4.72953463 28 22 1942 116.18400000 3187555220 3187555220 2.33300000
9.92676163 30.51518440 -1.49476576 3 23 1942 32.12400000 3187555220 3187555220 -2.66700000
10.87485981 28.58317757 -1.60273635 5 24 1943 30.62400000 3187555223 3187555223 -3.00000000
46.41309738 121.92685699 10.65028381 28 26 1944 130.89600000 3187555225 3187555225 4.66700000
9.39323330 34.47769165 -1.45585513 6 27 1944 35.76400000 3187555225 3187555225 -2.33300000
14.09739494 32.19105911 -1.22720587 6 28 1945 35.16400000 3187555227 3187555227 -2.00000000
13.43256187 41.21874619 -1.00878286 6 31 1945 43.36400000 3187555230 3187555230 -1.33300000
2.03837848 5.32961035 -2.66080451 14 0 1953 6.29600000 3187555250 3187555250 -25.00000000
12.40484333 45.25136566 -0.81900650 9 1 1953 46.92800000 3187555250 3187555250 -1.00000000
14.41387367 37.66727448 -1.17374492 8 2 1954 40.34800000 3187555253 3187555253 -1.66700000
2.58199739 7.88099527 -2.32158303 18 3 1954 8.61200000 3187555253 3187555253 -15.63900000
3.54115677 9.24914551 -1.98078465 11 4 1955 10.10000000 3187555255 3187555255 -11.31000000
13.84331703 42.22885513 0.00000000 7 5 1955 44.44000000 3187555255 3187555255 0.00000000
19.32852936 43.90663528 -0.55849260 13 6 1956 47.97600000 3187555257 3187555257 -0.66700000
4.00972891 12.22441578 -2.00153136 17 7 1956 13.02000000 3187555257 3187555257 -8.84300000
6.32631922 16.51507759 -2.25110984 4 8 1956 17.82800000 3187555259 3187555259 -7.25400000
12.34439850 44.93857193 0.27085844 9 9 1956 46.60400000 3187555259 3187555259 0.33300000
20.52187157 53.54508591 -0.33327839 23 10 1957 57.34400000 3187555262 3187555262 -0.33300000
6.16987467 18.79895020 -2.13123131 3 11 1957 19.90000000 3187555262 3187555262 -6.14800000
8.66716003 19.66967583 -2.00647664 2 12 1958 21.58800000 3187555264 3187555264 -5.33300000
21.56675911 48.92151260 0.62242544 21 14 1959 53.46800000 3187555266 3187555266 0.66700000
8.22492599 25.03097725 -1.84240794 3 15 1959 26.41200000 3187555266 3187555266 -4.00000000
8.43944359 21.98550034 -1.92247975 3 16 1960 23.62800000 3187555269 3187555269 -4.66700000
43.11369705 112.31502533 2.09994340 28 18 1960 120.32400000 3187555271 3187555271 1.00000000
7.50727177 27.25497818 -1.81178916 4 19 1960 28.32800000 3187555271 3187555271 -3.66700000
11.21852398 25.42377853 -1.61835778 4 20 1961 27.83600000 3187555273 3187555273 -3.33300000
46.17062759 140.34619141 8.60434246 42 21 1961 147.99600000 3187555273 3187555273 3.33300000
41.33458328 107.56803131 4.69485188 28 22 1962 115.33200000 3187555276 3187555276 2.33300000
10.01447964 30.42341614 -1.49197400 3 23 1962 32.06400000 3187555276 3187555276 -2.66700000
10.93443012 28.44064713 -1.59687471 5 24 1963 30.51200000 3187555278 3187555278 -3.00000000
9.46032429 34.25207138 -1.44771373 6 27 1964 35.56400000 3187555280 3187555280 -2.33300000
14.19351292 32.10509109 -1.22580993 6 28 1965 35.12400000 3187555283 3187555283 -2.00000000
13.54380035 41.07286453 -1.00636339 6 31 1965 43.26000000 3187555285 3187555285 -1.33300000
2.05696988 5.32246256 -2.66080451 14 0 1973 6.29600000 3187555306 3187555306 -25.00000000
12.48241425 44.91878891 -0.81377083 9 1 1973 46.62800000 3187555306 3187555306 -1.00000000
14.49912548 37.49739838 -1.17002130 8 2 1974 40.22000000 3187555308 3187555308 -1.66700000
2.76099467 8.32896709 -2.45637059 14 3 1974 9.11200000 3187555308 3187555308 -15.63900000
3.58615780 9.26965141 -1.98784482 3 4 1975 10.13600000 3187555311 3187555311 -11.31000000
13.99441719 42.19166565 0.00000000 7 5 1975 44.45200000 3187555311 3187555311 0.00000000
19.41394806 43.70705032 -0.55676973 13 6 1975 47.82800000 3187555313 3187555313 -0.66700000
4.05895472 12.23731232 -2.00583577 10 7 1975 13.04800000 3187555313 3187555313 -8.84300000
6.37819958 16.47809219 -2.24908972 4 8 1976 17.81200000 3187555315 3187555315 -7.25400000
12.30805302 44.20160675 0.26667383 9 9 1976 45.88400000 3187555315 3187555315 0.33300000
20.64076042 53.29781342 -0.33218575 22 10 1977 57.15600000 3187555318 3187555318 -0.33300000
6.22919083 18.75842667 -2.12908936 1 11 1977 19.88000000 3187555318 3187555318 -6.14800000
8.71634388 19.59563446 -2.00201511 2 12 1978 21.54000000 3187555320 3187555320 -5.33300000
21.59429169 48.52436066 0.61832780 20 14 1979 53.11600000 3187555322 3187555322 0.66700000
8.31099129 24.99832916 -1.84212899 3 15 1979 26.40800000 3187555322 3187555322 -4.00000000
8.50316048 21.92245483 -1.91955066 3 16 1980 23.59200000 3187555324 3187555324 -4.66700000
12.32744312 44.15194321 1.33409190 18 17 1980 45.86000000 3187555324 3187555324 1.66700000
43.12222290 111.17572784 2.08144379 28 18 1980 119.26400000 3187555327 3187555327 1.00000000
7.57660055 27.13633347 -1.80564928 4 19 1980 28.23200000 3187555327 3187555327 -3.66700000
11.23733330 25.22761154 -1.60835791 4 20 1981 27.66400000 3187555329 3187555329 -3.33300000
46.66024399 140.18417358 8.60434246 42 21 1981 147.99600000 3187555329 3187555329 3.33300000
44.13865662 113.67853546 4.96824217 28 22 1982 122.04800000 3187555331 3187555331 2.33300000
10.09536552 30.31245613 -1.48825145 3 23 1982 31.98400000 3187555331 3187555331 -2.66700000
11.03074741 28.39485741 -1.59645605 5 24 1983 30.50400000 3187555334 3187555334 -3.00000000
45.43180084 116.88807678 10.23760319 28 26 1984 125.82400000 3187555336 3187555336 4.66700000
9.60030079 34.29196548 -1.45080745 6 27 1984 35.64000000 3187555336 3187555336 -2.33300000
14.28431511 32.00789642 -1.22399509 6 28 1985 35.07200000 3187555338 3187555338 -2.00000000
13.72252464 41.13155365 -1.00896895 6 31 1985 43.37200000 3187555341 3187555341 -1.33300000
2.07553625 5.31525040 -2.66080451 16 0 1993 6.29600000 3187555361 3187555361 -25.00000000
12.52420330 44.46688461 -0.80637097 9 1 1993 46.20400000 3187555361 3187555361 -1.00000000
14.58045769 37.31993484 -1.16606498 8 2 1994 40.08400000 3187555364 3187555364 -1.66700000
2.83169389 8.44344711 -2.49303293 19 3 1994 9.24800000 3187555364 3187555364 -15.63900000
3.62134910 9.26438332 -1.98941386 10 4 1995 10.14400000 3187555366 3187555366 -11.31000000
14.15051556 42.16910172 0.00000000 7 5 1995 44.48000000 3187555366 3187555366 0.00000000
19.55003166 43.60251999 -0.55630410 13 6 1995 47.78800000 3187555368 3187555368 -0.66700000
3.99225211 11.89707088 -1.95233858 13 7 1995 12.70000000 3187555368 3187555368 -8.84300000
6.42989922 16.44094658 -2.24706936 4 8 1996 17.79600000 3187555371 3187555371 -7.25400000
12.28083897 43.51549911 0.26279148 9 9 1996 45.21600000 3187555371 3187555371 0.33300000
20.76400566 53.06526947 -0.33118609 22 10 1997 56.98400000 3187555373 3187555373 -0.33300000
6.29463196 18.73656845 -2.12908936 1 11 1997 19.88000000 3187555373 3187555373 -6.14800000
8.78306103 19.56145668 -2.00164342 2 12 1998 21.53600000 3187555375 3187555375 -5.33300000
21.60947990 48.10572815 0.61395073 20 14 1999 52.74000000 3187555377 3187555377 0.66700000
8.35240650 24.83301163 -1.83208406 3 15 1999 26.26400000 3187555377 3187555377 -4.00000000
8.57235909 21.87408066 -1.91792333 3 16 2000 23.57200000 3187555380 3187555380 -4.66700000
44.67600632 113.99973297 2.13722157 28 18 2000 122.46000000 3187555382 3187555382 1.00000000
7.66149569 27.07515144 -1.80334675 8 19 2000 28.19600000 3187555382 3187555382 -3.66700000
11.33023834 25.19915962 -1.60905552 4 20 2001 27.67600000 3187555384 3187555384 -3.33300000
47.05371857 139.73661804 8.58690071 42 21 2001 147.69600000 3187555384 3187555384 3.33300000
41.50945663 105.81091309 4.63069725 28 22 2002 113.75600000 3187555387 3187555387 2.33300000
10.18197727 30.22023392 -1.48545957 3 23 2002 31.92400000 3187555387 3187555387 -2.66700000
11.10206699 28.28553200 -1.59247851 5 24 2003 30.42800000 3187555389 3187555389 -3.00000000
45.68507004 116.33542633 10.20310497 28 26 2004 125.40000000 3187555391 3187555391 4.66700000
9.70030689 34.18903732 -1.44787657 6 27 2004 35.56800000 3187555391 3187555391 -2.33300000
14.34505844 31.84484863 -1.21966755 6 28 2005 34.94800000 3187555394 3187555394 -2.00000000
13.81230736 40.92426682 -1.00506067 6 31 2005 43.20400000 3187555396 3187555396 -1.33300000
2.07811213 5.26750565 -2.64051890 14 0 2013 6.24800000 3187555417 3187555417 -25.00000000
12.36979866 43.33837891 -0.78668469 9 1 2013 45.07600000 3187555417 3187555417 -1.00000000
14.68568420 37.20558929 -1.16408682 8 2 2014 40.01600000 3187555419 3187555419 -1.66700000
2.84629965 8.38973904 -2.48009324 12 3 2014 9.20000000 3187555419 3187555419 -15.63900000
3.64934349 9.24074173 -1.98706043 10 4 2015 10.13200000 3187555421 3187555421 -11.31000000
14.37991619 42.36186600 0.00000000 15 5 2015 44.73600000 3187555421 3187555421 0.00000000
19.69221878 43.51214981 -0.55602467 13 6 2015 47.76400000 3187555424 3187555424 -0.66700000
4.03756762 11.89429092 -1.95418334 15 7 2015 12.71200000 3187555424 3187555424 -8.84300000
6.47850084 16.39625931 -2.24403882 4 8 2016 17.77200000 3187555426 3187555426 -7.25400000
12.31057930 43.04548645 0.26021099 28 9 2016 44.77200000 3187555426 3187555426 0.33300000
20.94175911 52.97386551 -0.33106986 22 10 2017 56.96400000 3187555428 3187555428 -0.33300000
6.35999680 18.71448135 -2.12908936 1 11 2017 19.88000000 3187555428 3187555428 -6.14800000
8.83649349 19.49802971 -1.99829745 2 12 2018 21.50000000 3187555430 3187555430 -5.33300000
21.72937012 47.92436218 0.61260039 20 14 2019 52.62400000 3187555433 3187555433 0.66700000
8.43646908 24.79615021 -1.83152592 3 15 2019 26.25600000 3187555433 3187555433 -4.00000000
8.64572620 21.83661079 -1.91727245 3 16 2020 23.56400000 3187555435 3187555435 -4.66700000
42.29792786 106.77791595 2.00472307 28 18 2021 114.86800000 3187555437 3187555437 1.00000000
42.16185379 123.77880859 7.61528158 42 21 2021 130.98400000 3187555440 3187555440 3.33300000
41.79756165 105.46102142 4.62174177 28 22 2022 113.53600000 3187555442 3187555442 2.33300000
10.26677990 30.12399483 -1.48248160 3 23 2022 31.86000000 3187555442 3187555442 -2.66700000
11.20220661 28.25031853 -1.59268785 5 24 2023 30.43200000 3187555444 3187555444 -3.00000000
46.12763596 116.26789093 10.21124172 28 26 2024 125.50000000 3187555447 3187555447 4.66700000
9.76106167 33.95139313 -1.43924665 6 27 2024 35.35600000 3187555447 3187555447 -2.33300000
14.44951248 31.78002548 -1.21910918 6 28 2025 34.93200000 3187555449 3187555449 -2.00000000
13.95507526 40.87580490 -1.00506067 6 31 2025 43.20400000 3187555451 3187555451 -1.33300000
2.12601447 5.33430719 -2.67770934 12 0 2033 6.33600000 3187555472 3187555472 -25.00000000
12.45211411 43.05673599 -0.78235650 9 1 2033 44.82800000 3187555472 3187555472 -1.00000000
14.77400017 37.05010986 -1.16082871 8 2 2034 39.90400000 3187555474 3187555474 -1.66700000
2.75804472 8.03727531 -2.37873292 15 3 2034 8.82400000 3187555474 3187555474 -15.63900000
3.68157744 9.22794724 -1.98706043 12 4 2035 10.13200000 3187555476 3187555476 -11.31000000
14.54588413 42.36437607 0.00000000 7 5 2035 44.79200000 3187555476 3187555476 0.00000000
19.76179314 43.24323654 -0.55351025 13 6 2036 47.54800000 3187555479 3187555479 -0.66700000
4.08370352 11.88688850 -1.95541322 7 7 2036 12.72000000 3187555479 3187555479 -8.84300000
6.52686882 16.35143280 -2.24100852 4 8 2036 17.74800000 3187555481 3187555481 -7.25400000
12.34052849 42.58732986 0.25770026 18 9 2036 44.34000000 3187555481 3187555481 0.33300000
21.03456688 52.67013550 -0.32962850 21 10 2037 56.71600000 3187555483 3187555483 -0.33300000
6.41364813 18.65831757 -2.12523389 3 11 2037 19.84400000 3187555483 3187555483 -6.14800000
8.90615749 19.47068787 -1.99866927 2 12 2038 21.50400000 3187555486 3187555486 -5.33300000
21.81330681 47.66637039 0.61027217 19 14 2039 52.42400000 3187555488 3187555488 0.66700000
8.51388359 24.74013901 -1.82957280 3 15 2039 26.22800000 3187555488 3187555488 -4.00000000
8.71449471 21.78779030 -1.91564512 3 16 2040 23.54400000 3187555490 3187555490 -4.66700000
43.17161942 107.93674469 2.02915645 28 18 2040 116.26800000 3187555493 3187555493 1.00000000
11.36952305 24.82174492 -1.58998597 8 20 2041 27.34800000 3187555495 3187555495 -3.33300000
42.54683685 123.49496460 7.60690928 42 21 2041 130.84000000 3187555495 3187555495 3.33300000
42.13572311 105.24027252 4.61848545 28 22 2042 113.45600000 3187555497 3187555497 2.33300000
10.36275387 30.06153107 -1.48117876 3 23 2042 31.83200000 3187555497 3187555497 -2.66700000
11.23985004 28.05901337 -1.58410478 5 24 2043 30.26800000 3187555500 3187555500 -3.00000000
46.55396652 116.15797424 10.21579742 28 26 2044 125.55600000 3187555502 3187555502 4.66700000
9.87504387 33.90176392 -1.43859529 6 27 2044 35.34000000 3187555502 3187555502 -2.33300000
14.50700378 31.61312866 -1.21464205 6 28 2045 34.80400000 3187555504 3187555504 -2.00000000
14.10479927 40.82438278 -1.00506067 6 31 2046 43.20400000 3187555506 3187555506 -1.33300000
2.13963199 5.31713820 -2.67263794 12 0 2052 6.32400000 3187555527 3187555527 -25.00000000
12.55436897 42.87702942 -0.77984333 9 1 2052 44.68400000 3187555527 3187555527 -1.00000000
14.86094284 36.91189957 -1.15803599 8 2 2053 39.80800000 3187555529 3187555529 -1.66700000
2.81497788 8.11542606 -2.40461230 16 3 2053 8.92000000 3187555529 3187555529 -15.63900000
3.70922709 9.20841122 -1.98549139 11 4 2054 10.12400000 3187555532 3187555532 -11.31000000
21.04580307 60.63970184 0.00000000 22 5 2054 64.18800000 3187555532 3187555532 0.00000000
19.84647560 43.05033493 -0.55188048 13 6 2055 47.40800000 3187555534 3187555534 -0.66700000
4.08938885 11.77620411 -1.93942547 5 7 2055 12.61600000 3187555534 3187555534 -8.84300000
6.57363987 16.31129837 -2.23848319 3 8 2055 17.72800000 3187555536 3187555536 -7.25400000
12.46029091 42.47324753 0.25725853 18 9 2055 44.26400000 3187555536 3187555536 0.33300000
21.13581657 52.41831589 -0.32848936 21 10 2056 56.52000000 3187555539 3187555539 -0.33300000
6.46634912 18.61065102 -2.12223506 4 11 2056 19.81600000 3187555539 3187555539 -6.14800000
8.96233177 19.42296600 -1.99681032 2 12 2057 21.48400000 3187555541 3187555541 -5.33300000
35.67436981 77.27723694 0.99088901 28 14 2058 85.12000000 3187555543 3187555543 0.66700000
8.60243225 24.73061371 -1.83096790 3 15 2058 26.24800000 3187555543 3187555543 -4.00000000
8.75236320 21.67374802 -1.90815961 3 16 2059 23.45200000 3187555546 3187555546 -4.66700000
13.72139168 46.65135193 1.41519630 10 17 2059 48.64800000 3187555546 3187555546 1.66700000
43.48438644 107.68173981 2.02706218 28 18 2059 116.14800000 3187555548 3187555548 1.00000000
7.86667442 26.74589920 -1.78671777 4 19 2059 27.93600000 3187555548 3187555548 -3.66700000
11.45344734 24.78753090 -1.59021854 4 20 2060 27.35200000 3187555550 3187555550 -3.33300000
42.93249130 123.28531647 7.60272360 42 21 2060 130.76800000 3187555550 3187555550 3.33300000
42.52192688 105.19259644 4.62255573 28 22 2061 113.55600000 3187555553 3187555553 2.33300000
10.43477631 29.94776535 -1.47727013 3 23 2061 31.74800000 3187555553 3187555553 -2.66700000
11.32534695 28.00307083 -1.58305800 5 24 2062 30.24800000 3187555555 3187555555 -3.00000000
9.95575905 33.76149368 -1.43403614 6 27 2063 35.22800000 3187555557 3187555557 -2.33300000
14.59832287 31.53582573 -1.21352530 6 28 2064 34.77200000 3187555559 3187555559 -2.00000000
14.16182423 40.57598877 -1.00003588 6 31 2064 42.98800000 3187555562 3187555562 -1.33300000
2.14408374 5.27232027 -2.65404272 17 0 2073 6.28000000 3187555582 3187555582 -25.00000000
12.71257496 42.83456039 -0.77991313 9 1 2073 44.68800000 3187555582 3187555582 -1.00000000
14.95695400 36.76089096 -1.15501058 8 2 2074 39.70400000 3187555585 3187555585 -1.66700000
2.82939553 8.06143951 -2.39167261 18 3 2074 8.87200000 3187555585 3187555585 -15.63900000
3.74147391 9.19112110 -1.98470700 15 4 2075 10.12000000 3187555587 3187555587 -11.31000000
21.21887779 60.42251968 0.00000000 22 5 2075 64.04000000 3187555587 3187555587 0.00000000
19.97300720 42.93002319 -0.55122858 13 6 2075 47.35200000 3187555589 3187555589 -0.66700000
4.04010820 11.50454426 -1.89699674 17 7 2075 12.34000000 3187555589 3187555589 -8.84300000
6.62888956 16.27606964 -2.23696780 3 8 2076 17.71600000 3187555592 3187555592 -7.25400000
12.59079838 42.34294510 0.25674710 27 9 2076 44.17600000 3187555592 3187555592 0.33300000
21.26440430 52.18491745 -0.32751295 21 10 2077 56.35200000 3187555594 3187555594 -0.33300000
6.50945568 18.51553917 -2.11409569 3 11 2077 19.74000000 3187555594 3187555594 -6.14800000
9.00486851 19.32861519 -1.99049020 2 12 2078 21.41600000 3187555596 3187555596 -5.33300000
35.61941910 76.42091370 0.98157614 28 14 2079 84.32000000 3187555599 3187555599 0.66700000
8.67976952 24.66127777 -1.82817769 3 15 2079 26.20800000 3187555599 3187555599 -4.00000000
8.81969166 21.61199379 -1.90555596 3 16 2080 23.42000000 3187555601 3187555601 -4.66700000
13.86829853 46.52028275 1.41275275 10 17 2080 48.56400000 3187555601 3187555601 1.66700000
43.87574387 107.51422882 2.02692246 28 18 2080 116.14000000 3187555603 3187555603 1.00000000
7.97491407 26.75131607 -1.78902030 4 19 2080 27.97200000 3187555603 3187555603 -3.66700000
11.60499763 24.87566185 -1.59859049 4 20 2081 27.49600000 3187555606 3187555606 -3.33300000
41.05874634 100.51108551 4.42341614 28 22 2082 108.66400000 3187555608 3187555608 2.33300000
10.52454281 29.85279274 -1.47447824 3 23 2082 31.68800000 3187555608 3187555608 -2.66700000
11.41430664 27.92809486 -1.58117390 5 24 2083 30.21200000 3187555610 3187555610 -3.00000000
47.60670090 116.42424774 10.26819611 28 26 2084 126.20000000 3187555612 3187555612 4.66700000
10.06455612 33.67499542 -1.43191934 6 27 2084 35.17600000 3187555612 3187555612 -2.33300000
14.68503475 31.42054176 -1.21115208 6 28 2085 34.70400000 3187555615 3187555615 -2.00000000
14.25090885 40.33278656 -0.99538326 6 31 2086 42.78800000 3187555617 3187555617 -1.33300000
2.16660666 5.27486420 -2.65911412 15 0 2093 6.29200000 3187555638 3187555638 -25.00000000
12.79409218 42.56394958 -0.77579439 9 1 2093 44.45200000 3187555638 3187555638 -1.00000000
15.06390572 36.65668106 -1.15338147 8 2 2094 39.64800000 3187555640 3187555640 -1.66700000
2.92579961 8.24390793 -2.44882250 23 3 2094 9.08400000 3187555640 3187555640 -15.63900000
3.77055120 9.17074966 -1.98313808 13 4 2095 10.11200000 3187555642 3187555642 -11.31000000
21.35069084 60.12569046 0.00000000 22 5 2095 63.80400000 3187555642 3187555642 0.00000000
20.05134583 42.70798111 -0.54927289 13 6 2095 47.18400000 3187555645 3187555645 -0.66700000
4.00617599 11.28179359 -1.86256182 5 7 2095 12.11600000 3187555645 3187555645 -8.84300000
6.67660618 16.23081398 -2.23393750 3 8 2096 17.69200000 3187555647 3187555647 -7.25400000
12.69700241 42.16085434 0.25591019 9 9 2096 44.03200000 3187555647 3187555647 0.33300000
21.33378220 51.83665466 -0.32579264 20 10 2097 56.05600000 3187555649 3187555649 -0.33300000
6.56472254 18.46647263 -2.11109710 3 11 2097 19.71200000 3187555649 3187555649 -6.14800000
9.06889439 19.28985596 -1.98974657 2 12 2098 21.40800000 3187555652 3187555652 -5.33300000
35.71742630 75.93779755 0.97696626 28 14 2099 83.92400000 3187555654 3187555654 0.66700000
8.71763611 24.49549484 -1.81813276 3 15 2099 26.06400000 3187555654 3187555654 -4.00000000
8.87988567 21.54421616 -1.90230143 3 16 2100 23.38000000 3187555656 3187555656 -4.66700000
43.38511276 105.26016998 1.98727059 28 18 2100 113.86800000 3187555659 3187555659 1.00000000
8.05901432 26.69274521 -1.78697360 4 19 2100 27.94000000 3187555659 3187555659 -3.66700000
11.72747707 24.91087151 -1.60347414 4 20 2101 27.58000000 3187555661 3187555661 -3.33300000
41.25691605 99.99768829 4.40713310 28 22 2102 108.26400000 3187555663 3187555663 2.33300000
10.61795044 29.78576469 -1.47298920 3 23 2102 31.65600000 3187555663 3187555663 -2.66700000
10.14036083 33.50194550 -1.42605746 6 27 2104 35.03200000 3187555668 3187555668 -2.33300000
14.76222420 31.30039406 -1.20849979 5 28 2105 34.62800000 3187555670 3187555670 -2.00000000
14.38757324 40.27149963 -0.99510407 6 31 2106 42.77600000 3187555672 3187555672 -1.33300000
2.20723128 5.32084608 -2.68616176 14 0 2113 6.35600000 3187555693 3187555693 -25.00000000
13.98843288 45.95483398 -0.83848339 10 1 2113 48.04400000 3187555693 3187555693 -1.00000000
2.99879217 8.35691357 -2.48548484 25 3 2114 9.22000000 3187555695 3187555695 -15.63900000
3.80855680 9.17202187 -1.98627591 13 4 2115 10.12800000 3187555698 3187555698 -11.31000000
21.49420738 59.86632538 0.00000000 22 5 2115 63.60800000 3187555698 3187555698 0.00000000
20.17975426 42.59435272 -0.54871410 13 6 2115 47.13600000 3187555700 3187555700 -0.66700000
4.03751898 11.24542141 -1.85887229 4 7 2115 12.09200000 3187555700 3187555700 -8.84300000
6.72408772 16.18542290 -2.23090696 3 8 2116 17.66800000 3187555702 3187555702 -7.25400000
12.87093067 42.20427322 0.25644487 9 9 2116 44.12400000 3187555702 3187555702 0.33300000
21.41634178 51.52548218 -0.32430479 20 10 2117 55.80000000 3187555705 3187555705 -0.33300000
6.61972618 18.41724777 -2.10809827 3 11 2117 19.68400000 3187555705 3187555705 -6.14800000
9.12593079 19.23649216 -1.98751593 2 12 2118 21.38400000 3187555707 3187555707 -5.33300000
8.80038643 24.45740700 -1.81757474 3 15 2119 26.05600000 3187555709 3187555709 -4.00000000
8.94737434 21.49468613 -1.90067410 3 16 2120 23.36000000 3187555712 3187555712 -4.66700000
42.33213425 101.69642639 1.92276657 28 18 2120 110.17200000 3187555714 3187555714 1.00000000
8.12296295 26.56901550 -1.78057790 4 19 2120 27.84000000 3187555714 3187555714 -3.66700000
11.82806873 24.89863968 -1.60533464 4 20 2121 27.61200000 3187555716 3187555716 -3.33300000
45.77860260 127.08536530 7.86667442 42 21 2121 135.30800000 3187555716 3187555716 3.33300000
41.57805252 99.78665924 4.40420198 28 22 2122 108.19200000 3187555718 3187555718 2.33300000
10.68934250 29.65830421 -1.46852231 3 23 2122 31.56000000 3187555718 3187555718 -2.66700000
48.49505997 116.27303314 10.28446960 28 26 2124 126.40000000 3187555723 3187555723 4.66700000
10.28886414 33.56951904 -1.43045378 6 27 2124 35.14000000 3187555723 3187555723 -2.33300000
14.84047127 31.18370056 -1.20598698 5 28 2125 34.55600000 3187555725 3187555725 -2.00000000
14.53756905 40.24736023 -0.99575543 6 31 2126 42.80400000 3187555728 3187555728 -1.33300000
2.22766399 5.32018518 -2.68954253 13 0 2132 6.36400000 3187555748 3187555748 -25.00000000
14.12662029 45.86232758 -0.83764571 10 1 2132 47.99600000 3187555748 3187555748 -1.00000000
15.14312935 36.14764023 -1.14058161 16 2 2133 39.20800000 3187555751 3187555751 -1.66700000
3.01598406 8.31795406 -2.47685838 25 3 2133 9.18800000 3187555751 3187555751 -15.63900000
3.85259676 9.19189930 -1.99333620 13 4 2134 10.16400000 3187555753 3187555753 -11.31000000
21.57256699 59.46382141 0.00000000 22 5 2134 63.25600000 3187555753 3187555753 0.00000000
20.24501419 42.36840820 -0.54666525 12 6 2134 46.96000000 3187555755 3187555755 -0.66700000
5.16526175 14.23781395 -2.35633445 2 7 2134 15.32800000 3187555755 3187555755 -8.84300000
6.77005148 16.14473915 -2.22838163 3 8 2135 17.64800000 3187555758 3187555758 -7.25400000
13.04265976 42.26455688 0.25707257 9 9 2135 44.23200000 3187555758 3187555758 0.33300000
21.36580086 50.92672729 -0.32098037 19 10 2136 55.22800000 3187555760 3187555760 -0.33300000
6.67261791 18.37276649 -2.10552788 3 11 2136 19.66000000 3187555760 3187555760 -6.14800000
9.18967056 19.20612335 -1.98751593 2 12 2137 21.38400000 3187555762 3187555762 -5.33300000
43.29540634 119.14722443 2.94985914 28 13 2137 126.80400000 3187555762 3187555762 1.33300000
8.86780739 24.39058876 -1.81478441 3 15 2138 26.01600000 3187555764 3187555764 -4.00000000
9.02478123 21.47959900 -1.90197587 3 16 2139 23.37600000 3187555767 3187555767 -4.66700000
42.73575592 101.71403503 1.92576838 28 18 2139 110.34400000 3187555769 3187555769 1.00000000
8.20512581 26.52286530 -1.77929878 4 19 2139 27.82000000 3187555769 3187555769 -3.66700000
11.88986588 24.81606483 -1.60254395 4 20 2140 27.56400000 3187555771 3187555771 -3.33300000
45.49641418 125.00036621 7.74690819 42 21 2140 133.24800000 3187555771 3187555771 3.33300000
42.82598495 101.82923889 4.50059700 28 22 2141 110.56000000 3187555774 3187555774 2.33300000
10.76712513 29.56637764 -1.46573043 3 23 2141 31.50000000 3187555774 3187555774 -2.66700000
11.60987949 27.59184837 -1.56882262 5 24 2142 29.97600000 3187555776 3187555776 -3.00000000
49.43259430 117.42334747 10.40065765 28 26 2143 127.82800000 3187555778 3187555778 4.66700000
10.35632610 33.39397430 -1.42442918 6 27 2143 34.99200000 3187555778 3187555778 -2.33300000
14.88498592 31.01178169 -1.20124066 5 28 2144 34.42000000 3187555781 3187555781 -2.00000000
14.58183956 39.95475388 -0.98970705 6 31 2145 42.54400000 3187555783 3187555783 -1.33300000
2.24480963 5.30903769 -2.68785214 16 0 2152 6.36000000 3187555804 3187555804 -25.00000000
14.24376011 45.67528534 -0.83513254 10 1 2152 47.85200000 3187555804 3187555804 -1.00000000
15.26610088 36.08719635 -1.14034891 8 2 2153 39.20000000 3187555806 3187555806 -1.66700000
3.03439569 8.27844238 -2.46823192 18 3 2153 9.15600000 3187555806 3187555806 -15.63900000
3.89077425 9.19284344 -1.99647403 13 4 2154 10.18000000 3187555808 3187555808 -11.31000000
20.71262741 56.47770691 0.00000000 21 5 2154 60.15600000 3187555808 3187555808 0.00000000
20.30419540 42.11373901 -0.54429048 12 6 2154 46.75600000 3187555811 3187555811 -0.66700000
5.21492958 14.21969700 -2.35633445 4 7 2154 15.32800000 3187555811 3187555811 -8.84300000
6.82017660 16.10639381 -2.22636127 3 8 2155 17.63200000 3187555813 3187555813 -7.25400000
13.23424530 42.36003494 0.25793272 9 9 2155 44.38000000 3187555813 3187555813 0.33300000
21.37648392 50.45774841 -0.31849286 18 10 2156 54.80000000 3187555815 3187555815 -0.33300000
6.72574472 18.31949615 -2.10210085 3 11 2156 19.62800000 3187555815 3187555815 -6.14800000
9.23760986 19.13447571 -1.98342645 2 12 2157 21.34000000 3187555817 3187555817 -5.33300000
42.11708832 114.65611267 2.84229040 28 13 2157 122.18000000 3187555817 3187555817 1.33300000
8.90609074 24.23214531 -1.80529749 3 15 2158 25.88000000 3187555820 3187555820 -4.00000000
9.09036160 21.42594528 -1.90002322 3 16 2159 23.35200000 3187555822 3187555822 -4.66700000
43.02337646 101.40592194 1.92276657 28 18 2159 110.17200000 3187555824 3187555824 1.00000000
8.28214836 26.44454193 -1.77597296 4 19 2159 27.76800000 3187555824 3187555824 -3.66700000
11.91732597 24.65217400 -1.59463704 4 20 2160 27.42800000 3187555827 3187555827 -3.33300000
46.47022247 126.30236816 7.83760500 42 21 2160 134.80800000 3187555827 3187555827 3.33300000
42.12820435 99.19968414 4.39085007 28 22 2161 107.86400000 3187555829 3187555829 2.33300000
10.85784245 29.49486542 -1.46405530 3 23 2161 31.46400000 3187555829 3187555829 -2.66700000
11.73892593 27.62835884 -1.57321882 5 24 2162 30.06000000 3187555831 3187555831 -3.00000000
50.45356369 118.68832397 10.52823734 28 26 2163 129.39600000 3187555834 3187555834 4.66700000
10.45606899 33.30423737 -1.42214954 6 27 2163 34.93600000 3187555834 3187555834 -2.33300000
14.97223759 30.91646004 -1.19956553 5 28 2164 34.37200000 3187555836 3187555836 -2.00000000
14.71425438 39.90617752 -0.98970705 6 31 2164 42.54400000 3187555838 3187555838 -1.33300000
2.27186871 5.32117367 -2.69799495 13 0 2172 6.38400000 3187555859 3187555859 -25.00000000
14.39468193 45.59859085 -0.83464390 10 1 2172 47.82400000 3187555859 3187555859 -1.00000000
15.40925217 36.07413483 -1.14162886 8 2 2173 39.24400000 3187555861 3187555861 -1.66700000
3.01777363 8.14499283 -2.43156981 13 3 2173 9.02000000 3187555861 3187555861 -15.63900000
3.93362927 9.20445347 -2.00196528 13 4 2174 10.20800000 3187555864 3187555864 -11.31000000
21.56450462 58.17158890 0.00000000 21 5 2174 62.04000000 3187555864 3187555864 0.00000000
20.46366501 42.04982376 -0.54443020 12 6 2175 46.76800000 3187555866 3187555866 -0.66700000
5.26151466 14.18566513 -2.35387468 4 7 2175 15.31200000 3187555866 3187555866 -8.84300000
6.87011719 16.06789589 -2.22434092 3 8 2175 17.61600000 3187555868 3187555868 -7.25400000
13.39529610 42.35553360 0.25818846 9 9 2175 44.42400000 3187555868 3187555868 0.33300000
21.39673996 50.01874542 -0.31619135 17 10 2176 54.40400000 3187555870 3187555870 -0.33300000
6.78134871 18.27353477 -2.09953046 3 11 2176 19.60400000 3187555870 3187555870 -6.14800000
9.29213715 19.07705116 -1.98082399 2 12 2177 21.31200000 3187555873 3187555873 -5.33300000
8.98645401 24.18968773 -1.80446041 3 15 2178 25.86800000 3187555875 3187555875 -4.00000000
9.12270927 21.29513931 -1.89123583 3 16 2179 23.24400000 3187555877 3187555877 -4.66700000
42.53451920 99.24047089 1.88465047 28 18 2180 107.98800000 3187555880 3187555880 1.00000000
8.37780952 26.41020393 -1.77571714 4 19 2180 27.76400000 3187555880 3187555880 -3.66700000
11.94028664 24.48121643 -1.58626509 4 20 2180 27.28400000 3187555882 3187555882 -3.33300000
42.60337448 99.35323334 4.40420198 28 22 2181 108.19200000 3187555884 3187555884 2.33300000
10.94401169 29.41184616 -1.46182179 3 23 2181 31.41600000 3187555884 3187555884 -2.66700000
11.82427120 27.56151772 -1.57175338 5 24 2182 30.03200000 3187555887 3187555887 -3.00000000
10.51778793 33.09613037 -1.41482222 6 27 2183 34.75600000 3187555889 3187555889 -2.33300000
15.07480049 30.85323334 -1.19914675 5 28 2184 34.36000000 3187555891 3187555891 -2.00000000
14.75430965 39.58852768 -0.98310030 5 31 2184 42.26000000 3187555894 3187555894 -1.33300000
2.25311637 5.22665501 -2.65404272 15 0 2192 6.28000000 3187555914 3187555914 -25.00000000
14.49289894 45.35758591 -0.83115339 10 1 2192 47.62400000 3187555914 3187555914 -1.00000000
15.52241325 35.99075317 -1.14069808 8 2 2193 39.21200000 3187555917 3187555917 -1.66700000
3.03267789 8.09833622 -2.42078686 15 3 2193 8.98000000 3187555917 3187555917 -15.63900000
3.97505879 9.21227455 -2.00667214 11 4 2194 10.23200000 3187555919 3187555919 -11.31000000
21.55971909 57.54159546 0.00000000 21 5 2194 61.44800000 3187555919 3187555919 0.00000000
20.53099632 41.81657410 -0.54233479 12 6 2195 46.58800000 3187555921 3187555921 -0.66700000
5.30822468 14.15981007 -2.35264492 4 7 2195 15.30400000 3187555921 3187555921 -8.84300000
6.92144442 16.03288651 -2.22282577 3 8 2195 17.60400000 3187555923 3187555923 -7.25400000
13.53208828 42.27423096 0.25797921 9 9 2195 44.38800000 3187555923 3187555923 0.33300000
21.40150452 49.55083847 -0.31370386 16 10 2196 53.97600000 3187555926 3187555926 -0.33300000
6.84090424 18.23858261 -2.09824538 3 11 2196 19.59200000 3187555926 3187555926 -6.14800000
9.36218548 19.05164719 -1.98156750 2 12 2197 21.32000000 3187555928 3187555928 -5.33300000
9.06382370 24.13949394 -1.80306530 3 15 2198 25.84800000 3187555930 3187555930 -4.00000000
9.19065666 21.24852943 -1.88993394 3 16 2199 23.22800000 3187555933 3187555933 -4.66700000
41.54558182 96.05216217 1.82670844 28 18 2199 104.66800000 3187555935 3187555935 1.00000000
8.45436668 26.34806824 -1.77341461 4 19 2199 27.72800000 3187555935 3187555935 -3.66700000
12.06974602 24.52896118 -1.59207892 4 20 2200 27.38400000 3187555937 3187555937 -3.33300000
42.85941315 98.99485016 4.39492083 28 22 2201 107.96400000 3187555940 3187555940 2.33300000
11.01426220 29.28744698 -1.45754087 3 23 2201 31.32400000 3187555940 3187555940 -2.66700000
11.91246796 27.50174713 -1.57070673 5 24 2202 30.01200000 3187555942 3187555942 -3.00000000
10.59776115 32.94887924 -1.41010022 5 27 2203 34.64000000 3187555944 3187555944 -2.33300000
15.15412712 30.74305534 -1.19691312 5 28 2204 34.29600000 3187555947 3187555947 -2.00000000
14.87126541 39.48064804 -0.98170453 5 31 2204 42.20000000 3187555949 3187555949 -1.33300000
2.27370524 5.22168589 -2.65573311 13 0 2213 6.28400000 3187555969 3187555969 -25.00000000
14.65042686 45.27752304 -0.83066475 10 1 2213 47.59600000 3187555969 3187555969 -1.00000000
15.61110592 35.83465195 -1.13755620 8 2 2214 39.10400000 3187555971 3187555971 -1.66700000
3.05551910 8.06915569 -2.41539526 18 3 2214 8.96000000 3187555971 3187555971 -15.63900000
3.99939370 9.17606926 -2.00196528 12 4 2215 10.20800000 3187555974 3187555974 -11.31000000
21.57065582 56.93477249 0.00000000 21 5 2215 60.88400000 3187555974 3187555974 0.00000000
20.66796303 41.72673035 -0.54210198 12 6 2215 46.56800000 3187555976 3187555976 -0.66700000
5.35621929 14.13749886 -2.35203004 4 7 2215 15.30000000 3187555976 3187555976 -8.84300000
6.97223139 15.98922443 -2.22030044 3 8 2216 17.58400000 3187555978 3187555978 -7.25400000
13.73257542 42.36513519 0.25883940 9 9 2216 44.53600000 3187555978 3187555978 0.33300000
21.37024689 48.98445892 -0.31061190 15 10 2217 53.44400000 3187555981 3187555981 -0.33300000
6.89924383 18.19107437 -2.09567499 3 11 2217 19.56800000 3187555981 3187555981 -6.14800000
9.40363693 18.96011734 -1.97561908 2 12 2218 21.25600000 3187555983 3187555983 -5.33300000
9.14798927 24.09491920 -1.80222821 2 15 2219 25.83600000 3187555985 3187555985 -4.00000000
9.24453354 21.15990067 -1.88505208 3 16 2220 23.16800000 3187555987 3187555987 -4.66700000
41.80288315 95.68301392 1.82258976 28 18 2220 104.43200000 3187555990 3187555990 1.00000000
8.54471302 26.29792213 -1.77213550 4 19 2220 27.70800000 3187555990 3187555990 -3.66700000
12.16667271 24.49886513 -1.59300923 4 20 2221 27.40000000 3187555992 3187555992 -3.33300000
45.48844910 119.68625641 7.45667839 42 21 2221 128.25600000 3187555992 3187555992 3.33300000
44.26123428 101.21364594 4.50059700 28 22 2222 110.56000000 3187555994 3187555994 2.33300000
11.10306931 29.19832993 -1.45512128 3 23 2222 31.27200000 3187555994 3187555994 -2.66700000
11.97636127 27.37373161 -1.56589186 5 24 2223 29.92000000 3187555997 3187555997 -3.00000000
10.70855236 32.87941360 -1.40879762 5 27 2224 34.60800000 3187555999 3187555999 -2.33300000
15.21328640 30.57993317 -1.19272518 5 28 2225 34.17600000 3187556001 3187556001 -2.00000000
14.96747684 39.29882050 -0.97854072 5 31 2225 42.06400000 3187556004 3187556004 -1.33300000
2.24288416 5.10459089 -2.59994745 14 0 2232 6.15200000 3187556024 3187556024 -25.00000000
14.74700642 45.06524658 -0.82766294 10 1 2232 47.42400000 3187556024 3187556024 -1.00000000
15.71215248 35.74242401 -1.13627625 8 2 2233 39.06000000 3187556027 3187556027 -1.66700000
3.06437254 8.01220798 -2.40137744 15 3 2233 8.90800000 3187556027 3187556027 -15.63900000
4.04401255 9.19507027 -2.00902557 8 4 2234 10.24400000 3187556029 3187556029 -11.31000000
21.55777168 56.33617783 0.00000000 21 5 2234 60.32000000 3187556029 3187556029 0.00000000
20.72222328 41.48978806 -0.53991342 12 6 2234 46.38000000 3187556031 3187556031 -0.66700000
5.39459610 14.09751034 -2.34834051 4 7 2234 15.27600000 3187556031 3187556031 -8.84300000
7.01722479 15.94785690 -2.21777511 3 8 2235 17.56400000 3187556034 3187556034 -7.25400000
13.84557533 42.23574448 0.25832793 9 9 2235 44.44800000 3187556034 3187556034 0.33300000
21.37624359 48.55821609 -0.30835688 15 10 2236 53.05600000 3187556036 3187556036 -0.33300000
6.95099401 18.14581299 -2.09310460 3 11 2236 19.54400000 3187556036 3187556036 -6.14800000
9.44864464 18.89320946 -1.97190130 2 12 2237 21.21600000 3187556038 3187556038 -5.33300000
44.19755554 115.31900787 2.87374234 28 13 2237 123.53200000 3187556038 3187556038 1.33300000
9.21641159 24.03464508 -1.79999602 2 15 2238 25.80400000 3187556040 3187556040 -4.00000000
9.32108402 21.14372063 -1.88635397 3 16 2239 23.18400000 3187556043 3187556043 -4.66700000
42.17964172 95.67927551 1.82517266 28 18 2239 104.58000000 3187556045 3187556045 1.00000000
8.59573555 26.15946388 -1.76471639 4 19 2239 27.59200000 3187556045 3187556045 -3.66700000
12.25321102 24.46909714 -1.59370685 4 20 2240 27.41200000 3187556047 3187556047 -3.33300000
41.93826675 109.25291443 6.81528854 42 21 2240 117.22400000 3187556047 3187556047 3.33300000
44.10451508 99.95107269 4.45093393 28 22 2241 109.34000000 3187556050 3187556050 2.33300000
11.16401958 29.06809998 -1.45046818 3 23 2241 31.17200000 3187556050 3187556050 -2.66700000
12.05900383 27.31559372 -1.56484509 5 24 2242 29.90000000 3187556052 3187556052 -3.00000000
10.77376556 32.71086121 -1.40309858 5 27 2243 34.46800000 3187556054 3187556054 -2.33300000
15.30743980 30.51502228 -1.19216681 5 28 2244 34.16000000 3187556057 3187556057 -2.00000000
15.06756496 39.17058945 -0.97658664 5 31 2244 41.98000000 3187556059 3187556059 -1.33300000
2.32389402 5.23922682 -2.67263794 13 0 2252 6.32400000 3187556080 3187556080 -25.00000000
14.78857040 44.66419983 -0.82124043 9 1 2252 47.05600000 3187556080 3187556080 -1.00000000
15.81898117 35.64715958 -1.13499629 8 2 2253 39.01600000 3187556082 3187556082 -1.66700000
3.14647555 8.14158630 -2.44343114 15 3 2253 9.06400000 3187556082 3187556082 -15.63900000
4.11905766 9.27768993 -2.03020620 2 4 2254 10.35200000 3187556084 3187556084 -11.31000000
21.57252312 55.79050064 0.00000000 20 5 2254 59.81600000 3187556084 3187556084 0.00000000
20.84892654 41.38148117 -0.53944778 12 6 2254 46.34000000 3187556087 3187556087 -0.66700000
5.44662333 14.08596706 -2.34957027 4 7 2254 15.28400000 3187556087 3187556087 -8.84300000
7.06640720 15.90875912 -2.21575475 3 8 2255 17.54800000 3187556089 3187556089 -7.25400000
14.03951454 42.32762909 0.25918812 9 9 2255 44.59600000 3187556089 3187556089 0.33300000
21.37180519 48.09218979 -0.30586940 14 10 2256 52.62800000 3187556091 3187556091 -0.33300000
7.00711441 18.10289383 -2.09096289 3 11 2256 19.52400000 3187556091 3187556091 -6.14800000
9.50556755 18.84233284 -1.97004247 2 12 2257 21.19600000 3187556093 3187556093 -5.33300000
42.09132767 108.68667603 2.71211004 28 13 2257 116.58400000 3187556093 3187556093 1.33300000
39.25064468 77.77051544 1.01417112 28 14 2258 87.12000000 3187556096 3187556096 0.66700000
9.30745983 24.02093124 -1.80139112 2 15 2258 25.82400000 3187556096 3187556096 -4.00000000
9.39321136 21.10741234 -1.88602853 3 16 2259 23.18000000 3187556098 3187556098 -4.66700000
45.68537140 137.41535950 4.21440363 28 17 2259 144.87200000 3187556098 3187556098 1.66700000
42.60161591 95.68479156 1.82824433 28 18 2260 104.75600000 3187556100 3187556100 1.00000000
8.68525696 26.10884476 -1.76343727 4 19 2260 27.57200000 3187556100 3187556100 -3.66700000
12.33854866 24.42617607 -1.59370685 4 20 2260 27.41200000 3187556103 3187556103 -3.33300000
42.32803726 109.12819672 6.81668377 42 21 2260 117.24800000 3187556103 3187556103 3.33300000
42.57809067 95.58705902 4.26319218 28 22 2261 104.72800000 3187556105 3187556105 2.33300000
11.24807072 28.98425293 -1.44823468 3 23 2261 31.12400000 3187556105 3187556105 -2.66700000
12.13964558 27.24049568 -1.56296098 5 24 2262 29.86400000 3187556107 3187556107 -3.00000000
10.88282776 32.65788651 -1.40244722 5 27 2263 34.45200000 3187556110 3187556110 -2.33300000
15.40122986 30.43643570 -1.19118965 5 28 2264 34.13200000 3187556112 3187556112 -2.00000000
15.16219139 39.00966644 -0.97388810 5 31 2264 41.86400000 3187556114 3187556114 -1.33300000
2.26365161 5.05572128 -2.58304286 14 0 2272 6.11200000 3187556135 3187556135 -25.00000000
14.49722481 43.27742767 -0.79666746 9 1 2272 45.64800000 3187556135 3187556135 -1.00000000
15.89428043 35.48225403 -1.13150537 8 2 2273 38.89600000 3187556137 3187556137 -1.66700000
3.21410632 8.23101997 -2.47362351 21 3 2273 9.17600000 3187556137 3187556137 -15.63900000
4.09206581 9.13082123 -2.00118089 2 4 2274 10.20400000 3187556139 3187556139 -11.31000000
21.56480789 55.19697952 0.00000000 20 5 2274 59.26000000 3187556139 3187556139 0.00000000
20.94244957 41.19069672 -0.53795773 12 6 2275 46.21200000 3187556142 3187556142 -0.66700000
5.49389744 14.05486584 -2.34772563 4 7 2275 15.27200000 3187556142 3187556142 -8.84300000
7.11864948 15.87675476 -2.21474457 3 8 2275 17.54000000 3187556144 3187556144 -7.25400000
14.24189758 42.44142532 0.26018775 9 9 2275 44.76800000 3187556144 3187556144 0.33300000
21.36765099 47.63409042 -0.30342838 13 10 2276 52.20800000 3187556146 3187556146 -0.33300000
7.06157160 18.05610275 -2.08839250 3 11 2276 19.50000000 3187556146 3187556146 -6.14800000
9.58573151 18.83743477 -1.97301674 2 12 2277 21.22800000 3187556149 3187556149 -5.33300000
42.09013748 107.56713104 2.68782330 28 13 2277 115.54000000 3187556149 3187556149 1.33300000
39.34041595 77.27658844 1.00951469 28 14 2278 86.72000000 3187556151 3187556151 0.66700000
9.33306599 23.83967018 -1.79023015 2 15 2278 25.66400000 3187556151 3187556151 -4.00000000
9.45539761 21.04903984 -1.88375032 3 16 2279 23.15200000 3187556153 3187556153 -4.66700000
14.78960037 43.97179413 1.35014987 9 17 2279 46.41200000 3187556153 3187556153 1.66700000
8.76542664 26.06098175 -1.76215816 3 19 2279 27.55200000 3187556156 3187556156 -3.66700000
12.42373753 24.38295746 -1.59370685 4 20 2280 27.41200000 3187556158 3187556158 -3.33300000
42.69705200 108.95003510 6.81482363 42 21 2280 117.21600000 3187556158 3187556158 3.33300000
42.89674377 95.40504456 4.26172638 28 22 2281 104.69200000 3187556160 3187556160 2.33300000
11.33313179 28.90389442 -1.44618738 3 23 2281 31.08000000 3187556160 3187556160 -2.66700000
12.23138142 27.19067001 -1.56254232 5 24 2282 29.85600000 3187556163 3187556163 -3.00000000
10.98143768 32.57425308 -1.40049326 5 27 2283 34.40400000 3187556165 3187556165 -2.33300000
15.45285892 30.27567291 -1.18700171 5 28 2284 34.01200000 3187556167 3187556167 -2.00000000
15.26704597 38.85705948 -0.97146875 5 31 2285 41.76000000 3187556169 3187556169 -1.33300000
2.27979255 5.04448509 -2.58135223 14 0 2292 6.10800000 3187556190 3187556190 -25.00000000
14.54551601 42.92353439 -0.79108268 9 1 2292 45.32800000 3187556190 3187556190 -1.00000000
15.99497795 35.37555313 -1.12987638 8 2 2293 38.84000000 3187556192 3187556192 -1.66700000
3.22868228 8.18391895 -2.46284056 18 3 2293 9.13600000 3187556192 3187556192 -15.63900000
4.24030781 9.37378693 -2.05766273 3 4 2294 10.49200000 3187556195 3187556195 -11.31000000
21.55174637 54.60047913 0.00000000 19 5 2294 58.70000000 3187556195 3187556195 0.00000000
21.06237793 41.07107544 -0.53735238 12 6 2295 46.16000000 3187556197 3187556197 -0.66700000
5.53711748 14.02089882 -2.34526587 2 7 2295 15.25600000 3187556197 3187556197 -8.84300000
7.16421032 15.83011913 -2.21171427 3 8 2295 17.51600000 3187556199 3187556199 -7.25400000
14.41181660 42.45584106 0.26058295 9 9 2295 44.83600000 3187556199 3187556199 0.33300000
21.37376022 47.20576477 -0.30117336 12 10 2296 51.82000000 3187556202 3187556202 -0.33300000
7.11724901 18.01284981 -2.08625054 3 11 2296 19.48000000 3187556202 3187556202 -6.14800000
9.63324165 18.76842690 -1.96929896 2 12 2297 21.18800000 3187556204 3187556204 -5.33300000
42.51093674 107.53483582 2.69070792 28 13 2297 115.66400000 3187556204 3187556204 1.33300000
39.27740479 76.49122620 1.00103998 28 14 2298 85.99200000 3187556206 3187556206 0.66700000
9.42503071 23.82920837 -1.79190433 2 15 2298 25.68800000 3187556206 3187556206 -4.00000000
9.52552223 21.00864410 -1.88309932 3 16 2299 23.14400000 3187556209 3187556209 -4.66700000
42.42972183 124.70783234 3.83366704 28 17 2299 131.78400000 3187556209 3187556209 1.66700000
40.53846359 89.40802002 1.71354711 28 18 2299 98.18400000 3187556211 3187556211 1.00000000
8.84219933 25.98865700 -1.75934398 3 19 2299 27.50800000 3187556211 3187556211 -3.66700000
12.48504543 24.29327011 -1.59068358 4 20 2300 27.36000000 3187556213 3187556213 -3.33300000
43.11679077 108.90058136 6.82110262 42 21 2300 117.32400000 3187556213 3187556213 3.33300000
43.08911514 94.94537354 4.24788618 28 22 2301 104.35200000 3187556216 3187556216 2.33300000
11.41482639 28.81586456 -1.44376767 3 23 2301 31.02800000 3187556216 3187556216 -2.66700000
12.31135750 27.11507416 -1.56065822 5 24 2302 29.82000000 3187556218 3187556218 -3.00000000
11.05121708 32.40710449 -1.39495707 5 27 2303 34.26800000 3187556220 3187556220 -2.33300000
15.55112743 30.20733070 -1.18644333 5 28 2304 33.99600000 3187556222 3187556222 -2.00000000
15.39581680 38.80622101 -0.97146875 5 31 2304 41.76000000 3187556225 3187556225 -1.33300000
2.38464880 5.22779751 -2.67939973 13 0 2312 6.34000000 3187556245 3187556245 -25.00000000
15.12449741 44.12477493 -0.81418967 9 1 2312 46.65200000 3187556245 3187556245 -1.00000000
16.09346390 35.26494217 -1.12813091 8 2 2313 38.78000000 3187556248 3187556248 -1.66700000
3.26293421 8.18691158 -2.46715379 27 3 2313 9.15200000 3187556248 3187556248 -15.63900000
5.18201351 11.34988594 -2.49539638 3 4 2314 12.72400000 3187556250 3187556250 -11.31000000
21.53330231 54.00102997 0.00000000 18 5 2314 58.13600000 3187556250 3187556250 0.00000000
21.11028481 40.83045959 -0.53511733 12 6 2314 45.96800000 3187556252 3187556252 -0.66700000
7.21282911 15.79057789 -2.20969391 3 8 2315 17.50000000 3187556255 3187556255 -7.25400000
21.55736923 62.78507996 0.38581806 28 9 2315 66.38400000 3187556255 3187556255 0.33300000
21.36882782 46.75978851 -0.29880211 12 10 2316 51.41200000 3187556257 3187556257 -0.33300000
7.17271042 17.96942711 -2.08410859 3 11 2316 19.46000000 3187556257 3187556257 -6.14800000
9.68404961 18.70639229 -1.96632469 2 12 2317 21.15600000 3187556259 3187556259 -5.33300000
39.30871964 75.89904022 0.99507982 28 14 2318 85.48000000 3187556262 3187556262 0.66700000
9.49482822 23.76281548 -1.78939307 2 15 2318 25.65200000 3187556262 3187556262 -4.00000000
9.59050369 20.95713997 -1.88147211 3 16 2319 23.12400000 3187556264 3187556264 -4.66700000
40.92020798 89.41871643 1.71647906 28 18 2319 98.35200000 3187556266 3187556266 1.00000000
8.89649200 25.85194588 -1.75218070 3 19 2319 27.39600000 3187556266 3187556266 -3.66700000
12.56241798 24.23536110 -1.58975339 4 20 2320 27.34400000 3187556269 3187556269 -3.33300000
43.44920731 108.63076782 6.81366062 42 21 2320 117.19600000 3187556269 3187556269 3.33300000
41.00692368 89.52560425 4.01178408 28 22 2321 98.55200000 3187556271 3187556271 2.33300000
11.48416805 28.69794083 -1.43985903 3 23 2321 30.94400000 3187556271 3187556271 -2.66700000
12.40093899 27.06103897 -1.56003022 5 24 2322 29.80800000 3187556273 3187556273 -3.00000000
11.13951111 32.29654694 -1.39186335 5 27 2323 34.19200000 3187556275 3187556275 -2.33300000
15.63621235 30.11383629 -1.18490767 5 28 2324 33.95200000 3187556278 3187556278 -2.00000000
