# .PCD v0.7 - Point Cloud Data file format
VERSION 0.7
FIELDS x y z intensity laser_id azimuth distance_m adjustedtime timestamp vertical_angle
SIZE 4 4 4 1 1 2 8 8 4 8
TYPE F F F U U U F U U F
COUNT 1 1 1 1 1 1 1 1 1 1
WIDTH 509
HEIGHT 1
VIEWPOINT 0 0 0 1 0 0 0
POINTS 509
DATA ascii
20.22318077 -17.22954178 -1.39234579 13 24 12903 26.60400000 3187485605 3187485605 -3.00000000
41.16868973 -35.08688736 4.41581249 56 26 12904 54.27200000 3187485607 3187485607 4.66700000
38.59906769 -26.86703491 -1.91601026 21 27 12904 47.06800000 3187485607 3187485607 -2.33300000
39.52354050 -37.18003464 -1.89490306 30 28 12905 54.29600000 3187485610 3187485610 -2.00000000
39.39349365 -30.39187622 -1.15775990 25 31 12905 49.76800000 3187485612 3187485612 -1.33300000
3.96228576 -3.38770127 -2.43090034 10 0 12913 5.75200000 3187485633 3187485633 -25.00000000
39.52725220 -27.60537148 -0.84155506 20 1 12913 48.22000000 3187485633 3187485633 -1.00000000
39.39445114 -33.69363403 -1.50863504 30 2 12914 51.86000000 3187485635 3187485635 -1.66700000
7.79797077 -6.03565741 -2.76045179 3 3 12914 10.24000000 3187485635 3187485635 -15.63900000
10.22552204 -8.74886513 -2.69151378 4 4 12915 13.72400000 3187485638 3187485638 -11.31000000
38.75011444 -30.00354385 0.00000000 18 5 12915 49.00800000 3187485638 3187485638 0.00000000
38.81973267 -36.64588165 -0.62149417 19 6 12915 53.38800000 3187485640 3187485640 -0.66700000
12.86004734 -9.95731258 -2.53035378 1 7 12915 16.46000000 3187485640 3187485640 -8.84300000
15.08796692 -12.91369152 -2.52788973 3 8 12916 20.02000000 3187485642 3187485642 -7.25400000
38.67893600 -27.04306030 0.27429909 29 9 12916 47.19600000 3187485642 3187485642 0.33300000
39.14062500 -33.51203918 -0.29947630 24 10 12917 51.52800000 3187485645 3187485645 -0.33300000
17.12697411 -13.27068615 -2.33385897 4 11 12917 21.79200000 3187485645 3187485645 -6.14800000
18.89063835 -17.85150146 -2.42621207 6 12 12918 26.10400000 3187485647 3187485647 -5.33300000
38.81241608 -30.08430099 1.14268541 27 13 12918 49.12000000 3187485647 3187485647 1.33300000
38.92493820 -36.79661560 0.62358952 42 14 12919 53.56800000 3187485649 3187485649 0.66700000
20.18773270 -15.65356731 -1.78632379 23 15 12919 25.60800000 3187485649 3187485649 -4.00000000
20.13873482 -17.26098251 -2.16527128 11 16 12920 26.61200000 3187485651 3187485651 -4.66700000
39.20112610 -27.44892311 1.39273846 29 17 12920 47.87600000 3187485651 3187485651 1.66700000
38.58332825 -33.06991196 0.88700110 30 18 12920 50.82400000 3187485654 3187485654 1.00000000
20.24394989 -14.17496586 -1.58384454 22 19 12920 24.76400000 3187485654 3187485654 -3.66700000
20.15257835 -19.06401062 -1.61556709 13 20 12921 27.78800000 3187485656 3187485656 -3.33300000
40.80478668 -31.66284561 3.00788045 21 21 12921 51.73600000 3187485656 3187485656 3.33300000
39.31926346 -33.72449875 2.11042833 28 22 12922 51.84400000 3187485658 3187485658 2.33300000
34.26840210 -26.60046005 -2.02075362 5 23 12922 43.42800000 3187485658 3187485658 -2.66700000
20.21445274 -17.34424973 -1.39590466 13 24 12923 26.67200000 3187485661 3187485661 -3.00000000
40.97638321 -35.17065811 4.40832710 37 26 12924 54.18000000 3187485663 3187485663 4.66700000
38.62939453 -27.08880424 -1.92219782 21 27 12924 47.22000000 3187485663 3187485663 -2.33300000
39.39931870 -37.32326889 -1.89518225 30 28 12925 54.30400000 3187485665 3187485665 -2.00000000
39.37873840 -30.60035706 -1.16045845 16 31 12925 49.88400000 3187485668 3187485668 -1.33300000
3.95652509 -3.40555191 -2.43428111 10 0 12932 5.76000000 3187485688 3187485688 -25.00000000
39.63177109 -27.87434578 -0.84574360 10 1 12932 48.46000000 3187485688 3187485688 -1.00000000
39.42490768 -33.94670105 -1.51410413 31 2 12933 52.04800000 3187485691 3187485691 -1.66700000
7.79006577 -6.07095432 -2.76476502 3 3 12933 10.25600000 3187485691 3187485691 -15.63900000
10.20834064 -8.79296494 -2.69465160 4 4 12934 13.74000000 3187485693 3187485693 -11.31000000
38.68510818 -30.15893173 0.00000000 18 5 12934 49.05200000 3187485693 3187485693 0.00000000
38.97633743 -37.03891373 -0.62596434 19 6 12934 53.77200000 3187485695 3187485695 -0.66700000
12.83630848 -10.00719357 -2.53219867 2 7 12934 16.47200000 3187485695 3187485695 -8.84300000
15.06910896 -12.98437500 -2.53193045 3 8 12935 20.05200000 3187485698 3187485698 -7.25400000
38.69697189 -27.24716949 0.27506626 19 9 12935 47.32800000 3187485698 3187485698 0.33300000
39.02018738 -33.63381577 -0.29940656 24 10 12936 51.51600000 3187485700 3187485700 -0.33300000
17.09541512 -13.33719349 -2.33557248 4 11 12936 21.80800000 3187485700 3187485700 -6.14800000
18.85442162 -17.93600655 -2.42918611 6 12 12937 26.13600000 3187485702 3187485702 -5.33300000
38.68721771 -30.19315910 1.14194107 27 13 12937 49.08800000 3187485702 3187485702 1.33300000
38.80849457 -36.93100739 0.62368268 42 14 12938 53.57600000 3187485704 3187485704 0.66700000
20.17345428 -15.74989319 -1.78967214 23 15 12938 25.65600000 3187485704 3187485704 -4.00000000
20.14778900 -17.38496971 -2.17243147 11 16 12939 26.70000000 3187485707 3187485707 -4.66700000
39.14582825 -27.60411453 1.39401841 29 17 12939 47.92000000 3187485707 3187485707 1.66700000
39.40001297 -33.99718094 0.90836287 50 18 12939 52.04800000 3187485709 3187485709 1.00000000
20.25555229 -14.28342724 -1.58844948 22 19 12939 24.83600000 3187485709 3187485709 -3.66700000
20.15575981 -19.19407082 -1.62091589 13 20 12940 27.88000000 3187485711 3187485711 -3.33300000
40.50761414 -31.64801788 2.99369454 21 21 12940 51.49200000 3187485711 3187485711 3.33300000
39.24351501 -33.88604736 2.11238217 42 22 12941 51.89200000 3187485714 3187485714 2.33300000
34.30907822 -26.81483459 -2.02838469 5 23 12941 43.59200000 3187485714 3187485714 -2.66700000
20.22332954 -17.46863174 -1.40051019 13 24 12942 26.76000000 3187485716 3187485716 -3.00000000
40.77204514 -35.23075485 4.39888906 37 26 12943 54.06400000 3187485718 3187485718 4.66700000
38.82991028 -27.42194748 -1.93668962 33 27 12943 47.57600000 3187485718 3187485718 -2.33300000
39.32740784 -37.50337219 -1.89769506 30 28 12944 54.37600000 3187485721 3187485721 -2.00000000
39.37152863 -30.80469894 -1.16325009 25 31 12944 50.00400000 3187485723 3187485723 -1.33300000
3.95009208 -3.42409110 -2.43766212 10 0 12952 5.76800000 3187485744 3187485744 -25.00000000
39.37759399 -27.90153122 -0.84239274 20 1 12952 48.26800000 3187485744 3187485744 -1.00000000
39.40585709 -34.17055511 -1.51794410 31 2 12953 52.18000000 3187485746 3187485746 -1.66700000
7.77488661 -6.10286617 -2.76692152 3 3 12953 10.26400000 3187485746 3187485746 -15.63900000
10.19239998 -8.84139633 -2.69857383 3 4 12954 13.76000000 3187485748 3187485748 -11.31000000
38.59218216 -30.30366707 0.00000000 27 5 12954 49.06800000 3187485748 3187485748 0.00000000
38.90460587 -37.23004913 -0.62689561 40 6 12954 53.85200000 3187485751 3187485751 -0.66700000
12.82616806 -10.07146740 -2.53711772 1 7 12954 16.50400000 3187485751 3187485751 -8.84300000
15.03867817 -13.04990005 -2.53445578 3 8 12955 20.07200000 3187485753 3187485753 -7.25400000
38.73212433 -27.47464943 0.27599615 29 9 12955 47.48800000 3187485753 3187485753 0.33300000
39.05659866 -33.90354156 -0.30059218 37 10 12956 51.72000000 3187485755 3187485755 -0.33300000
17.06751823 -13.41152954 -2.33814287 4 11 12956 21.83200000 3187485755 3187485755 -6.14800000
18.81758118 -18.02650833 -2.43253207 6 12 12957 26.17200000 3187485757 3187485757 -5.33300000
38.89912033 -30.57762146 1.15133929 18 13 12957 49.49200000 3187485757 3187485757 1.33300000
38.79774857 -37.17971420 0.62559181 42 14 12958 53.74000000 3187485760 3187485760 0.66700000
20.18108749 -15.86954594 -1.79525256 23 15 12958 25.73600000 3187485760 3187485760 -4.00000000
20.13813972 -17.49964714 -2.17796421 11 16 12959 26.76800000 3187485762 3187485762 -4.66700000
39.17635727 -27.83089828 1.39855647 30 17 12959 48.07600000 3187485762 3187485762 1.66700000
39.21779251 -34.09150696 0.90703648 50 18 12960 51.97200000 3187485764 3187485764 1.00000000
20.24211121 -14.38531971 -1.59151936 22 19 12960 24.88400000 3187485764 3187485764 -3.66700000
20.14628029 -19.31958771 -1.62556708 13 20 12960 27.96000000 3187485767 3187485767 -3.33300000
40.29961395 -31.71266937 2.98648524 31 21 12960 51.36800000 3187485767 3187485767 3.33300000
38.91689301 -33.84186554 2.10114694 27 22 12961 51.61600000 3187485769 3187485769 2.33300000
34.35026932 -27.04070663 -2.03638816 6 23 12961 43.76400000 3187485769 3187485769 -2.66700000
20.21044922 -17.58106613 -1.40385973 13 24 12962 26.82400000 3187485771 3187485771 -3.00000000
40.92851257 -35.61625290 4.42915630 38 26 12963 54.43600000 3187485774 3187485774 4.66700000
38.63625336 -27.48781395 -1.93180466 22 27 12963 47.45600000 3187485774 3187485774 -2.33300000
39.30870819 -37.74840927 -1.90313935 31 28 12964 54.53200000 3187485776 3187485776 -2.00000000
39.38311386 -31.03599930 -1.16678607 17 31 12964 50.15600000 3187485778 3187485778 -1.33300000
3.94357753 -3.44262695 -2.44104314 9 0 12972 5.77600000 3187485799 3187485799 -25.00000000
39.14975357 -27.94587135 -0.83960038 20 1 12972 48.10800000 3187485799 3187485799 -1.00000000
39.40680313 -34.41309738 -1.52259851 32 2 12973 52.34000000 3187485801 3187485801 -1.66700000
7.76864481 -6.14191341 -2.77231312 4 3 12973 10.28400000 3187485801 3187485801 -15.63900000
10.17033768 -8.88466167 -2.70092726 3 4 12974 13.77200000 3187485803 3187485803 -11.31000000
38.59283829 -30.52255821 0.00000000 18 5 12974 49.20400000 3187485803 3187485803 0.00000000
38.61527252 -37.22526550 -0.62442768 19 6 12975 53.64000000 3187485806 3187485806 -0.66700000
12.80156708 -10.12821960 -2.53957748 1 7 12975 16.52000000 3187485806 3187485806 -8.84300000
15.01394844 -13.12059212 -2.53799129 3 8 12975 20.10000000 3187485808 3187485808 -7.25400000
38.72385406 -27.67247391 0.27662385 19 9 12975 47.59600000 3187485808 3187485808 0.33300000
39.08256531 -34.16603470 -0.30170807 25 10 12976 51.91200000 3187485810 3187485810 -0.33300000
17.03619194 -13.48336506 -2.34028459 4 11 12976 21.85200000 3187485810 3187485810 -6.14800000
18.78320694 -18.11973381 -2.43624997 6 12 12977 26.21200000 3187485813 3187485813 -5.33300000
38.68868256 -30.63130379 1.14826858 27 13 12977 49.36000000 3187485813 3187485813 1.33300000
38.71377945 -37.35935593 0.62633681 64 14 12978 53.80400000 3187485815 3187485815 0.66700000
20.17248917 -15.97705650 -1.79943800 23 15 12978 25.79600000 3187485815 3187485815 -4.00000000
20.13393402 -17.61972046 -2.18414783 11 16 12979 26.84400000 3187485817 3187485817 -4.66700000
39.10823441 -27.98842239 1.39960372 20 17 12979 48.11200000 3187485817 3187485817 1.66700000
39.33626938 -34.42417526 0.91241181 51 18 12979 52.28000000 3187485820 3187485820 1.00000000
20.24298859 -14.48721313 -1.59535682 22 19 12979 24.94400000 3187485820 3187485820 -3.66700000
20.15627670 -19.46469116 -1.63184607 13 20 12980 28.06800000 3187485822 3187485822 -3.33300000
40.24500275 -31.89779472 2.99067116 31 21 12980 51.44000000 3187485822 3187485822 3.33300000
34.28384781 -27.18278885 -2.03806329 6 23 12981 43.80000000 3187485824 3187485824 -2.66700000
20.21205521 -17.70678139 -1.40825593 13 24 12982 26.90800000 3187485827 3187485827 -3.00000000
40.71099091 -35.67744827 4.41906738 38 26 12983 54.31200000 3187485829 3187485829 4.66700000
38.67000580 -27.71564293 -1.93831789 22 27 12983 47.61600000 3187485829 3187485829 -2.33300000
28.82287979 -27.87284470 -1.40016782 7 28 12984 40.12000000 3187485831 3187485831 -2.00000000
39.35052109 -31.24479103 -1.16920543 25 31 12985 50.26000000 3187485833 3187485833 -1.33300000
3.93698192 -3.46115875 -2.44442391 8 0 12992 5.78400000 3187485854 3187485854 -25.00000000
39.36043167 -28.30417824 -0.84623230 20 1 12992 48.48800000 3187485854 3187485854 -1.00000000
39.31346130 -34.57420731 -1.52364576 32 2 12993 52.37600000 3187485856 3187485856 -1.66700000
7.74113131 -6.16419458 -2.77015638 3 3 12993 10.27600000 3187485856 3187485856 -15.63900000
10.15693092 -8.93565369 -2.70563412 3 4 12994 13.79600000 3187485859 3187485859 -11.31000000
38.73009491 -30.85148048 0.00000000 27 5 12994 49.51600000 3187485859 3187485859 0.00000000
38.64580917 -37.51584625 -0.62703532 40 6 12995 53.86400000 3187485861 3187485861 -0.66700000
12.77231693 -10.17777061 -2.54080725 1 7 12995 16.52800000 3187485861 3187485861 -8.84300000
14.98295116 -13.18602848 -2.54051661 3 8 12995 20.12000000 3187485863 3187485863 -7.25400000
38.79907227 -27.93133545 0.27785596 30 9 12995 47.80800000 3187485863 3187485863 0.33300000
39.03211594 -34.36304092 -0.30224276 26 10 12996 52.00400000 3187485866 3187485866 -0.33300000
17.07920837 -13.61464119 -2.35270786 4 11 12996 21.96800000 3187485866 3187485866 -6.14800000
18.79125977 -18.25456810 -2.44554424 6 12 12997 26.31200000 3187485868 3187485868 -5.33300000
38.94733047 -31.05787086 1.15915573 18 13 12997 49.82800000 3187485868 3187485868 1.33300000
38.71508408 -37.62248611 0.62847883 64 14 12998 53.98800000 3187485870 3187485870 0.66700000
20.16962433 -16.08967590 -1.80418146 24 15 12998 25.86400000 3187485870 3187485870 -4.00000000
20.13212585 -17.74261284 -2.19065714 11 16 12999 26.92400000 3187485873 3187485873 -4.66700000
39.14975739 -28.22531128 1.40460730 20 17 12999 48.28400000 3187485873 3187485873 1.66700000
39.12585449 -34.48194504 0.91031754 51 18 12999 52.16000000 3187485875 3187485875 1.00000000
20.24410439 -14.59513855 -1.59945011 22 19 12999 25.00800000 3187485875 3187485875 -3.66700000
20.13973999 -19.58504105 -1.63603210 13 20 13000 28.14000000 3187485877 3187485877 -3.33300000
40.00233841 -31.93344688 2.98090386 30 21 13000 51.27200000 3187485877 3187485877 3.33300000
39.40807724 -34.75511932 2.14071441 30 22 13001 52.58800000 3187485880 3187485880 2.33300000
34.32613373 -27.41200256 -2.04625273 6 23 13001 43.97600000 3187485880 3187485880 -2.66700000
20.21003151 -17.83008003 -1.41244280 14 24 13002 26.98800000 3187485882 3187485882 -3.00000000
40.58022690 -35.81406403 4.41841650 57 26 13003 54.30400000 3187485884 3187485884 4.66700000
38.67995834 -27.92766380 -1.94369125 22 27 13003 47.74800000 3187485884 3187485884 -2.33300000
28.57648468 -27.82826042 -1.39290869 7 28 13004 39.91200000 3187485886 3187485886 -2.00000000
39.35914230 -31.46500206 -1.17255533 25 31 13004 50.40400000 3187485889 3187485889 -1.33300000
3.93573356 -3.48449278 -2.45118594 7 0 13012 5.80000000 3187485909 3187485909 -25.00000000
39.53669357 -28.64083099 -0.85216612 20 1 13012 48.82800000 3187485909 3187485909 -1.00000000
39.39606857 -34.89148712 -1.53155839 33 2 13013 52.64800000 3187485912 3187485912 -1.66700000
7.72557688 -6.19599867 -2.77231312 3 3 13013 10.28400000 3187485912 3187485912 -15.63900000
10.12861443 -8.97365475 -2.70641851 3 4 13014 13.80000000 3187485914 3187485914 -11.31000000
38.55352783 -30.93141747 0.00000000 27 5 13014 49.42800000 3187485914 3187485914 0.00000000
38.63561630 -37.75561142 -0.62889791 40 6 13014 54.02400000 3187485916 3187485916 -0.66700000
12.74774456 -10.22748947 -2.54265213 1 7 13014 16.54000000 3187485916 3187485916 -8.84300000
14.96058846 -13.25930309 -2.54455733 5 8 13015 20.15200000 3187485919 3187485919 -7.25400000
38.86000443 -28.18166542 0.27899510 30 9 13015 48.00400000 3187485919 3187485919 0.33300000
38.90893555 -34.49642563 -0.30221951 39 10 13016 52.00000000 3187485921 3187485921 -0.33300000
17.03778267 -13.67915535 -2.35356474 4 11 13016 21.97600000 3187485921 3187485921 -6.14800000
18.74450684 -18.33675957 -2.44777489 6 12 13017 26.33600000 3187485923 3187485923 -5.33300000
38.97274780 -31.30130959 1.16315699 28 13 13017 50.00000000 3187485923 3187485923 1.33300000
38.65784454 -37.83013153 0.62968946 43 14 13018 54.09200000 3187485926 3187485926 0.66700000
20.16933060 -16.20496941 -1.80920386 24 15 13018 25.93600000 3187485926 3187485926 -4.00000000
20.13268661 -17.86835289 -2.19749165 11 16 13019 27.00800000 3187485928 3187485928 -4.66700000
39.02188110 -28.34065056 1.40356004 30 17 13019 48.24800000 3187485928 3187485928 1.66700000
39.16976547 -34.76432419 0.91415703 34 18 13019 52.38000000 3187485930 3187485930 1.00000000
20.24148178 -14.70090103 -1.60328758 23 19 13019 25.06800000 3187485930 3187485930 -3.66700000
20.13972664 -19.72227669 -1.64161336 13 20 13020 28.23600000 3187485933 3187485933 -3.33300000
39.89685059 -32.07789230 2.98136902 30 21 13020 51.28000000 3187485933 3187485933 3.33300000
39.37616730 -34.97208786 2.14559937 31 22 13021 52.70800000 3187485935 3187485935 2.33300000
34.27383041 -27.56671715 -2.04885840 6 23 13021 44.03200000 3187485935 3187485935 -2.66700000
20.20440674 -17.95092773 -1.41642034 14 24 13022 27.06400000 3187485937 3187485937 -3.00000000
40.46688461 -35.96609116 4.41971827 19 26 13023 54.32000000 3187485939 3187485939 4.66700000
38.62425613 -28.09307480 -1.94580805 22 27 13023 47.80000000 3187485939 3187485939 -2.33300000
28.35358810 -27.80468750 -1.38676643 7 28 13024 39.73600000 3187485942 3187485942 -2.00000000
39.52072525 -31.83230209 -1.18083704 26 31 13025 50.76000000 3187485944 3187485944 -1.33300000
3.93166399 -3.50544739 -2.45625734 6 0 13032 5.81200000 3187485965 3187485965 -25.00000000
39.56247330 -28.87061119 -0.85488868 20 1 13032 48.98400000 3187485965 3187485965 -1.00000000
39.39339066 -35.13525009 -1.53621292 33 2 13033 52.80800000 3187485967 3187485967 -1.66700000
7.71289110 -6.23018932 -2.77554798 4 3 13033 10.29600000 3187485967 3187485967 -15.63900000
10.10308170 -9.01417828 -2.70798755 3 4 13034 13.80800000 3187485969 3187485969 -11.31000000
38.57599640 -31.17139435 0.00000000 27 5 13034 49.59600000 3187485969 3187485969 0.00000000
38.83143616 -38.21287155 -0.63425279 20 6 13034 54.48400000 3187485972 3187485972 -0.66700000
12.72733784 -10.28434563 -2.54572654 1 7 13034 16.56000000 3187485972 3187485972 -8.84300000
14.95269775 -13.34579372 -2.55112314 3 8 13035 20.20400000 3187485974 3187485974 -7.25400000
38.64511871 -28.23219681 0.27815819 20 9 13035 47.86000000 3187485974 3187485974 0.33300000
38.78231812 -34.62670517 -0.30217302 26 10 13036 51.99200000 3187485976 3187485976 -0.33300000
16.99611473 -13.74354649 -2.35442162 4 11 13036 21.98400000 3187485976 3187485976 -6.14800000
18.70591927 -18.42723465 -2.45112085 6 12 13037 26.37200000 3187485979 3187485979 -5.33300000
38.90677643 -31.47237015 1.16445971 28 13 13037 50.05600000 3187485979 3187485979 1.33300000
38.59392929 -38.03222275 0.63080704 43 14 13038 54.18800000 3187485981 3187485981 0.66700000
20.16537285 -16.31794548 -1.81394732 24 15 13038 26.00400000 3187485981 3187485981 -4.00000000
20.12369537 -17.98634148 -2.20334983 7 16 13039 27.08000000 3187485983 3187485983 -4.66700000
39.06469727 -28.58056641 1.40867996 20 17 13039 48.42400000 3187485983 3187485983 1.66700000
38.82751465 -34.70361328 0.90899116 34 18 13039 52.08400000 3187485986 3187485986 1.00000000
20.23836708 -14.80682278 -1.60712504 23 19 13039 25.12800000 3187485986 3187485986 -3.66700000
20.13615608 -19.85694695 -1.64696217 13 20 13040 28.32800000 3187485988 3187485988 -3.33300000
39.64188385 -32.10136414 2.97067142 20 21 13040 51.09600000 3187485988 3187485988 3.33300000
39.35811615 -35.20257950 2.15129828 31 22 13041 52.84800000 3187485990 3187485990 2.33300000
34.30469131 -27.78930473 -2.05648947 6 23 13041 44.19600000 3187485990 3187485990 -2.66700000
20.20413780 -18.07727814 -1.42081654 14 24 13042 27.14800000 3187485992 3187485992 -3.00000000
41.93928909 -37.53758621 4.59481430 22 26 13043 56.47200000 3187485995 3187485995 4.66700000
38.57753754 -28.26552200 -1.94841325 33 27 13043 47.86400000 3187485995 3187485995 -2.33300000
28.22791481 -27.87540245 -1.38537037 7 28 13044 39.69600000 3187485997 3187485997 -2.00000000
39.54601288 -32.08090973 -1.18493128 26 31 13045 50.93600000 3187485999 3187485999 -1.33300000
3.92479873 -3.52399421 -2.45963836 6 0 13052 5.82000000 3187486020 3187486020 -25.00000000
39.51945877 -29.05117226 -0.85614526 20 1 13052 49.05600000 3187486020 3187486020 -1.00000000
39.26455688 -35.26720047 -1.53598022 33 2 13053 52.80000000 3187486022 3187486022 -1.66700000
7.69707298 -6.26193619 -2.77770448 3 3 13053 10.30400000 3187486022 3187486022 -15.63900000
10.07739067 -9.05463219 -2.70955658 3 4 13054 13.81600000 3187486025 3187486025 -11.31000000
38.75237274 -31.53814888 0.00000000 18 5 13054 49.96400000 3187486025 3187486025 0.00000000
38.80292892 -38.45235443 -0.63597566 42 6 13054 54.63200000 3187486027 3187486027 -0.66700000
12.70668888 -10.34118366 -2.54880118 1 7 13054 16.58000000 3187486027 3187486027 -8.84300000
14.91487503 -13.40586472 -2.55263853 3 8 13055 20.21600000 3187486029 3187486029 -7.25400000
38.81050491 -28.56132889 0.28006449 20 9 13055 48.18800000 3187486029 3187486029 0.33300000
38.89023972 -34.96779633 -0.30396309 27 10 13056 52.30000000 3187486032 3187486032 -0.33300000
16.96037102 -13.81283569 -2.35613513 4 11 13056 22.00000000 3187486032 3187486032 -6.14800000
18.66410255 -18.51485634 -2.45409513 6 12 13057 26.40400000 3187486034 3187486034 -5.33300000
39.28031921 -32.00201416 1.17897594 20 13 13057 50.68000000 3187486034 3187486034 1.33300000
38.77891541 -38.48225021 0.63602221 44 14 13058 54.63600000 3187486036 3187486036 0.66700000
20.16087341 -16.43109131 -1.81869078 24 15 13058 26.07200000 3187486036 3187486036 -4.00000000
20.12301636 -18.11248779 -2.21018457 12 16 13059 27.16400000 3187486039 3187486039 -4.66700000
39.18034363 -28.87568665 1.41647625 30 17 13059 48.69200000 3187486039 3187486039 1.66700000
38.75964737 -34.88709641 0.91024768 34 18 13059 52.15600000 3187486041 3187486041 1.00000000
20.23797417 -14.91526985 -1.61121833 23 19 13059 25.19200000 3187486041 3187486041 -3.66700000
20.13472366 -19.99464417 -1.65254354 13 20 13060 28.42400000 3187486043 3187486043 -3.33300000
39.26469421 -35.36650085 2.15292668 47 22 13061 52.88800000 3187486045 3187486045 2.33300000
34.36537170 -28.03770447 -2.06598186 6 23 13061 44.40000000 3187486045 3187486045 -2.66700000
20.19433022 -18.19582367 -1.42458475 14 24 13062 27.22000000 3187486048 3187486048 -3.00000000
41.69251251 -37.57965469 4.58212185 22 26 13063 56.31600000 3187486050 3187486050 4.66700000
38.54938507 -28.45222473 -1.95199549 22 27 13063 47.95200000 3187486050 3187486050 -2.33300000
28.05390549 -27.89765739 -1.38160133 7 28 13064 39.58800000 3187486052 3187486052 -2.00000000
39.51430511 -32.28454208 -1.18735063 26 31 13065 51.04000000 3187486055 3187486055 -1.33300000
3.91785169 -3.54253554 -2.46301913 6 0 13072 5.82800000 3187486075 3187486075 -25.00000000
39.60744095 -29.32936668 -0.86026400 20 1 13072 49.29200000 3187486075 3187486075 -1.00000000
39.29837036 -35.54619598 -1.54214740 34 2 13073 53.01200000 3187486078 3187486078 -1.66700000
7.67516756 -6.28876591 -2.77770448 5 3 13073 10.30400000 3187486078 3187486078 -15.63900000
10.06317329 -9.10554409 -2.71426320 3 4 13074 13.84000000 3187486080 3187486080 -11.31000000
39.14939880 -32.08908081 0.00000000 30 5 13074 50.62000000 3187486080 3187486080 0.00000000
38.50992203 -38.42935181 -0.63336807 41 6 13074 54.40800000 3187486082 3187486082 -0.66700000
12.68579769 -10.39800262 -2.55187559 1 7 13074 16.60000000 3187486082 3187486082 -8.84300000
14.88858128 -13.47648525 -2.55617404 3 8 13075 20.24400000 3187486085 3187486085 -7.25400000
38.82946396 -28.78476524 0.28092465 20 9 13075 48.33600000 3187486085 3187486085 0.33300000
39.01700592 -35.32885742 -0.30591589 28 10 13076 52.63600000 3187486087 3187486087 -0.33300000
16.93665123 -13.89213181 -2.35956216 2 11 13076 22.03200000 3187486087 3187486087 -6.14800000
18.67261887 -18.65307617 -2.46376133 6 12 13077 26.50800000 3187486089 3187486089 -5.33300000
39.14673233 -32.12117767 1.17832458 29 13 13077 50.65200000 3187486089 3187486089 1.33300000
38.73205566 -38.70502472 0.63746572 67 14 13078 54.76000000 3187486091 3187486091 0.66700000
20.16199684 -16.54946709 -1.82399225 21 15 13078 26.14800000 3187486091 3187486091 -4.00000000
20.10988617 -18.22813606 -2.21571732 12 16 13079 27.23200000 3187486094 3187486094 -4.66700000
39.26229858 -29.14812469 1.42310894 30 17 13079 48.92000000 3187486094 3187486094 1.66700000
38.87765503 -35.23974228 0.91590232 35 18 13079 52.48000000 3187486096 3187486096 1.00000000
20.23706818 -15.02389336 -1.61531162 20 19 13079 25.25600000 3187486096 3187486096 -3.66700000
20.12410164 -20.12410164 -1.65742719 13 20 13080 28.50800000 3187486098 3187486098 -3.33300000
40.13269043 -32.96536636 3.02462435 21 21 13080 52.02400000 3187486098 3187486098 3.33300000
39.30085754 -35.64834213 2.16171932 32 22 13081 53.10400000 3187486101 3187486101 2.33300000
34.38151932 -28.25134850 -2.07286859 6 23 13081 44.54800000 3187486101 3187486101 -2.66700000
20.19577217 -18.32525826 -1.42919028 14 24 13082 27.30800000 3187486103 3187486103 -3.00000000
41.69392014 -37.84553909 4.59676743 22 26 13083 56.49600000 3187486105 3187486105 4.66700000
38.48831940 -28.61522865 -1.95394945 33 27 13083 48.00000000 3187486105 3187486105 -2.33300000
27.92810631 -27.96712875 -1.38020527 7 28 13084 39.54800000 3187486108 3187486108 -2.00000000
39.51253128 -32.51374817 -1.19070053 26 31 13085 51.18400000 3187486110 3187486110 -1.33300000
3.91742849 -3.56458569 -2.46978116 6 0 13090 5.84400000 3187486131 3187486131 -25.00000000
39.46059418 -29.41301918 -0.85907727 20 1 13090 49.22400000 3187486131 3187486131 -1.00000000
39.44670486 -35.90632629 -1.55238724 35 2 13091 53.36400000 3187486133 3187486133 -1.66700000
7.66131687 -6.31774807 -2.77986121 3 3 13091 10.31200000 3187486133 3187486133 -15.63900000
10.04611778 -9.14767647 -2.71740127 3 4 13092 13.85600000 3187486135 3187486135 -11.31000000
38.73983383 -31.95737267 0.00000000 28 5 13092 50.22000000 3187486135 3187486135 0.00000000
38.49907303 -38.66067886 -0.63518405 42 6 13092 54.56400000 3187486138 3187486138 -0.66700000
12.67441177 -10.45541096 -2.55618000 1 7 13092 16.62800000 3187486138 3187486138 -8.84300000
14.85790443 -13.53388023 -2.55819416 3 8 13093 20.26000000 3187486140 3187486140 -7.25400000
38.79975128 -28.95205879 0.28136638 30 9 13093 48.41200000 3187486140 3187486140 0.33300000
39.04774094 -35.58057404 -0.30703178 43 10 13094 52.82800000 3187486142 3187486142 -0.33300000
16.89292526 -13.94527149 -2.35956216 4 11 13094 22.03200000 3187486142 3187486142 -6.14800000
18.63358879 -18.73141098 -2.46636391 7 12 13095 26.53600000 3187486144 3187486144 -5.33300000
39.44647598 -32.57502365 1.19042146 31 13 13095 51.17200000 3187486144 3187486144 1.33300000
38.67231750 -38.88890839 0.63849014 45 14 13096 54.84800000 3187486147 3187486147 0.66700000
20.16527939 -16.65847015 -1.82901478 24 15 13096 26.22000000 3187486147 3187486147 -4.00000000
20.12026596 -18.35301781 -2.22320294 8 16 13097 27.32400000 3187486149 3187486149 -4.66700000
39.21857452 -29.30722809 1.42485440 30 17 13097 48.98000000 3187486149 3187486149 1.66700000
39.04154968 -35.61236572 0.92239457 54 18 13097 52.85200000 3187486151 3187486151 1.00000000
20.23133850 -15.11845970 -1.61863744 23 19 13097 25.30800000 3187486151 3187486151 -3.66700000
20.13115120 -20.25803757 -1.66324115 13 20 13098 28.60800000 3187486154 3187486154 -3.33300000
40.01969528 -33.08364868 3.02392673 21 21 13098 52.01200000 3187486154 3187486154 3.33300000
39.88530731 -36.40752792 2.20014715 17 22 13099 54.04800000 3187486156 3187486156 2.33300000
34.31414795 -28.37704659 -2.07417130 6 23 13099 44.57600000 3187486156 3187486156 -2.66700000
20.20004654 -18.44517708 -1.43358648 14 24 13100 27.39200000 3187486158 3187486158 -3.00000000
41.73965836 -38.12690735 4.61499310 22 26 13101 56.72000000 3187486161 3187486161 4.66700000
38.45582962 -28.77910614 -1.95688033 22 27 13101 48.07200000 3187486161 3187486161 -2.33300000
27.82321167 -28.03770256 -1.37936771 7 28 13102 39.52400000 3187486163 3187486163 -2.00000000
39.46517563 -32.67164230 -1.19218946 26 31 13102 51.24800000 3187486165 3187486165 -1.33300000
3.90638447 -3.58205128 -2.47147155 6 0 13112 5.84800000 3187486186 3187486186 -25.00000000
39.48165512 -29.66522217 -0.86200929 20 1 13112 49.39200000 3187486186 3187486186 -1.00000000
39.38220215 -36.12509537 -1.55529630 35 2 13113 53.46400000 3187486188 3187486188 -1.66700000
7.63996410 -6.34958076 -2.78093934 3 3 13113 10.31600000 3187486188 3187486188 -15.63900000
10.01958942 -9.19413853 -2.71975470 3 4 13114 13.86800000 3187486191 3187486191 -11.31000000
38.89366531 -32.33603668 0.00000000 30 5 13114 50.58000000 3187486191 3187486191 0.00000000
38.51222610 -38.98563766 -0.63797790 42 6 13115 54.80400000 3187486193 3187486193 -0.66700000
12.64449406 -10.51631451 -2.55863976 1 7 13115 16.64400000 3187486193 3187486193 -8.84300000
14.82921410 -13.61229706 -2.56223488 3 8 13115 20.29200000 3187486195 3187486195 -7.25400000
38.70747757 -29.11525345 0.28150585 20 9 13115 48.43600000 3187486195 3187486195 0.33300000
38.96975708 -35.78435135 -0.30749673 29 10 13116 52.90800000 3187486197 3187486197 -0.33300000
16.86676979 -14.03292465 -2.36341763 2 11 13116 22.06800000 3187486197 3187486197 -6.14800000
18.57831573 -18.81982613 -2.46859455 7 12 13117 26.56000000 3187486200 3187486200 -5.33300000
39.09980392 -32.54206085 1.18372166 20 13 13117 50.88400000 3187486200 3187486200 1.33300000
38.76712799 -39.28479767 0.64254123 69 14 13118 55.19600000 3187486202 3187486202 0.66700000
20.15329742 -16.77918053 -1.83375823 24 15 13118 26.28800000 3187486202 3187486202 -4.00000000
20.11421967 -18.48949432 -2.23036289 12 16 13119 27.41200000 3187486204 3187486204 -4.66700000
39.18239975 -29.51533699 1.42764699 30 17 13119 49.07600000 3187486204 3187486204 1.66700000
38.98365402 -35.84730530 0.92441905 54 18 13120 52.96800000 3187486207 3187486207 1.00000000
20.23105812 -15.24519539 -1.62349820 23 19 13120 25.38400000 3187486207 3187486207 -3.66700000
20.12051010 -20.40342522 -1.66882241 13 20 13120 28.70400000 3187486209 3187486209 -3.33300000
39.97827148 -33.30863953 3.03043842 21 21 13120 52.12400000 3187486209 3187486209 3.33300000
40.96298981 -37.68059540 2.26755834 41 22 13121 55.70400000 3187486211 3187486211 2.33300000
34.37375259 -28.64929581 -2.08440828 6 23 13121 44.79600000 3187486211 3187486211 -2.66700000
20.18786240 -18.57670021 -1.43777335 14 24 13122 27.47200000 3187486214 3187486214 -3.00000000
43.68140411 -40.20933914 4.84671879 27 26 13123 59.56800000 3187486216 3187486216 4.66700000
38.45352554 -29.00838852 -1.96241653 22 27 13123 48.20800000 3187486216 3187486216 -2.33300000
27.72376442 -28.15287399 -1.37978649 7 28 13124 39.53600000 3187486218 3187486218 -2.00000000
39.37321091 -32.85111618 -1.19321299 26 31 13124 51.29200000 3187486221 3187486221 -1.33300000
3.90843320 -3.60659838 -2.47992396 5 0 13130 5.86800000 3187486241 3187486241 -25.00000000
39.39783478 -29.79634857 -0.86221868 20 1 13130 49.40400000 3187486241 3187486241 -1.00000000
39.36840820 -36.34084702 -1.55925262 36 2 13131 53.60000000 3187486244 3187486244 -1.66700000
7.62884283 -6.38096523 -2.78417444 3 3 13131 10.32800000 3187486244 3187486244 -15.63900000
10.00218201 -9.23621464 -2.72289252 3 4 13132 13.88400000 3187486246 3187486246 -11.31000000
38.95447540 -32.59410858 0.00000000 20 5 13132 50.79200000 3187486246 3187486246 0.00000000
38.60250473 -39.32336044 -0.64151680 43 6 13133 55.10800000 3187486248 3187486248 -0.66700000
12.61442471 -10.55852318 -2.55925465 1 7 13133 16.64800000 3187486248 3187486248 -8.84300000
14.81260872 -13.68304920 -2.56678057 3 8 13133 20.32800000 3187486250 3187486250 -7.25400000
38.67959976 -29.28500175 0.28197080 30 9 13133 48.51600000 3187486250 3187486250 0.33300000
38.97759247 -36.01790237 -0.30844989 30 10 13134 53.07200000 3187486253 3187486253 -0.33300000
16.90188026 -14.15222645 -2.37455583 2 11 13134 22.17200000 3187486253 3187486253 -6.14800000
18.55256844 -18.91221428 -2.47305584 7 12 13135 26.60800000 3187486255 3187486255 -5.33300000
38.92993546 -32.60824203 1.18167448 20 13 13135 50.79600000 3187486255 3187486255 1.33300000
38.73873520 -39.50348663 0.64412439 46 14 13136 55.33200000 3187486257 3187486257 0.66700000
20.15859604 -16.89110184 -1.83905971 24 15 13136 26.36400000 3187486257 3187486257 -4.00000000
20.12041855 -18.61215210 -2.23752308 12 16 13137 27.50000000 3187486260 3187486260 -4.66700000
39.21373749 -29.73249817 1.43218517 20 17 13137 49.23200000 3187486260 3187486260 1.66700000
39.25878525 -36.31587219 0.93349433 57 18 13137 53.48800000 3187486262 3187486262 1.00000000
20.24299049 -15.34856701 -1.62810314 20 19 13137 25.45600000 3187486262 3187486262 -3.66700000
20.12897873 -20.54068756 -1.67486894 13 20 13138 28.80800000 3187486264 3187486264 -3.33300000
39.95911026 -33.50591278 3.03694987 33 21 13138 52.23600000 3187486264 3187486264 3.33300000
43.17317963 -39.96480942 2.39684463 26 22 13139 58.88000000 3187486267 3187486267 2.33300000
34.30500793 -28.77511597 -2.08571100 6 23 13139 44.82400000 3187486267 3187486267 -2.66700000
20.19095039 -18.69702530 -1.44216967 14 24 13140 27.55600000 3187486269 3187486269 -3.00000000
44.06961441 -40.82320023 4.90399933 28 26 13141 60.27200000 3187486271 3187486271 4.66700000
38.43541336 -29.18464088 -1.96616161 22 27 13141 48.30000000 3187486271 3187486271 -2.33300000
27.64077568 -28.24554634 -1.38006568 7 28 13142 39.54400000 3187486274 3187486274 -2.00000000
39.45968246 -33.13408279 -1.19898224 27 31 13142 51.54000000 3187486276 3187486276 -1.33300000
3.90909815 -3.63255811 -2.48837638 5 0 13150 5.88800000 3187486296 3187486296 -25.00000000
39.31585693 -29.95065689 -0.86270738 20 1 13150 49.43200000 3187486296 3187486296 -1.00000000
39.37016678 -36.59782410 -1.56437254 36 2 13151 53.77600000 3187486298 3187486298 -1.66700000
7.60946846 -6.41003752 -2.78525257 4 3 13151 10.33200000 3187486298 3187486298 -15.63900000
9.98424244 -9.28442764 -2.72681475 3 4 13152 13.90400000 3187486301 3187486301 -11.31000000
38.84963989 -32.73762131 0.00000000 20 5 13152 50.80400000 3187486301 3187486301 0.00000000
38.51936340 -39.49983597 -0.64230841 43 6 13152 55.17600000 3187486303 3187486303 -0.66700000
12.59747601 -10.61557770 -2.56294394 1 7 13152 16.67200000 3187486303 3187486303 -8.84300000
14.78218746 -13.75088692 -2.56981087 3 8 13153 20.35200000 3187486305 3187486305 -7.25400000
38.69800186 -29.51201248 0.28285423 20 9 13153 48.66800000 3187486305 3187486305 0.33300000
38.75499725 -36.06381989 -0.30768272 44 10 13154 52.94000000 3187486308 3187486308 -0.33300000
16.86453819 -14.22139359 -2.37626934 4 11 13154 22.18800000 3187486308 3187486308 -6.14800000
18.56147385 -19.05388641 -2.48309374 7 12 13155 26.71600000 3187486310 3187486310 -5.33300000
38.87089157 -32.79034805 1.18334937 20 13 13155 50.86800000 3187486310 3187486310 1.33300000
38.72338867 -39.76455307 0.64617324 46 14 13156 55.50800000 3187486312 3187486312 0.66700000
20.14830589 -17.00254059 -1.84352410 25 15 13156 26.42800000 3187486312 3187486312 -4.00000000
20.11075401 -18.73390388 -2.24370670 12 16 13157 27.57600000 3187486314 3187486314 -4.66700000
39.37027359 -30.06819725 1.44172692 20 17 13157 49.56000000 3187486314 3187486314 1.66700000
39.30443954 -36.61352539 0.93761307 38 18 13157 53.72400000 3187486317 3187486317 1.00000000
20.23370552 -15.45305538 -1.63168478 20 19 13157 25.51200000 3187486317 3187486317 -3.66700000
20.12399483 -20.67951012 -1.68045032 13 20 13158 28.90400000 3187486319 3187486319 -3.33300000
39.75953293 -33.57563019 3.03067088 32 21 13158 52.12800000 3187486319 3187486319 3.33300000
42.97786713 -40.06348801 2.39375091 52 22 13159 58.80400000 3187486321 3187486321 2.33300000
34.32949829 -29.00040627 -2.09334230 6 23 13159 44.98800000 3187486321 3187486321 -2.66700000
20.18399239 -18.82187653 -1.44635653 14 24 13160 27.63600000 3187486324 3187486324 -3.00000000
43.91226959 -40.96318817 4.90237236 28 26 13161 60.25200000 3187486326 3187486326 4.66700000
38.45076370 -29.40846443 -1.97218633 23 27 13161 48.44800000 3187486326 3187486326 -2.33300000
39.36210251 -33.28711700 -1.19954062 27 31 13162 51.56400000 3187486331 3187486331 -1.33300000
3.90899086 -3.65924883 -2.49682879 4 0 13171 5.90800000 3187486351 3187486351 -25.00000000
39.51672363 -30.33320808 -0.86954868 21 1 13171 49.82400000 3187486351 3187486351 -1.00000000
39.00812531 -36.52870560 -1.55529630 35 2 13172 53.46400000 3187486354 3187486354 -1.66700000
7.59179688 -6.44286966 -2.78740931 4 3 13172 10.34000000 3187486354 3187486354 -15.63900000
9.95587158 -9.32632256 -2.72838378 4 4 13173 13.91200000 3187486356 3187486356 -11.31000000
38.92149734 -33.04288101 0.00000000 21 5 13173 51.05600000 3187486356 3187486356 0.00000000
38.45500946 -39.72409058 -0.64365876 44 6 13173 55.29200000 3187486358 3187486358 -0.66700000
12.57354927 -10.67446804 -2.56601858 1 7 13173 16.69200000 3187486358 3187486358 -8.84300000
14.76643372 -13.83753300 -2.57587171 5 8 13174 20.40000000 3187486361 3187486361 -7.25400000
38.77670288 -29.79744530 0.28422582 20 9 13174 48.90400000 3187486361 3187486361 0.33300000
38.89395142 -36.46002960 -0.30984473 31 10 13175 53.31200000 3187486363 3187486363 -0.33300000
16.81230164 -14.28310966 -2.37626934 4 11 13175 22.18800000 3187486363 3187486363 -6.14800000
18.51643181 -19.14755630 -2.48643970 7 12 13176 26.75200000 3187486365 3187486365 -5.33300000
38.64989090 -32.84713745 1.18027866 30 13 13176 50.73600000 3187486365 3187486365 1.33300000
38.66634369 -39.99823761 0.64766330 47 14 13177 55.63600000 3187486367 3187486367 0.66700000
20.14969444 -17.13055038 -1.84938359 25 15 13177 26.51200000 3187486367 3187486367 -4.00000000
20.10300636 -18.86477852 -2.25054121 8 16 13178 27.66000000 3187486370 3187486370 -4.66700000
39.26931000 -30.21961021 1.44207597 31 17 13178 49.57200000 3187486370 3187486370 1.66700000
39.12915039 -36.71902084 0.93663573 38 18 13178 53.66800000 3187486372 3187486372 1.00000000
20.22754669 -15.56606388 -1.63577807 17 19 13178 25.57600000 3187486372 3187486372 -3.66700000
20.11742592 -20.82493019 -1.68626416 13 20 13179 29.00400000 3187486374 3187486374 -3.33300000
39.61491776 -33.70301437 3.02904296 21 21 13179 52.10000000 3187486374 3187486374 3.33300000
42.55396271 -39.96083069 2.37828207 76 22 13180 58.42400000 3187486377 3187486377 2.33300000
34.26557541 -29.16229057 -2.09594798 6 23 13180 45.04400000 3187486377 3187486377 -2.66700000
20.18765450 -18.96410179 -1.45159006 14 24 13181 27.73600000 3187486379 3187486379 -3.00000000
44.13371277 -41.47331238 4.94403076 28 26 13182 60.76400000 3187486381 3187486381 4.66700000
38.43769073 -29.62238693 -1.97707117 23 27 13182 48.56800000 3187486381 3187486381 -2.33300000
27.39631653 -28.39945984 -1.37797177 22 28 13183 39.48400000 3187486384 3187486384 -2.00000000
39.33115387 -33.50896072 -1.20233214 18 31 13183 51.68400000 3187486386 3187486386 -1.33300000
3.90146971 -3.67784476 -2.50020957 4 0 13191 5.91600000 3187486407 3187486407 -25.00000000
39.57828903 -30.60061455 -0.87324864 21 1 13191 50.03600000 3187486407 3187486407 -1.00000000
39.34580231 -37.10354996 -1.57391429 37 2 13192 54.10400000 3187486409 3187486409 -1.66700000
7.57218933 -6.47183323 -2.78848743 6 3 13192 10.34400000 3187486409 3187486409 -15.63900000
9.93752193 -9.37447548 -2.73230600 3 4 13193 13.93200000 3187486411 3187486411 -11.31000000
39.06130219 -33.39689255 0.00000000 33 5 13193 51.39200000 3187486411 3187486411 0.00000000
38.66260147 -40.21851349 -0.64947933 45 6 13193 55.79200000 3187486414 3187486414 -0.66700000
12.55123234 -10.73113537 -2.56909323 1 7 13193 16.71200000 3187486414 3187486414 -8.84300000
14.72669888 -13.89716339 -2.57738709 3 8 13194 20.41200000 3187486416 3187486416 -7.25400000
38.64714813 -29.91303253 0.28403986 20 9 13194 48.87200000 3187486416 3187486416 0.33300000
38.94678116 -36.76581192 -0.31128609 32 10 13195 53.56000000 3187486418 3187486418 -0.33300000
16.79860306 -14.37273502 -2.38140988 2 11 13195 22.23600000 3187486418 3187486418 -6.14800000
18.46327400 -19.22643661 -2.48829865 7 12 13196 26.77200000 3187486420 3187486420 -5.33300000
38.70513153 -33.12746429 1.18548965 30 13 13196 50.96000000 3187486420 3187486420 1.33300000
38.52648544 -40.13296509 0.64766330 47 14 13197 55.63600000 3187486423 3187486423 0.66700000
20.14736557 -17.25008965 -1.85468507 25 15 13197 26.58800000 3187486423 3187486423 -4.00000000
20.10078049 -18.99507713 -2.25770140 8 16 13198 27.74800000 3187486425 3187486425 -4.66700000
39.20782852 -30.39079285 1.44370508 31 17 13198 49.62800000 3187486425 3187486425 1.66700000
39.04371262 -36.90889740 0.93782252 57 18 13199 53.73600000 3187486427 3187486427 1.00000000
20.22714233 -15.68412590 -1.64038301 14 19 13199 25.64800000 3187486427 3187486427 -3.66700000
20.10266304 -20.95554161 -1.69114780 13 20 13199 29.08800000 3187486430 3187486430 -3.33300000
39.80936813 -34.10870361 3.05299616 33 21 13199 52.51200000 3187486430 3187486430 3.33300000
42.24288177 -39.94710922 2.36867523 50 22 13200 58.18800000 3187486432 3187486432 2.33300000
34.26975632 -29.37273216 -2.10246229 6 23 13200 45.18400000 3187486432 3187486432 -2.66700000
20.17937279 -19.08935547 -1.45577693 14 24 13201 27.81600000 3187486434 3187486434 -3.00000000
43.22130966 -40.90095139 4.85778427 27 26 13202 59.70400000 3187486437 3187486437 4.66700000
38.38141251 -29.79313850 -1.97951365 23 27 13202 48.62800000 3187486437 3187486437 -2.33300000
27.34679413 -28.54687881 -1.38048446 7 28 13203 39.55600000 3187486439 3187486439 -2.00000000
39.27161026 -33.69552612 -1.20410013 27 31 13203 51.76000000 3187486441 3187486441 -1.33300000
3.90503001 -3.70573497 -2.51035237 3 0 13210 5.94000000 3187486462 3187486462 -25.00000000
39.45766449 -30.71695328 -0.87282974 21 1 13210 50.01200000 3187486462 3187486462 -1.00000000
39.19644928 -37.20904541 -1.57286704 37 2 13211 54.06800000 3187486464 3187486464 -1.66700000
7.55652571 -6.50193262 -2.79064417 4 3 13211 10.35200000 3187486464 3187486464 -15.63900000
9.91775703 -9.41818142 -2.73544407 3 4 13212 13.94800000 3187486466 3187486466 -11.31000000
39.10192108 -33.65671158 0.00000000 33 5 13212 51.59200000 3187486466 3187486466 0.00000000
38.65454483 -40.49209595 -0.65171438 46 6 13213 55.98400000 3187486469 3187486469 -0.66700000
12.51669216 -10.77746105 -2.56970811 1 7 13213 16.71600000 3187486469 3187486469 -8.84300000
14.70067120 -13.96505260 -2.58092260 5 8 13213 20.44000000 3187486471 3187486471 -7.25400000
38.65185547 -30.12216568 0.28480703 30 9 13213 49.00400000 3187486471 3187486471 0.33300000
38.95802689 -37.02151108 -0.31235549 32 10 13214 53.74400000 3187486473 3187486473 -0.33300000
16.75988960 -14.43614864 -2.38269520 2 11 13214 22.24800000 3187486473 3187486473 -6.14800000
18.42415619 -19.31349373 -2.49164462 7 12 13215 26.80800000 3187486476 3187486476 -5.33300000
38.72533035 -33.36787796 1.18949091 20 13 13215 51.13200000 3187486476 3187486476 1.33300000
38.55880737 -40.43417740 0.65045714 47 14 13216 55.87600000 3187486478 3187486478 0.66700000
20.13538742 -17.35588455 -1.85887051 25 15 13216 26.64800000 3187486478 3187486478 -4.00000000
20.09544945 -19.11658478 -2.26421046 8 16 13217 27.82800000 3187486480 3187486480 -4.66700000
39.14780807 -30.55262375 1.44521773 31 17 13217 49.68000000 3187486480 3187486480 1.66700000
39.10722351 -37.20227814 0.94215071 39 18 13217 53.98400000 3187486483 3187486483 1.00000000
20.21867752 -15.77952099 -1.64370871 21 19 13217 25.70000000 3187486483 3187486483 -3.66700000
20.10744095 -21.10014153 -1.69742692 13 20 13218 29.19600000 3187486485 3187486485 -3.33300000
40.11331940 -34.60046005 3.08508897 23 21 13218 53.06400000 3187486485 3187486485 3.33300000
34.19031525 -29.50187492 -2.10357904 6 23 13219 45.20800000 3187486487 3187486487 -2.66700000
20.17091942 -19.20850754 -1.45975447 14 24 13220 27.89200000 3187486490 3187486490 -3.00000000
43.57039261 -41.50602722 4.91246128 28 26 13221 60.37600000 3187486492 3187486492 4.66700000
38.41151047 -30.02116013 -1.98618960 11 27 13221 48.79200000 3187486492 3187486492 -2.33300000
27.35118675 -28.74165916 -1.38550997 22 28 13222 39.70000000 3187486494 3187486494 -2.00000000
39.24150085 -33.90822601 -1.20679867 18 31 13223 51.87600000 3187486496 3187486496 -1.33300000
3.90255427 -3.72936201 -2.51711440 4 0 13230 5.95600000 3187486517 3187486517 -25.00000000
39.51071167 -30.98035431 -0.87639004 22 1 13230 50.21600000 3187486517 3187486517 -1.00000000
39.18193436 -37.45615387 -1.57752144 38 2 13231 54.22800000 3187486519 3187486519 -1.66700000
7.53960609 -6.53331518 -2.79280066 5 3 13231 10.36000000 3187486519 3187486519 -15.63900000
9.89049053 -9.45816517 -2.73701286 3 4 13232 13.95600000 3187486522 3187486522 -11.31000000
38.78773499 -33.62269592 0.00000000 32 5 13232 51.33200000 3187486522 3187486522 0.00000000
38.54873657 -40.66451263 -0.65231973 46 6 13233 56.03600000 3187486524 3187486524 -0.66700000
12.49691200 -10.83662319 -2.57339740 1 7 13233 16.74000000 3187486524 3187486524 -8.84300000
14.67190552 -14.03548241 -2.58445811 5 8 13233 20.46800000 3187486526 3187486526 -7.25400000
38.73211288 -30.40261841 0.28617862 20 9 13233 49.24000000 3187486526 3187486526 0.33300000
38.79388046 -37.12408829 -0.31207651 32 10 13234 53.69600000 3187486529 3187486529 -0.33300000
16.72742081 -14.51019955 -2.38526535 2 11 13234 22.27200000 3187486529 3187486529 -6.14800000
18.43331909 -19.45864487 -2.50205421 7 12 13235 26.92000000 3187486531 3187486531 -5.33300000
39.20965958 -34.02441025 1.20800829 32 13 13235 51.92800000 3187486531 3187486531 1.33300000
38.66769791 -40.83280563 0.65469450 48 14 13236 56.24000000 3187486533 3187486533 0.66700000
20.13494682 -17.47837830 -1.86445105 25 15 13236 26.72800000 3187486533 3187486533 -4.00000000
20.10057068 -19.25556183 -2.27234697 8 16 13237 27.92800000 3187486536 3187486536 -4.66700000
39.38669586 -30.96089172 1.45801759 21 17 13237 50.12000000 3187486536 3187486536 1.66700000
39.08975983 -37.44646072 0.94487327 39 18 13237 54.14000000 3187486538 3187486538 1.00000000
20.22310066 -15.89687252 -1.64856958 21 19 13237 25.77600000 3187486538 3187486538 -3.66700000
20.10777283 -21.24851227 -1.70370591 13 20 13238 29.30400000 3187486540 3187486540 -3.33300000
39.65767288 -34.44959259 3.05927539 33 21 13238 52.62000000 3187486540 3187486540 3.33300000
41.49683380 -39.78013229 2.34197116 24 22 13239 57.53200000 3187486543 3187486543 2.33300000
34.21078110 -29.72849846 -2.11121011 6 23 13239 45.37200000 3187486543 3187486543 -2.66700000
20.17294121 -19.34515572 -1.46477878 14 24 13240 27.98800000 3187486545 3187486545 -3.00000000
43.24974442 -41.48950958 4.89260864 28 26 13241 60.13200000 3187486547 3187486547 4.66700000
38.44466019 -30.26383209 -1.99335408 23 27 13241 48.96800000 3187486547 3187486547 -2.33300000
27.17106819 -28.75269699 -1.38146162 22 28 13242 39.58400000 3187486549 3187486549 -2.00000000
39.27667618 -34.16677475 -1.21135819 18 31 13242 52.07200000 3187486552 3187486552 -1.33300000
3.89930630 -3.75369740 -2.52387619 4 0 13251 5.97200000 3187486572 3187486572 -25.00000000
39.56322098 -31.25636292 -0.88008994 22 1 13251 50.42800000 3187486572 3187486572 -1.00000000
39.19414902 -37.74373245 -1.58357227 38 2 13252 54.43600000 3187486575 3187486575 -1.66700000
7.51851130 -6.56343842 -2.79387903 4 3 13252 10.36400000 3187486575 3187486575 -15.63900000
9.86423302 -9.50251579 -2.73936629 3 4 13253 13.96800000 3187486577 3187486577 -11.31000000
38.89924622 -33.96986008 0.00000000 33 5 13253 51.64400000 3187486577 3187486577 0.00000000
38.51622009 -40.91531754 -0.65418231 46 6 13253 56.19600000 3187486579 3187486579 -0.66700000
12.47091770 -10.89057922 -2.57585716 1 7 13253 16.75600000 3187486579 3187486579 -8.84300000
14.64322281 -14.11119080 -2.58849859 3 8 13254 20.50000000 3187486582 3187486582 -7.25400000
38.62983322 -30.55181694 0.28624839 20 9 13254 49.25200000 3187486582 3187486582 0.33300000
38.66331100 -37.27157593 -0.31212300 48 10 13255 53.70400000 3187486584 3187486584 -0.33300000
16.74899101 -14.63683605 -2.39597511 4 11 13255 22.37200000 3187486584 3187486584 -6.14800000
18.38916016 -19.55508995 -2.50577211 7 12 13256 26.96000000 3187486586 3187486586 -5.33300000
39.08469009 -34.16789246 1.20800829 21 13 13256 51.92800000 3187486586 3187486586 1.33300000
38.70132828 -41.16950989 0.65781432 49 14 13257 56.50800000 3187486589 3187486589 0.66700000
