# .PCD v0.7 - Point Cloud Data file format
VERSION 0.7
FIELDS x y z intensity laser_id azimuth distance_m adjustedtime timestamp vertical_angle
SIZE 4 4 4 1 1 2 8 8 4 8
TYPE F F F U U U F U U F
COUNT 1 1 1 1 1 1 1 1 1 1
WIDTH 509
HEIGHT 1
VIEWPOINT 0 0 0 1 0 0 0
POINTS 509
DATA ascii
38.28182983 -48.99850845 0.00000000 44 5 14340 62.18000000 3175889623 3175889623 0.00000000
38.20849609 -60.23018646 -0.83038175 29 6 14341 71.33200000 3175889625 3175889625 -0.66700000
10.87231541 -13.92093563 -2.74803185 2 7 14341 17.87600000 3175889625 3175889625 -8.84300000
12.79413414 -18.14356422 -2.82588291 2 8 14341 22.38000000 3175889627 3175889627 -7.25400000
38.57211304 -44.70199585 0.34315863 52 9 14341 59.04400000 3175889627 3175889627 0.33300000
38.18177032 -54.16624451 -0.38516715 56 10 14342 66.27200000 3175889630 3175889630 -0.33300000
15.03919983 -19.26315308 -2.63244534 2 11 14342 24.58000000 3175889630 3175889630 -6.14800000
16.20524025 -25.56495094 -2.82549977 4 12 14343 30.40000000 3175889632 3175889632 -5.33300000
40.75535202 -52.22080994 1.54141569 20 13 14343 66.26000000 3175889632 3175889632 1.33300000
39.19169617 -61.85163116 0.85245323 28 14 14344 73.22800000 3175889634 3175889634 0.66700000
19.92523575 -25.53986931 -2.26513219 13 15 14344 32.47200000 3175889634 3175889634 -4.00000000
18.68555450 -26.53759766 -2.64955282 5 16 14345 32.56400000 3175889637 3175889637 -4.66700000
40.26345062 -46.72803497 1.79511869 56 17 14345 61.70800000 3175889637 3175889637 1.66700000
43.20458603 -61.36001205 1.30990779 28 18 14345 75.05600000 3175889639 3175889639 1.00000000
20.04559708 -23.26406097 -1.96810138 14 19 14345 30.77200000 3175889639 3175889639 -3.66700000
19.82347107 -31.30921555 -2.15812039 16 20 14346 37.12000000 3175889641 3175889641 -3.33300000
42.33473206 -54.30310440 4.00996447 28 21 14346 68.97200000 3175889641 3175889641 3.33300000
44.40274811 -63.10845184 3.14374185 28 22 14347 77.22800000 3175889644 3175889644 2.33300000
20.29991341 -26.04823875 -1.53831899 10 23 14347 33.06000000 3175889644 3175889644 -2.66700000
19.95361710 -28.37006950 -1.81773245 21 24 14348 34.73200000 3175889646 3175889646 -3.00000000
38.32459259 -44.54072189 -2.39391375 26 27 14349 58.80800000 3175889648 3175889648 -2.33300000
38.83015823 -61.42323685 -2.53761220 25 28 14350 72.71200000 3175889650 3175889650 -2.00000000
38.31365204 -49.21605682 -1.45134079 28 31 14350 62.38800000 3175889653 3175889653 -1.33300000
3.49833369 -4.99428272 -2.84337568 20 0 14359 6.72800000 3175889673 3175889673 -25.00000000
38.69181442 -45.12657166 -1.03758049 54 1 14359 59.45200000 3175889673 3175889673 -1.00000000
38.18402481 -54.53243637 -1.93742955 28 2 14360 66.60000000 3175889676 3175889676 -1.66700000
6.39086771 -8.23905659 -2.91896200 6 3 14360 10.82800000 3175889676 3175889676 -15.63900000
8.41647148 -12.02443218 -2.93548369 1 4 14361 14.96800000 3175889678 3175889678 -11.31000000
38.24414825 -49.32183075 0.00000000 44 5 14361 62.41200000 3175889678 3175889678 0.00000000
38.22601318 -60.72537994 -0.83536410 58 6 14361 71.76000000 3175889680 3175889680 -0.66700000
10.83092117 -13.96817303 -2.74987674 2 7 14361 17.88800000 3175889680 3175889680 -8.84300000
12.74119759 -18.20984268 -2.82891321 2 8 14362 22.40400000 3175889683 3175889683 -7.25400000
38.55892944 -45.01926804 0.34450701 53 9 14362 59.27600000 3175889683 3175889683 0.33300000
38.05176163 -54.40415573 -0.38586459 56 10 14363 66.39200000 3175889685 3175889685 -0.33300000
14.97580338 -19.32757759 -2.63373065 2 11 14363 24.59200000 3175889685 3175889685 -6.14800000
16.17078972 -25.71858025 -2.83590937 4 12 14364 30.51200000 3175889687 3175889687 -5.33300000
40.79631042 -52.67017365 1.55025566 41 13 14364 66.64000000 3175889687 3175889687 1.33300000
38.98176193 -62.02195358 0.85282576 28 14 14365 73.26000000 3175889690 3175889690 0.66700000
19.91943741 -25.72631073 -2.27517724 13 15 14365 32.61600000 3175889690 3175889690 -4.00000000
18.62469482 -26.65819550 -2.65476012 5 16 14366 32.62800000 3175889692 3175889692 -4.66700000
39.93858337 -46.69602203 1.78825331 84 17 14366 61.47200000 3175889692 3175889692 1.66700000
42.99772263 -61.54418182 1.31046629 28 18 14366 75.08800000 3175889694 3175889694 1.00000000
20.03543854 -23.42535019 -1.97552049 14 19 14366 30.88800000 3175889694 3175889694 -3.66700000
19.82963753 -31.57441521 -2.17137623 16 20 14367 37.34800000 3175889697 3175889697 -3.33300000
42.56305313 -55.01060104 4.05066204 29 21 14367 69.67200000 3175889697 3175889697 3.33300000
44.09335709 -63.15935135 3.13820577 28 22 14368 77.09200000 3175889699 3175889699 2.33300000
20.30208778 -26.24888992 -1.54576397 10 23 14368 33.22000000 3175889699 3175889699 -2.66700000
19.93865585 -28.57076454 -1.82589686 21 24 14369 34.88800000 3175889701 3175889701 -3.00000000
38.27788544 -44.81764603 -2.40124106 26 27 14370 58.98800000 3175889703 3175889703 -2.33300000
38.80440140 -61.88350296 -2.55073452 26 28 14371 73.08800000 3175889706 3175889706 -2.00000000
38.35171890 -49.65714264 -1.45999467 28 31 14372 62.76000000 3175889708 3175889708 -1.33300000
3.44983673 -4.96181631 -2.81801867 17 0 14379 6.66800000 3175889729 3175889729 -25.00000000
38.68183517 -45.43493271 -1.04155958 55 1 14379 59.68000000 3175889729 3175889729 -1.00000000
38.15088654 -54.89193344 -1.94545853 28 2 14380 66.87600000 3175889731 3175889731 -1.66700000
6.37382030 -8.27657413 -2.92435360 6 3 14380 10.84800000 3175889731 3175889731 -15.63900000
8.38339806 -12.06662273 -2.93862152 1 4 14381 14.98400000 3175889733 3175889733 -11.31000000
38.13031006 -49.53109741 0.00000000 44 5 14381 62.50800000 3175889733 3175889733 0.00000000
38.13246918 -61.04841232 -0.83797175 29 6 14381 71.98400000 3175889736 3175889736 -0.66700000
10.79897499 -14.02781868 -2.75418091 2 7 14381 17.91600000 3175889736 3175889736 -8.84300000
12.68434620 -18.26398277 -2.83042860 2 8 14382 22.41600000 3175889738 3175889738 -7.25400000
38.57257843 -45.35469055 0.34604135 54 9 14382 59.54000000 3175889738 3175889738 0.33300000
38.04639435 -54.80279541 -0.38774765 56 10 14383 66.71600000 3175889740 3175889740 -0.33300000
14.93006992 -19.40810394 -2.63758612 2 11 14383 24.62800000 3175889740 3175889740 -6.14800000
16.09567261 -25.79852295 -2.83851194 4 12 14384 30.54000000 3175889743 3175889743 -5.33300000
40.64633942 -52.85663986 1.55155838 62 13 14384 66.69600000 3175889743 3175889743 1.33300000
38.84122467 -62.27982330 0.85450208 28 14 14385 73.40400000 3175889745 3175889745 0.66700000
19.91706276 -25.90957260 -2.28522205 13 15 14385 32.76000000 3175889745 3175889745 -4.00000000
18.59968376 -26.82132721 -2.66452384 5 16 14386 32.74800000 3175889747 3175889747 -4.66700000
39.94357300 -47.03324127 1.79581690 56 17 14386 61.73200000 3175889747 3175889747 1.66700000
42.86467743 -61.81221008 1.31297946 28 18 14386 75.23200000 3175889750 3175889750 1.00000000
20.03365135 -23.58946609 -1.98345125 15 19 14386 31.01200000 3175889750 3175889750 -3.66700000
19.85657883 -31.86372757 -2.18649220 16 20 14387 37.60800000 3175889752 3175889752 -3.33300000
42.24670792 -54.99733353 4.03880167 28 21 14387 69.46800000 3175889752 3175889752 3.33300000
44.15716934 -63.72351456 3.15855932 28 22 14388 77.59200000 3175889754 3175889754 2.33300000
20.21520615 -26.32593536 -1.54613614 7 23 14388 33.22800000 3175889754 3175889754 -2.66700000
19.93433571 -28.77810478 -1.83468926 14 24 14389 35.05600000 3175889756 3175889756 -3.00000000
38.26080322 -45.11558914 -2.41003394 27 27 14390 59.20400000 3175889759 3175889759 -2.33300000
28.24630547 -45.39724731 -1.86712313 14 28 14391 53.50000000 3175889761 3175889761 -2.00000000
38.42147827 -50.10805130 -1.46929991 43 31 14392 63.16000000 3175889763 3175889763 -1.33300000
3.42512536 -4.96129560 -2.81125665 21 0 14398 6.65200000 3175889784 3175889784 -25.00000000
38.51029587 -45.53852844 -1.04100108 54 1 14398 59.64800000 3175889784 3175889784 -1.00000000
38.16622543 -55.30443954 -1.95558202 28 2 14399 67.22400000 3175889786 3175889786 -1.66700000
6.35335922 -8.30684376 -2.92758846 6 3 14399 10.86000000 3175889786 3175889786 -15.63900000
8.34111118 -12.09112835 -2.93783712 1 4 14400 14.98000000 3175889789 3175889789 -11.31000000
38.17478561 -49.93054962 0.00000000 44 5 14400 62.85200000 3175889789 3175889789 0.00000000
38.07313919 -61.40568542 -0.84113812 58 6 14400 72.25600000 3175889791 3175889791 -0.66700000
10.75719833 -14.06983185 -2.75541091 2 7 14400 17.92400000 3175889791 3175889791 -8.84300000
12.64848995 -18.34187889 -2.83598423 2 8 14401 22.46000000 3175889793 3175889793 -7.25400000
38.62588501 -45.72374344 0.34787792 55 9 14401 59.85600000 3175889793 3175889793 0.33300000
38.38205338 -55.67952728 -0.39304811 56 10 14402 67.62800000 3175889796 3175889796 -0.33300000
14.88011551 -19.47646904 -2.64015651 2 11 14402 24.65200000 3175889796 3175889796 -6.14800000
16.07923317 -25.96349144 -2.85078049 4 12 14403 30.67200000 3175889798 3175889798 -5.33300000
40.53636932 -53.07694626 1.55407083 21 13 14403 66.80400000 3175889798 3175889798 1.33300000
38.74185181 -62.58172607 0.85687685 28 14 14404 73.60800000 3175889800 3175889800 0.66700000
19.91336060 -26.08331299 -2.29470897 13 15 14404 32.89600000 3175889800 3175889800 -4.00000000
18.55133629 -26.94196320 -2.67038202 5 16 14405 32.82000000 3175889803 3175889803 -4.66700000
41.08415604 -48.70267868 1.85434699 28 17 14405 63.74400000 3175889803 3175889803 1.66700000
42.95432663 -62.38223648 1.32205474 28 18 14405 75.75200000 3175889805 3175889805 1.00000000
20.03253174 -23.74730492 -1.99112606 15 19 14405 31.13200000 3175889805 3175889805 -3.66700000
19.85584068 -32.09920120 -2.19812012 16 20 14406 37.80800000 3175889807 3175889807 -3.33300000
106.97558594 -140.22235107 10.27130413 42 21 14406 176.66800000 3175889807 3175889807 3.33300000
44.28543472 -64.36347961 3.18298364 28 22 14407 78.19200000 3175889809 3175889809 2.33300000
20.20532990 -26.49449730 -1.55209219 7 23 14407 33.35600000 3175889809 3175889809 -2.66700000
19.92934227 -28.97569847 -1.84306300 15 24 14408 35.21600000 3175889812 3175889812 -3.00000000
38.14445496 -45.28195572 -2.41215062 27 27 14409 59.25600000 3175889814 3175889814 -2.33300000
28.05359650 -45.42264175 -1.86433113 14 28 14410 53.42000000 3175889816 3175889816 -2.00000000
38.30598068 -50.30199814 -1.47125399 29 31 14411 63.24400000 3175889819 3175889819 -1.33300000
3.55008364 -5.17894745 -2.92789936 33 0 14417 6.92800000 3175889839 3175889839 -25.00000000
38.50055313 -45.83441162 -1.04484069 55 1 14417 59.86800000 3175889839 3175889839 -1.00000000
38.20184708 -55.75063324 -1.96686924 28 2 14418 67.61200000 3175889842 3175889842 -1.66700000
6.32577801 -8.32786655 -2.92758846 6 3 14418 10.86000000 3175889842 3175889842 -15.63900000
8.30096912 -12.11872196 -2.93783712 1 4 14419 14.98000000 3175889844 3175889844 -11.31000000
38.23396301 -50.35313416 0.00000000 44 5 14419 63.22400000 3175889844 3175889844 0.00000000
37.96363831 -61.68488693 -0.84323353 29 6 14419 72.43600000 3175889846 3175889846 -0.66700000
10.72721386 -14.12746143 -2.75971508 2 7 14419 17.95200000 3175889846 3175889846 -8.84300000
12.59432220 -18.39354324 -2.83749962 2 8 14420 22.47200000 3175889849 3175889849 -7.25400000
38.55374908 -45.94657135 0.34859857 55 9 14420 59.98000000 3175889849 3175889849 0.33300000
38.21075821 -55.82630539 -0.39318758 56 10 14421 67.65200000 3175889851 3175889851 -0.33300000
14.87794971 -19.60807991 -2.65129447 2 11 14421 24.75600000 3175889851 3175889851 -6.14800000
16.02016068 -26.06077766 -2.85561347 4 12 14422 30.72400000 3175889853 3175889853 -5.33300000
40.34321976 -53.18877411 1.55341947 20 13 14422 66.77600000 3175889853 3175889853 1.33300000
38.64509583 -62.89046478 0.85934478 28 14 14423 73.82000000 3175889855 3175889855 0.66700000
19.90872383 -26.25731087 -2.30419588 13 15 14423 33.03200000 3175889855 3175889855 -4.00000000
18.52714348 -27.09877586 -2.67982030 5 16 14424 32.93600000 3175889858 3175889858 -4.66700000
40.94810486 -48.86929703 1.85551059 56 17 14424 63.78400000 3175889858 3175889858 1.66700000
42.91876984 -62.77525330 1.32736027 28 18 14424 76.05600000 3175889860 3175889860 1.00000000
20.02545738 -23.89927673 -1.99828935 15 19 14424 31.24400000 3175889860 3175889860 -3.66700000
19.84958076 -32.32821274 -2.20928288 17 20 14425 38.00000000 3175889862 3175889862 -3.33300000
41.58199692 -54.88164139 4.00996447 28 21 14425 68.97200000 3175889862 3175889862 3.33300000
42.23655701 -61.82371902 3.05044079 28 22 14426 74.93600000 3175889865 3175889865 2.33300000
20.17767143 -26.64098549 -1.55674529 7 23 14426 33.45600000 3175889865 3175889865 -2.66700000
19.92100143 -29.17027664 -1.85122740 15 24 14427 35.37200000 3175889867 3175889867 -3.00000000
38.34289169 -45.82506943 -2.43429542 28 27 14428 59.80000000 3175889869 3175889869 -2.33300000
27.82133102 -45.38250351 -1.85888684 14 28 14429 53.26400000 3175889872 3175889872 -2.00000000
38.18961716 -50.49572754 -1.47320819 44 31 14430 63.32800000 3175889874 3175889874 -1.33300000
3.54738784 -5.21590519 -2.94142318 23 0 14438 6.96000000 3175889895 3175889895 -25.00000000
38.55768204 -46.24552917 -1.05098391 56 1 14438 60.22000000 3175889895 3175889895 -1.00000000
38.37715912 -56.44907761 -1.98653436 28 2 14439 68.28800000 3175889897 3175889897 -1.66700000
6.30216837 -8.36022377 -2.93082333 6 3 14439 10.87200000 3175889897 3175889897 -15.63900000
8.25870037 -12.15230942 -2.93862152 1 4 14440 14.98400000 3175889899 3175889899 -11.31000000
38.19599533 -50.68779755 0.00000000 44 5 14440 63.46800000 3175889899 3175889899 0.00000000
37.84357452 -61.99773026 -0.84560829 29 6 14440 72.64000000 3175889902 3175889902 -0.66700000
10.69201279 -14.18877983 -2.76401949 2 7 14440 17.98000000 3175889902 3175889902 -8.84300000
12.54465961 -18.46583748 -2.84154010 2 8 14441 22.50400000 3175889904 3175889904 -7.25400000
38.69995117 -46.46561050 0.35145804 56 9 14441 60.47200000 3175889904 3175889904 0.33300000
38.22161484 -56.28364944 -0.39541936 56 10 14442 68.03600000 3175889906 3175889906 -0.33300000
14.82512093 -19.68789482 -2.65472174 2 11 14442 24.78800000 3175889906 3175889906 -6.14800000
15.95563316 -26.17032623 -2.86119032 4 12 14443 30.78400000 3175889908 3175889908 -5.33300000
40.28508377 -53.51839447 1.55872345 42 13 14443 67.00400000 3175889908 3175889908 1.33300000
38.84728622 -63.74209213 0.86903012 28 14 14444 74.65200000 3175889911 3175889911 0.66700000
19.90592003 -26.45445442 -2.31507778 13 15 14444 33.18800000 3175889911 3175889911 -4.00000000
18.46798134 -27.22588539 -2.68567848 5 16 14445 33.00800000 3175889913 3175889913 -4.66700000
40.56162643 -48.77005386 1.84608531 56 17 14445 63.46000000 3175889913 3175889913 1.66700000
43.25865555 -63.77281952 1.34509182 28 18 14445 77.07200000 3175889915 3175889915 1.00000000
20.02196121 -24.07379150 -2.00673175 10 19 14445 31.37600000 3175889915 3175889915 -3.66700000
19.84311295 -32.58491898 -2.22184086 17 20 14446 38.21600000 3175889918 3175889918 -3.33300000
107.24197388 -142.62541199 10.39223385 42 21 14446 178.74800000 3175889918 3175889918 3.33300000
41.74955750 -61.59434128 3.03155255 28 22 14447 74.47200000 3175889920 3175889920 2.33300000
20.14471245 -26.80099869 -1.56177068 7 23 14447 33.56400000 3175889920 3175889920 -2.66700000
19.91702271 -29.39521217 -1.86085725 15 24 14448 35.55600000 3175889922 3175889922 -3.00000000
38.30745697 -46.12517166 -2.44276237 57 27 14449 60.00800000 3175889925 3175889925 -2.33300000
27.66311646 -45.49783325 -1.85944521 14 28 14450 53.28000000 3175889927 3175889927 -2.00000000
38.16678619 -50.83338928 -1.47916353 44 31 14450 63.58400000 3175889929 3175889929 -1.33300000
3.42977500 -5.08102369 -2.85858989 25 0 14458 6.76400000 3175889950 3175889950 -25.00000000
38.76072311 -46.82038116 -1.06096673 28 1 14458 60.79200000 3175889950 3175889950 -1.00000000
38.34313583 -56.82464218 -1.99502885 28 2 14459 68.58000000 3175889952 3175889952 -1.66700000
6.28448677 -8.39759064 -2.93621492 6 3 14459 10.89200000 3175889952 3175889952 -15.63900000
8.22719765 -12.19732189 -2.94254375 1 4 14460 15.00400000 3175889955 3175889955 -11.31000000
38.15301132 -51.00018311 0.00000000 45 5 14460 63.69200000 3175889955 3175889955 0.00000000
37.80665588 -62.45080185 -0.84989220 29 6 14461 73.00800000 3175889957 3175889957 -0.66700000
10.65177155 -14.24369907 -2.76709414 3 7 14461 18.00000000 3175889957 3175889957 -8.84300000
12.51783657 -18.56544495 -2.85012627 2 8 14461 22.57200000 3175889959 3175889959 -7.25400000
38.74909592 -46.85625839 0.35338759 56 9 14461 60.80400000 3175889959 3175889959 0.33300000
38.13669205 -56.58256912 -0.39658174 56 10 14462 68.23600000 3175889961 3175889961 -0.33300000
14.77297497 -19.76182175 -2.65772033 2 11 14462 24.81600000 3175889961 3175889961 -6.14800000
15.92190266 -26.32127953 -2.87159991 4 12 14463 30.89600000 3175889964 3175889964 -5.33300000
40.12914276 -53.70033264 1.55993319 42 13 14463 67.05600000 3175889964 3175889964 1.33300000
38.82943344 -64.21614838 0.87364000 28 14 14464 75.04800000 3175889966 3175889966 0.66700000
19.90181160 -26.64205742 -2.32540178 13 15 14464 33.33600000 3175889966 3175889966 -4.00000000
18.39732361 -27.32656288 -2.68925858 5 16 14465 33.05200000 3175889968 3175889968 -4.66700000
40.42423630 -48.95141983 1.84759796 84 17 14465 63.51200000 3175889968 3175889968 1.66700000
44.90700912 -66.72800446 1.40394139 28 18 14466 80.44400000 3175889971 3175889971 1.00000000
20.01491165 -24.24552345 -2.01491833 10 19 14466 31.50400000 3175889971 3175889971 -3.66700000
19.83869553 -32.83513260 -2.23416638 17 20 14466 38.42800000 3175889973 3175889973 -3.33300000
106.54759216 -142.73648071 10.37316418 42 21 14466 178.42000000 3175889973 3175889973 3.33300000
41.52760315 -61.72975159 3.03106403 28 22 14467 74.46000000 3175889975 3175889975 2.33300000
20.12750244 -26.97363091 -1.56772661 7 23 14467 33.69200000 3175889975 3175889975 -2.66700000
19.91014481 -29.60709000 -1.86985910 15 24 14468 35.72800000 3175889978 3175889978 -3.00000000
44.23188782 -65.79918671 6.47238111 28 26 14469 79.54800000 3175889980 3175889980 4.66700000
38.28352737 -46.42511749 -2.45155525 57 27 14469 60.22400000 3175889980 3175889980 -2.33300000
27.47315788 -45.54277420 -1.85735118 14 28 14470 53.22000000 3175889982 3175889982 -2.00000000
38.11099625 -51.12982559 -1.48390913 30 31 14470 63.78800000 3175889985 3175889985 -1.33300000
3.42614222 -5.11404753 -2.87042332 18 0 14478 6.79200000 3175890005 3175890005 -25.00000000
38.62244797 -46.98628998 -1.06166482 28 1 14478 60.83200000 3175890005 3175890005 -1.00000000
38.29138565 -57.17740250 -2.00270867 28 2 14479 68.84400000 3175890008 3175890008 -1.66700000
6.25054121 -8.41329288 -2.93405819 8 3 14479 10.88400000 3175890008 3175890008 -15.63900000
8.19111729 -12.23574448 -2.94489717 3 4 14480 15.01600000 3175890010 3175890010 -11.31000000
38.14408112 -51.36104965 0.00000000 45 5 14480 63.97600000 3175890010 3175890010 0.00000000
37.92411423 -63.14128494 -0.85748219 29 6 14481 73.66000000 3175890012 3175890012 -0.66700000
10.61612225 -14.29983521 -2.77078366 3 7 14481 18.02400000 3175890012 3175890012 -8.84300000
12.47060871 -18.63540840 -2.85416698 2 8 14481 22.60400000 3175890014 3175890014 -7.25400000
38.67921829 -47.10561371 0.35424775 56 9 14481 60.95200000 3175890014 3175890014 0.33300000
38.49272537 -57.54318619 -0.40237042 56 10 14482 69.23200000 3175890017 3175890017 -0.33300000
14.72049427 -19.83562279 -2.66071916 2 11 14482 24.84400000 3175890017 3175890017 -6.14800000
15.85042191 -26.41084671 -2.87531781 4 12 14483 30.93600000 3175890019 3175890019 -5.33300000
39.90332794 -53.78869247 1.55844426 42 13 14483 66.99200000 3175890019 3175890019 1.33300000
38.58858109 -64.32386017 0.87326747 28 14 14484 75.01600000 3175890021 3175890021 0.66700000
19.89663696 -26.82995605 -2.33572578 13 15 14484 33.48400000 3175890021 3175890021 -4.00000000
18.37270164 -27.49669075 -2.69967318 5 16 14485 33.18000000 3175890024 3175890024 -4.66700000
40.04523468 -48.83869934 1.83805633 56 17 14485 63.18400000 3175890024 3175890024 1.66700000
42.46798706 -63.55783463 1.33427143 28 18 14485 76.45200000 3175890026 3175890026 1.00000000
20.01286316 -24.40745354 -2.02284908 10 19 14485 31.62800000 3175890026 3175890026 -3.66700000
19.82866669 -33.07885742 -2.24602675 17 20 14486 38.63200000 3175890028 3175890028 -3.33300000
105.87989807 -142.87974548 10.35665226 42 21 14486 178.13600000 3175890028 3175890028 3.33300000
43.77749252 -65.56718445 3.21196723 28 22 14487 78.90400000 3175890031 3175890031 2.33300000
20.10695457 -27.14325523 -1.57349646 10 23 14487 33.81600000 3175890031 3175890031 -2.66700000
19.89759254 -29.81263161 -1.87844217 15 24 14488 35.89200000 3175890033 3175890033 -3.00000000
42.53940964 -63.76104355 6.25725365 28 26 14489 76.90400000 3175890035 3175890035 4.66700000
38.22504807 -46.68525696 -2.45823121 57 27 14489 60.38800000 3175890035 3175890035 -2.33300000
38.16539383 -51.57757187 -1.49302828 46 31 14490 64.18000000 3175890040 3175890040 -1.33300000
3.47542048 -5.22499084 -2.92620873 20 0 14497 6.92400000 3175890061 3175890061 -25.00000000
38.63083267 -47.31547928 -1.06620240 28 1 14497 61.09200000 3175890061 3175890061 -1.00000000
38.28310013 -57.57708359 -2.01225042 28 2 14498 69.17200000 3175890063 3175890063 -1.66700000
6.23175478 -8.44637203 -2.93837142 6 3 14498 10.90000000 3175890063 3175890063 -15.63900000
8.15701008 -12.27263927 -2.94725060 3 4 14499 15.02800000 3175890066 3175890066 -11.31000000
38.04478073 -51.58383179 0.00000000 45 5 14499 64.09600000 3175890066 3175890066 0.00000000
37.89764786 -63.54867554 -0.86139357 29 6 14499 73.99600000 3175890068 3175890068 -0.66700000
10.58522224 -14.35220146 -2.77447295 3 7 14499 18.04800000 3175890068 3175890068 -8.84300000
12.41972256 -18.69318581 -2.85669231 2 8 14500 22.62400000 3175890070 3175890070 -7.25400000
38.70482254 -47.45679855 0.35592160 56 9 14500 61.24000000 3175890070 3175890070 0.33300000
38.39020920 -57.80379486 -0.40330032 56 10 14501 69.39200000 3175890073 3175890073 -0.33300000
14.67351151 -19.90994072 -2.66414618 2 11 14501 24.87600000 3175890073 3175890073 -6.14800000
15.81982040 -26.55906868 -2.88572741 4 12 14502 31.04800000 3175890075 3175890075 -5.33300000
39.98327637 -54.27165222 1.56858706 42 13 14502 67.42800000 3175890075 3175890075 1.33300000
38.28707504 -64.30369568 0.87126523 28 14 14503 74.84400000 3175890077 3175890077 0.66700000
19.89274025 -27.01145363 -2.34577060 13 15 14503 33.62800000 3175890077 3175890077 -4.00000000
18.30786514 -27.59733200 -2.70357871 5 16 14504 33.22800000 3175890079 3175890079 -4.66700000
40.10020065 -49.23784637 1.84806347 56 17 14504 63.52800000 3175890079 3175890079 1.66700000
41.81480789 -63.03176880 1.32030940 28 18 14504 75.65200000 3175890082 3175890082 1.00000000
20.01247978 -24.57273102 -2.03103566 10 19 14504 31.75600000 3175890082 3175890082 -3.66700000
19.81890678 -33.31258774 -2.25742197 17 20 14505 38.82800000 3175890084 3175890084 -3.33300000
42.41374588 -63.98308182 3.12745905 28 22 14506 76.82800000 3175890086 3175890086 2.33300000
20.08786583 -27.30634117 -1.57908022 10 23 14506 33.93600000 3175890086 3175890086 -2.66700000
19.89129257 -30.01830292 -1.88723457 15 24 14507 36.06000000 3175890089 3175890089 -3.00000000
42.31673050 -63.88513947 6.25562620 28 26 14508 76.88400000 3175890091 3175890091 4.66700000
38.22889328 -47.00710678 -2.46848941 28 27 14508 60.64000000 3175890091 3175890091 -2.33300000
38.12675476 -51.88430405 -1.49823928 31 31 14509 64.40400000 3175890096 3175890096 -1.33300000
3.44118309 -5.21288681 -2.91268516 19 0 14517 6.89200000 3175890116 3175890116 -25.00000000
38.67195511 -47.70479202 -1.07192683 56 1 14517 61.42000000 3175890116 3175890116 -1.00000000
38.34394073 -58.10749435 -2.02609754 28 2 14518 69.64800000 3175890119 3175890119 -1.66700000
6.21816587 -8.48982620 -2.94591951 6 3 14518 10.92800000 3175890119 3175890119 -15.63900000
8.11844063 -12.30758667 -2.94881964 3 4 14519 15.03600000 3175890121 3175890121 -11.31000000
38.21421051 -52.19398117 0.00000000 45 5 14519 64.68800000 3175890121 3175890121 0.00000000
37.95257187 -64.14874268 -0.86772633 29 6 14519 74.54000000 3175890123 3175890123 -0.66700000
10.55373859 -14.41457558 -2.77939224 3 7 14519 18.08000000 3175890123 3175890123 -8.84300000
12.36968517 -18.75961304 -2.86022782 2 8 14520 22.65200000 3175890126 3175890126 -7.25400000
38.67486191 -47.75947571 0.35717696 56 9 14520 61.45600000 3175890126 3175890126 0.33300000
38.28946304 -58.09107590 -0.40436971 56 10 14521 69.57600000 3175890128 3175890128 -0.33300000
14.65558529 -20.03165245 -2.67357063 2 11 14521 24.96400000 3175890128 3175890128 -6.14800000
15.75538158 -26.66213226 -2.89093232 4 12 14522 31.10400000 3175890130 3175890130 -5.33300000
40.51359177 -55.39536667 1.59696805 22 13 14522 68.64800000 3175890130 3175890130 1.33300000
38.07865524 -64.46450043 0.87163776 28 14 14523 74.87600000 3175890132 3175890132 0.66700000
19.89253044 -27.20957756 -2.35693169 13 15 14523 33.78800000 3175890132 3175890132 -4.00000000
18.29253578 -27.78427505 -2.71562076 5 16 14524 33.37600000 3175890135 3175890135 -4.66700000
40.09903717 -49.58893585 1.85597610 56 17 14524 63.80000000 3175890135 3175890135 1.66700000
41.59893036 -63.18402481 1.32044911 28 18 14524 75.66000000 3175890137 3175890137 1.00000000
20.01192284 -24.74797249 -2.03973389 10 19 14524 31.89200000 3175890137 3175890137 -3.66700000
19.80805016 -33.56039047 -2.26951480 18 20 14525 39.03600000 3175890139 3175890139 -3.33300000
44.16775513 -60.45821762 4.36042643 35 21 14525 75.00000000 3175890139 3175890139 3.33300000
41.01496124 -62.34441757 3.04034543 28 22 14526 74.68800000 3175890142 3175890142 2.33300000
20.07490349 -27.48923302 -1.58559453 10 23 14526 34.07600000 3175890142 3175890142 -2.66700000
19.88735008 -30.24107742 -1.89686441 15 24 14527 36.24400000 3175890144 3175890144 -3.00000000
42.07376099 -64.00247955 6.25269699 28 26 14528 76.84800000 3175890146 3175890146 4.66700000
38.29808426 -47.42944717 -2.48363256 28 27 14528 61.01200000 3175890146 3175890146 -2.33300000
27.05347252 -45.90935898 -1.86084116 14 28 14529 53.32000000 3175890149 3175890149 -2.00000000
38.16223145 -52.31429672 -1.50680017 31 31 14529 64.77200000 3175890151 3175890151 -1.33300000
3.42892551 -5.23396444 -2.91775656 26 0 14537 6.90400000 3175890172 3175890172 -25.00000000
38.74593353 -48.13858795 -1.07862854 56 1 14537 61.80400000 3175890172 3175890172 -1.00000000
38.32925797 -58.52864456 -2.03610468 28 2 14538 69.99200000 3175890174 3175890174 -1.66700000
6.18396235 -8.50524902 -2.94376302 6 3 14538 10.92000000 3175890174 3175890174 -15.63900000
8.08617115 -12.35225868 -2.95274186 3 4 14539 15.05600000 3175890176 3175890176 -11.31000000
38.19875717 -52.55678558 0.00000000 45 5 14539 64.97200000 3175890176 3175890176 0.00000000
37.85597229 -64.49814606 -0.87065989 29 6 14539 74.79200000 3175890179 3175890179 -0.66700000
10.51265240 -14.46411610 -2.78185201 3 7 14539 18.09600000 3175890179 3175890179 -8.84300000
12.32368183 -18.83255959 -2.86477351 2 8 14540 22.68800000 3175890181 3175890181 -7.25400000
38.65077591 -48.07187271 0.35850209 56 9 14540 61.68400000 3175890181 3175890181 0.33300000
38.32512283 -58.58924484 -0.40690371 56 10 14541 70.01200000 3175890183 3175890183 -0.33300000
14.61128044 -20.11808586 -2.67828298 2 11 14541 25.00800000 3175890183 3175890183 -6.14800000
15.68840122 -26.76163101 -2.89576530 4 12 14542 31.15600000 3175890185 3175890185 -5.33300000
43.56446457 -60.00537872 1.72547364 25 13 14542 74.17200000 3175890185 3175890185 1.33300000
38.12032700 -65.05254364 0.87778425 28 14 14543 75.40400000 3175890188 3175890188 0.66700000
19.88649178 -27.40156746 -2.36753464 13 15 14543 33.94000000 3175890188 3175890188 -4.00000000
18.21506500 -27.87799644 -2.71854973 5 16 14544 33.41200000 3175890190 3175890190 -4.66700000
40.86688995 -50.90089035 1.89972818 28 17 14544 65.30400000 3175890190 3175890190 1.66700000
41.36269379 -63.32937241 1.32030940 28 18 14545 75.65200000 3175890192 3175890192 1.00000000
20.00603294 -24.92700005 -2.04843211 10 19 14545 32.02800000 3175890192 3175890192 -3.66700000
19.80175591 -33.81885910 -2.28230548 18 20 14545 39.25600000 3175890195 3175890195 -3.33300000
43.86736298 -60.48918152 4.35158968 35 21 14545 74.84800000 3175890195 3175890195 3.33300000
42.42486572 -64.98040771 3.16165304 28 22 14546 77.66800000 3175890197 3175890197 2.33300000
20.06325340 -27.67560005 -1.59229505 10 23 14546 34.22000000 3175890197 3175890197 -2.66700000
19.87772560 -30.45749855 -1.90607548 16 24 14547 36.42000000 3175890199 3175890199 -3.00000000
42.35982132 -64.93028259 6.32885408 28 26 14548 77.78400000 3175890202 3175890202 4.66700000
38.23728943 -47.69380951 -2.49047136 28 27 14548 61.18000000 3175890202 3175890202 -2.33300000
26.98585892 -46.16226578 -1.86726272 14 28 14549 53.50400000 3175890204 3175890204 -2.00000000
38.25145340 -52.82289886 -1.51759422 32 31 14549 65.23600000 3175890206 3175890206 -1.33300000
3.38297033 -5.20335102 -2.89408994 25 0 14557 6.84800000 3175890227 3175890227 -25.00000000
38.60013580 -48.30166245 -1.07925677 56 1 14557 61.84000000 3175890227 3175890227 -1.00000000
38.21405411 -58.79953384 -2.04087543 28 2 14558 70.15600000 3175890229 3175890229 -1.66700000
6.16099882 -8.53615379 -2.94699788 6 3 14558 10.93200000 3175890229 3175890229 -15.63900000
8.04514122 -12.38369846 -2.95352650 3 4 14559 15.06000000 3175890231 3175890231 -11.31000000
38.16485214 -52.89741135 0.00000000 69 5 14559 65.22800000 3175890231 3175890231 0.00000000
37.99756241 -65.28635406 -0.87941396 29 6 14560 75.54400000 3175890234 3175890234 -0.66700000
10.47806454 -14.52819538 -2.78677130 3 7 14560 18.12800000 3175890234 3175890234 -8.84300000
12.30109119 -18.94201851 -2.87487483 2 8 14560 22.76800000 3175890236 3175890236 -7.25400000
38.54512787 -48.28464508 0.35908327 56 9 14560 61.78400000 3175890236 3175890236 0.33300000
38.22709274 -58.88706207 -0.40804285 56 10 14561 70.20800000 3175890238 3175890238 -0.33300000
14.56887627 -20.20767784 -2.68342376 2 11 14561 25.05600000 3175890238 3175890238 -6.14800000
15.66696835 -26.94017410 -2.90914941 4 12 14562 31.30000000 3175890241 3175890241 -5.33300000
43.24251556 -60.00136185 1.72100711 25 13 14562 73.98000000 3175890241 3175890241 1.33300000
38.00558853 -65.37885284 0.88039184 28 14 14563 75.62800000 3175890243 3175890243 0.66700000
19.87468910 -27.58736992 -2.37757969 13 15 14563 34.08400000 3175890243 3175890243 -4.00000000
18.19789505 -28.06517601 -2.73059177 5 16 14564 33.56000000 3175890245 3175890245 -4.66700000
40.67401123 -51.02447128 1.89903009 28 17 14564 65.28000000 3175890245 3175890245 1.66700000
40.60413742 -62.62055206 1.30271745 28 18 14564 74.64400000 3175890248 3175890248 1.00000000
20.00039673 -25.08996964 -2.05636287 10 19 14564 32.15200000 3175890248 3175890248 -3.66700000
19.79189110 -34.07423401 -2.29486346 18 20 14565 39.47200000 3175890250 3175890250 -3.33300000
43.55562973 -60.50258636 4.34158945 71 21 14565 74.67600000 3175890250 3175890250 3.33300000
43.36698532 -66.93264771 3.24925518 28 22 14566 79.82000000 3175890252 3175890252 2.33300000
20.03887749 -27.84600449 -1.59806490 10 23 14566 34.34400000 3175890252 3175890252 -2.66700000
19.87117577 -30.68092537 -1.91570532 16 24 14567 36.60400000 3175890255 3175890255 -3.00000000
38.18009567 -47.96458054 -2.49763584 28 27 14568 61.35600000 3175890257 3175890257 -2.33300000
26.82455826 -46.25618362 -1.86726272 14 28 14569 53.50400000 3175890259 3175890259 -2.00000000
38.25827789 -53.24202347 -1.52559674 33 31 14570 65.58000000 3175890261 3175890261 -1.33300000
3.37068295 -5.22426653 -2.89916134 19 0 14577 6.86000000 3175890282 3175890282 -25.00000000
38.33185959 -48.31078720 -1.07646441 56 1 14577 61.68000000 3175890282 3175890282 -1.00000000
38.64569473 -59.92043304 -2.07508588 28 2 14578 71.33200000 3175890284 3175890284 -1.66700000
6.13789463 -8.56700134 -2.95023274 5 3 14578 10.94400000 3175890284 3175890284 -15.63900000
8.06137371 -12.50401020 -2.97549152 3 4 14579 15.17200000 3175890287 3175890287 -11.31000000
38.17794418 -53.30672836 0.00000000 69 5 14579 65.56800000 3175890287 3175890287 0.00000000
37.43146515 -64.83319855 -0.87154460 29 6 14580 74.86800000 3175890289 3175890289 -0.66700000
10.43879223 -14.58075047 -2.78984571 3 7 14580 18.14800000 3175890289 3175890289 -8.84300000
12.24349403 -18.99818420 -2.87689519 2 8 14580 22.78400000 3175890291 3175890291 -7.25400000
38.42852020 -48.48472977 0.35957149 56 9 14580 61.86800000 3175890291 3175890291 0.33300000
38.04946899 -59.06385422 -0.40834504 28 10 14581 70.26000000 3175890294 3175890294 -0.33300000
14.55842686 -20.34249496 -2.69456172 2 11 14581 25.16000000 3175890294 3175890294 -6.14800000
15.60467625 -27.04989433 -2.91509771 4 12 14582 31.36400000 3175890296 3175890296 -5.33300000
43.03513336 -60.15519333 1.72110021 25 13 14582 73.98400000 3175890296 3175890296 1.33300000
38.21471405 -66.26993561 0.89058942 28 14 14583 76.50400000 3175890298 3175890298 0.66700000
19.86415100 -27.77666664 -2.38790369 13 15 14583 34.23200000 3175890298 3175890298 -4.00000000
18.11923409 -28.15870094 -2.73352075 6 16 14584 33.59600000 3175890301 3175890301 -4.66700000
41.00185013 -51.80571747 1.92276800 56 17 14584 66.09600000 3175890301 3175890301 1.66700000
40.40478134 -62.79217529 1.30334568 28 18 14584 74.68000000 3175890303 3175890303 1.00000000
19.99692345 -25.26605415 -2.06506109 11 19 14584 32.28800000 3175890303 3175890303 -3.66700000
19.77450180 -34.31957245 -2.30672383 18 20 14585 39.67600000 3175890305 3175890305 -3.33300000
43.31863022 -60.61851501 4.33903122 35 21 14585 74.63200000 3175890305 3175890305 3.33300000
42.84127808 -66.62978363 3.22727323 28 22 14586 79.28000000 3175890308 3175890308 2.33300000
20.02052116 -28.02632713 -1.60439312 10 23 14586 34.48000000 3175890308 3175890308 -2.66700000
19.86978722 -30.91475677 -1.92596316 16 24 14587 36.80000000 3175890310 3175890310 -3.00000000
42.92479324 -66.81092834 6.48279572 28 26 14588 79.67600000 3175890312 3175890312 4.66700000
38.28998566 -48.44875336 -2.51587272 28 27 14588 61.80400000 3175890312 3175890312 -2.33300000
38.09312439 -53.38487625 -1.52606201 33 31 14589 65.60000000 3175890317 3175890317 -1.33300000
3.36415482 -5.25431919 -2.90930414 17 0 14597 6.88400000 3175890337 3175890337 -25.00000000
38.41048050 -48.75846100 -1.08344543 28 1 14597 62.08000000 3175890337 3175890337 -1.00000000
38.47078323 -60.10885239 -2.07694769 28 2 14598 71.39600000 3175890340 3175890340 -1.66700000
6.11018562 -8.59151363 -2.95131111 6 3 14598 10.94800000 3175890340 3175890340 -15.63900000
8.01345062 -12.52546597 -2.97392249 5 4 14599 15.16400000 3175890342 3175890342 -11.31000000
38.11911011 -53.61897659 0.00000000 46 5 14599 65.78800000 3175890342 3175890342 0.00000000
37.08105469 -64.72097778 -0.86837822 29 6 14599 74.59600000 3175890344 3175890344 -0.66700000
10.41099453 -14.64427853 -2.79537988 3 7 14599 18.18400000 3175890344 3175890344 -8.84300000
12.19848156 -19.07423401 -2.88194585 2 8 14600 22.82400000 3175890347 3175890347 -7.25400000
38.42477417 -48.82917786 0.36112908 56 9 14600 62.13600000 3175890347 3175890347 0.33300000
38.36444473 -60.01188278 -0.41397098 28 10 14601 71.22800000 3175890349 3175890349 -0.33300000
14.49423981 -20.40291595 -2.69584680 2 11 14601 25.17200000 3175890349 3175890349 -6.14800000
15.51609421 -27.11457062 -2.91621304 4 12 14602 31.37600000 3175890351 3175890351 -5.33300000
43.29954147 -60.97343826 1.74017596 51 13 14602 74.80400000 3175890351 3175890351 1.33300000
38.05663681 -66.53138733 0.89231229 28 14 14603 76.65200000 3175890354 3175890354 0.66700000
19.85946274 -27.97598839 -2.39906454 13 15 14603 34.39200000 3175890354 3175890354 -4.00000000
18.04872322 -28.26545906 -2.73775172 6 16 14604 33.64800000 3175890356 3175890356 -4.66700000
40.92946243 -52.08685303 1.92788792 56 17 14604 66.27200000 3175890356 3175890356 1.66700000
40.28651047 -63.09125900 1.30662680 28 18 14604 74.86800000 3175890358 3175890358 1.00000000
19.99739647 -25.44869614 -2.07427096 11 19 14604 32.43200000 3175890358 3175890358 -3.66700000
19.76158524 -34.57560349 -2.31928182 18 20 14605 39.89200000 3175890361 3175890361 -3.33300000
43.03514862 -60.66838837 4.33182240 35 21 14605 74.50800000 3175890361 3175890361 3.33300000
43.65967178 -68.42649078 3.30689669 28 22 14606 81.23600000 3175890363 3175890363 2.33300000
20.01270676 -28.22315788 -1.61165202 10 23 14606 34.63600000 3175890363 3175890363 -2.66700000
19.85197067 -31.12537575 -1.93475568 24 24 14607 36.96800000 3175890365 3175890365 -3.00000000
42.67203140 -66.93009949 6.47986650 28 26 14608 79.64000000 3175890367 3175890367 4.66700000
38.36735535 -48.89654160 -2.53215575 57 27 14608 62.20400000 3175890367 3175890367 -2.33300000
27.05374146 -47.41102982 -1.90621054 15 28 14609 54.62000000 3175890370 3175890370 -2.00000000
38.15370178 -53.88640594 -1.53639078 33 31 14610 66.04400000 3175890372 3175890372 -1.33300000
3.36523438 -5.29662895 -2.92620873 15 0 14617 6.92400000 3175890393 3175890393 -25.00000000
38.42237854 -49.12536240 -1.08861125 28 1 14617 62.37600000 3175890393 3175890393 -1.00000000
38.36576462 -60.40815353 -2.08264947 28 2 14618 71.59200000 3175890395 3175890395 -1.66700000
6.08460140 -8.61908340 -2.95346761 6 3 14618 10.95600000 3175890395 3175890395 -15.63900000
7.90450907 -12.45070934 -2.94960403 3 4 14619 15.04000000 3175890397 3175890397 -11.31000000
38.07931519 -53.96087265 0.00000000 69 5 14619 66.04400000 3175890397 3175890397 0.00000000
36.85490799 -64.85001373 -0.86837822 29 6 14619 74.59600000 3175890400 3175890400 -0.66700000
10.37120724 -14.69667721 -2.79845452 3 7 14619 18.20400000 3175890400 3175890400 -8.84300000
12.14245701 -19.13344955 -2.88447142 2 8 14620 22.84400000 3175890402 3175890402 -7.25400000
38.44864273 -49.21201706 0.36296564 56 9 14620 62.45200000 3175890402 3175890402 0.33300000
38.25115204 -60.29742813 -0.41501713 84 10 14621 71.40800000 3175890404 3175890404 -0.33300000
14.44126701 -20.47938919 -2.69927406 2 11 14621 25.20400000 3175890404 3175890404 -6.14800000
15.47836590 -27.26901054 -2.92699456 4 12 14622 31.49200000 3175890407 3175890407 -5.33300000
43.06340027 -61.09152222 1.73924541 51 13 14622 74.76400000 3175890407 3175890407 1.33300000
37.74916077 -66.53163147 0.89054286 28 14 14623 76.50000000 3175890409 3175890409 0.66700000
19.85821915 -28.18213654 -2.41078377 13 15 14623 34.56000000 3175890409 3175890409 -4.00000000
18.02676773 -28.44952202 -2.74946833 6 16 14624 33.79200000 3175890411 3175890411 -4.66700000
41.02285004 -52.58247757 1.94092047 56 17 14624 66.72000000 3175890411 3175890411 1.66700000
40.24584961 -63.51527786 1.31249082 28 18 14624 75.20400000 3175890414 3175890414 1.00000000
19.99192619 -25.62535286 -2.08296919 11 19 14624 32.56800000 3175890414 3175890414 -3.66700000
19.82589722 -34.97091293 -2.34114218 19 20 14625 40.26800000 3175890416 3175890416 -3.33300000
43.43234253 -61.68347931 4.39344931 36 21 14625 75.56800000 3175890416 3175890416 3.33300000
43.46545029 -68.64939117 3.31031609 28 22 14626 81.32000000 3175890418 3175890418 2.33300000
19.99456024 -28.40720558 -1.61816633 11 23 14626 34.77600000 3175890418 3175890418 -2.66700000
19.85001373 -31.36324692 -1.94522285 24 24 14627 37.16800000 3175890420 3175890420 -3.00000000
42.44879913 -67.09549713 6.48149395 28 26 14628 79.66000000 3175890423 3175890423 4.66700000
38.31188202 -49.17835617 -2.53980875 28 27 14628 62.39200000 3175890423 3175890423 -2.33300000
26.95700073 -47.62694168 -1.91109645 15 28 14629 54.76000000 3175890425 3175890425 -2.00000000
38.14472198 -54.27445221 -1.54364896 34 31 14630 66.35600000 3175890427 3175890427 -1.33300000
3.33899140 -5.29607677 -2.91944695 15 0 14637 6.90800000 3175890448 3175890448 -25.00000000
38.27519226 -49.29077148 -1.08930945 56 1 14637 62.41600000 3175890448 3175890448 -1.00000000
38.36571503 -60.87658310 -2.09416938 28 2 14638 71.98800000 3175890450 3175890450 -1.66700000
6.06110954 -8.64973354 -2.95670247 6 3 14638 10.96800000 3175890450 3175890450 -15.63900000
7.87145329 -12.49481869 -2.95352650 3 4 14639 15.06000000 3175890453 3175890453 -11.31000000
38.10873795 -54.40470505 0.00000000 46 5 14639 66.42400000 3175890453 3175890453 0.00000000
36.81097794 -65.30230713 -0.87270874 29 6 14639 74.96800000 3175890455 3175890455 -0.66700000
10.33571625 -14.75545120 -2.80275893 3 7 14639 18.23200000 3175890455 3175890455 -8.84300000
12.09251022 -19.20257950 -2.88851190 2 8 14640 22.87600000 3175890457 3175890457 -7.25400000
38.45558929 -49.57664871 0.36466271 56 9 14640 62.74400000 3175890457 3175890457 0.33300000
38.14059067 -60.58967972 -0.41610977 56 10 14641 71.59600000 3175890460 3175890460 -0.33300000
14.38109493 -20.54596329 -2.70141602 2 11 14641 25.22400000 3175890460 3175890460 -6.14800000
15.43388653 -27.41310692 -2.93666077 4 12 14642 31.59600000 3175890462 3175890462 -5.33300000
42.96451569 -61.40529633 1.74389803 25 13 14642 74.96400000 3175890462 3175890462 1.33300000
37.99729919 -67.51697540 0.90195113 28 14 14643 77.48000000 3175890464 3175890464 0.66700000
19.84891701 -28.37880707 -2.42166567 14 15 14643 34.71600000 3175890464 3175890464 -4.00000000
17.96554756 -28.57302475 -2.75532651 6 16 14644 33.86400000 3175890467 3175890467 -4.66700000
40.78763580 -52.65897369 1.93847680 84 17 14644 66.63600000 3175890467 3175890467 1.66700000
40.04305267 -63.68584824 1.31311905 28 18 14644 75.24000000 3175890469 3175890469 1.00000000
19.98546410 -25.80228233 -2.09166741 11 19 14644 32.70400000 3175890469 3175890469 -3.66700000
19.86811447 -35.33227921 -2.36067677 19 20 14645 40.60400000 3175890471 3175890471 -3.33300000
42.48931503 -60.79387665 4.31949663 70 21 14645 74.29600000 3175890471 3175890471 3.33300000
40.29353333 -64.13388824 3.08577466 28 22 14646 75.80400000 3175890473 3175890473 2.33300000
19.98223686 -28.60129356 -1.62523913 11 23 14646 34.92800000 3175890473 3175890473 -2.66700000
19.84663773 -31.60148239 -1.95569003 25 24 14647 37.36800000 3175890476 3175890476 -3.00000000
42.10410690 -67.06768036 6.46457005 28 26 14648 79.45200000 3175890478 3175890478 4.66700000
38.39917374 -49.64690018 -2.55706859 28 27 14648 62.81600000 3175890478 3175890478 -2.33300000
26.98628235 -48.06932831 -1.92505622 16 28 14649 55.16000000 3175890480 3175890480 -2.00000000
38.06714630 -54.56797791 -1.54820848 34 31 14650 66.55200000 3175890483 3175890483 -1.33300000
3.32817507 -5.31999302 -2.92620873 17 0 14657 6.92400000 3175890503 3175890503 -25.00000000
38.32511520 -49.71230698 -1.09566212 28 1 14657 62.78000000 3175890503 3175890503 -1.00000000
38.29925919 -61.24404526 -2.10219836 28 2 14658 72.26400000 3175890506 3175890506 -1.66700000
6.03307867 -8.67399979 -2.95778084 6 3 14658 10.97200000 3175890506 3175890506 -15.63900000
7.83610678 -12.53552341 -2.95666432 3 4 14659 15.07600000 3175890508 3175890508 -11.31000000
38.00080109 -54.65562820 0.00000000 47 5 14659 66.56800000 3175890508 3175890508 0.00000000
36.80922699 -65.83537292 -0.87811017 29 6 14659 75.43200000 3175890510 3175890510 -0.66700000
10.29994106 -14.81415558 -2.80706334 3 7 14659 18.26000000 3175890510 3175890510 -8.84300000
12.03381729 -19.25813293 -2.89053226 2 8 14660 22.89200000 3175890513 3175890513 -7.25400000
38.29450607 -49.72642899 0.36477894 56 9 14660 62.76400000 3175890513 3175890513 0.33300000
38.08567047 -60.97349167 -0.41783011 28 10 14661 71.89200000 3175890515 3175890515 -0.33300000
14.33651829 -20.63523102 -2.70655656 2 11 14661 25.27200000 3175890515 3175890515 -6.14800000
15.39053154 -27.56069946 -2.94669867 4 12 14662 31.70400000 3175890517 3175890517 -5.33300000
42.77500153 -61.59102631 1.74492157 51 13 14662 75.00800000 3175890517 3175890517 1.33300000
37.58203888 -67.32789612 0.89766723 28 14 14663 77.11200000 3175890519 3175890519 0.66700000
19.84075928 -28.57903099 -2.43282676 14 15 14663 34.87600000 3175890519 3175890519 -4.00000000
17.93322945 -28.74379921 -2.76574111 6 16 14664 33.99200000 3175890522 3175890522 -4.66700000
40.74250031 -52.98168945 1.94510949 56 17 14664 66.86400000 3175890522 3175890522 1.66700000
39.72523880 -63.67254257 1.30997765 28 18 14664 75.06000000 3175890524 3175890524 1.00000000
19.98044395 -25.98263931 -2.10062146 11 19 14664 32.84400000 3175890524 3175890524 -3.66700000
19.84774971 -35.58625412 -2.37300229 19 20 14665 40.81600000 3175890526 3175890526 -3.33300000
42.26546478 -60.92541885 4.31833410 70 21 14665 74.27600000 3175890526 3175890526 3.33300000
42.39945221 -68.01168823 3.26521230 28 22 14666 80.21200000 3175890529 3175890529 2.33300000
19.96424866 -28.78907394 -1.63193953 11 23 14666 35.07200000 3175890529 3175890529 -2.66700000
19.83972549 -31.83668327 -1.96594787 25 24 14667 37.56400000 3175890531 3175890531 -3.00000000
41.12564468 -66.01972961 6.34968328 28 26 14668 78.04000000 3175890533 3175890533 4.66700000
38.45201492 -50.07543945 -2.57221174 28 27 14668 63.18800000 3175890533 3175890533 -2.33300000
26.99140930 -48.47407913 -1.93748045 16 28 14669 55.51600000 3175890536 3175890536 -2.00000000
38.03351593 -54.92737198 -1.55462909 35 31 14670 66.82800000 3175890538 3175890538 -1.33300000
3.30379343 -5.31810522 -2.91944695 20 0 14675 6.90800000 3175890559 3175890559 -25.00000000
38.42653275 -50.16902161 -1.10306191 56 1 14675 63.20400000 3175890559 3175890559 -1.00000000
38.30494308 -61.68334961 -2.11313629 28 2 14676 72.64000000 3175890561 3175890561 -1.66700000
6.01236725 -8.70241833 -2.96101570 6 3 14676 10.98400000 3175890561 3175890561 -15.63900000
7.82978487 -12.61339855 -2.96921587 3 4 14677 15.14000000 3175890563 3175890563 -11.31000000
38.17214584 -55.27173615 0.00000000 47 5 14677 67.17200000 3175890563 3175890563 0.00000000
36.68567657 -66.10106659 -0.88011247 29 6 14677 75.60400000 3175890566 3175890566 -0.66700000
10.26907349 -14.86920643 -2.81136751 3 7 14677 18.28800000 3175890566 3175890566 -8.84300000
12.02346802 -19.37676239 -2.90265393 2 8 14678 22.98800000 3175890568 3175890568 -7.25400000
38.60962677 -50.46278000 0.36928898 84 9 14678 63.54000000 3175890568 3175890568 0.33300000
38.09211731 -61.41236115 -0.42001536 56 10 14679 72.26800000 3175890570 3175890570 -0.33300000
14.32809258 -20.76199913 -2.71726632 2 11 14679 25.37200000 3175890570 3175890570 -6.14800000
15.32511044 -27.64723015 -2.95078826 4 12 14680 31.74800000 3175890572 3175890572 -5.33300000
42.68802261 -61.87981033 1.74929512 51 13 14680 75.19600000 3175890572 3175890572 1.33300000
37.35289001 -67.41413879 0.89724815 28 14 14681 77.07600000 3175890575 3175890575 0.66700000
19.84148788 -28.77261734 -2.44398785 14 15 14681 35.03600000 3175890575 3175890575 -4.00000000
17.92052650 -28.92539024 -2.77778316 6 16 14682 34.14000000 3175890577 3175890577 -4.66700000
40.73363495 -53.31594086 1.95267296 28 17 14682 67.12400000 3175890577 3175890577 1.66700000
39.71247482 -64.09960938 1.31619072 28 18 14682 75.41600000 3175890579 3175890579 1.00000000
19.99565697 -26.17216110 -2.11085463 11 19 14682 33.00400000 3175890579 3175890579 -3.66700000
19.84223175 -35.84057999 -2.38579297 19 20 14683 41.03600000 3175890582 3175890582 -3.33300000
42.22113419 -61.27162933 4.33344984 35 21 14683 74.53600000 3175890582 3175890582 3.33300000
41.80691147 -67.53287506 3.23590302 28 22 14684 79.49200000 3175890584 3175890584 2.33300000
19.95757103 -28.97340202 -1.63882613 11 23 14684 35.22000000 3175890584 3175890584 -2.66700000
19.83840370 -32.05850220 -1.97578704 25 24 14685 37.75200000 3175890586 3175890586 -3.00000000
40.29094315 -65.13484192 6.25237179 28 26 14686 76.84400000 3175890589 3175890589 4.66700000
38.43026352 -50.37393570 -2.58133006 85 27 14686 63.41200000 3175890589 3175890589 -2.33300000
37.95824814 -68.67623138 -2.74016881 28 28 14687 78.51600000 3175890591 3175890591 -2.00000000
38.10385132 -55.37930679 -1.56421351 35 31 14687 67.24000000 3175890593 3175890593 -1.33300000
3.30710006 -5.36721516 -2.93973255 17 0 14696 6.95600000 3175890614 3175890614 -25.00000000
38.35614777 -50.45916748 -1.10634291 56 1 14696 63.39200000 3175890614 3175890614 -1.00000000
38.28409195 -62.15695953 -2.12453985 28 2 14697 73.03200000 3175890616 3175890616 -1.66700000
