# .PCD v0.7 - Point Cloud Data file format
VERSION 0.7
FIELDS x y z intensity laser_id azimuth distance_m adjustedtime timestamp vertical_angle
SIZE 4 4 4 1 1 2 8 8 4 8
TYPE F F F U U U F U U F
COUNT 1 1 1 1 1 1 1 1 1 1
WIDTH 522
HEIGHT 1
VIEWPOINT 0 0 0 1 0 0 0
POINTS 522
DATA ascii
12.52729893 24.24004745 -1.58905578 4 20 2313 27.33200000 3180256257 3180256257 -3.33300000
43.23957825 108.49087524 6.80156755 42 21 2313 116.98800000 3180256257 3180256257 3.33300000
43.29114532 94.81827545 4.24658346 28 22 2314 104.32000000 3180256259 3180256259 2.33300000
11.47425747 28.77504539 -1.44302320 3 23 2314 31.01200000 3180256259 3180256259 -2.66700000
12.36786842 27.07616997 -1.56003022 5 24 2315 29.80800000 3180256261 3180256261 -3.00000000
11.10913563 32.33658981 -1.39300311 5 27 2316 34.22000000 3180256264 3180256264 -2.33300000
15.61411190 30.16131783 -1.18602455 5 28 2317 33.98400000 3180256266 3180256266 -2.00000000
15.47196007 38.74147797 -0.97072428 5 31 2317 41.72800000 3180256268 3180256268 -1.33300000
2.35478449 5.13382292 -2.63375711 14 0 2324 6.23200000 3180256289 3180256289 -25.00000000
15.27428627 44.25934601 -0.81726128 9 1 2324 46.82800000 3180256289 3180256289 -1.00000000
16.15394783 35.20208740 -1.12720001 8 2 2325 38.74800000 3180256291 3180256291 -1.66700000
3.28007364 8.18005943 -2.46715379 15 3 2325 9.15200000 3180256291 3180256291 -15.63900000
5.19595385 11.31762028 -2.49068952 4 4 2326 12.70000000 3180256293 3180256293 -11.31000000
21.53018379 53.66624832 0.00000000 18 5 2326 57.82400000 3180256293 3180256293 0.00000000
21.19180107 40.76116562 -0.53483790 12 6 2327 45.94400000 3180256296 3180256296 -0.66700000
3.76466179 9.37907791 -1.57232440 36 7 2327 10.22800000 3180256296 3180256296 -8.84300000
7.23760414 15.75740719 -2.20716858 3 8 2327 17.48000000 3180256298 3180256298 -7.25400000
21.55813217 62.36175156 0.38349330 28 9 2327 65.98400000 3180256298 3180256298 0.33300000
21.36650276 46.49685669 -0.29740724 11 10 2328 51.17200000 3180256300 3180256300 -0.33300000
7.22070408 17.98019981 -2.08710718 3 11 2328 19.48800000 3180256300 3180256300 -6.14800000
9.71033764 18.66133690 -1.96372223 2 12 2329 21.12800000 3180256303 3180256303 -5.33300000
43.28678513 107.73358917 2.70168805 28 13 2329 116.13600000 3180256303 3180256303 1.33300000
39.34754944 75.58593750 0.99205309 28 14 2330 85.22000000 3180256305 3180256305 0.66700000
9.52969265 23.70585442 -1.78660285 2 15 2330 25.61200000 3180256305 3180256305 -4.00000000
9.58271122 20.82473373 -1.87138283 3 16 2331 23.00000000 3180256307 3180256307 -4.66700000
43.20147705 124.68804169 3.84041595 28 17 2331 132.01600000 3180256307 3180256307 1.66700000
43.58507538 94.71720123 1.81993699 28 18 2331 104.28000000 3180256310 3180256310 1.00000000
8.94016171 25.80308151 -1.75013411 3 19 2331 27.36400000 3180256310 3180256310 -3.66700000
12.49875164 23.98942947 -1.57533491 4 20 2332 27.09600000 3180256312 3180256312 -3.33300000
42.99238586 106.83914185 6.70691729 42 21 2332 115.36000000 3180256312 3180256312 3.33300000
41.06057739 89.14911652 3.99875760 28 22 2333 98.23200000 3180256314 3180256314 2.33300000
11.54126263 28.66641235 -1.43948686 3 23 2333 30.93600000 3180256314 3180256314 -2.66700000
12.42081070 26.95519447 -1.55542457 5 24 2334 29.72000000 3180256317 3180256317 -3.00000000
11.21237278 32.28824615 -1.39251471 5 27 2335 34.20800000 3180256319 3180256319 -2.33300000
15.69739819 30.07747841 -1.18476808 5 28 2336 33.94800000 3180256321 3180256321 -2.00000000
15.55174446 38.55001831 -0.96728134 5 31 2337 41.58000000 3180256323 3180256323 -1.33300000
2.41990066 5.22755718 -2.68616176 14 0 2344 6.35600000 3180256344 3180256344 -25.00000000
16.21791840 35.01850128 -1.12312734 7 2 2345 38.60800000 3180256346 3180256346 -1.66700000
3.30571532 8.16141987 -2.46499705 16 3 2345 9.14400000 3180256346 3180256346 -15.63900000
5.23542833 11.29941368 -2.49068952 3 4 2346 12.70000000 3180256349 3180256349 -11.31000000
21.51907921 53.10142136 0.00000000 17 5 2346 57.29600000 3180256349 3180256349 0.00000000
21.21136665 40.45315170 -0.53176469 12 6 2347 45.68000000 3180256351 3180256351 -0.66700000
3.80183315 9.37686825 -1.57416904 14 7 2347 10.24000000 3180256351 3180256351 -8.84300000
7.28421974 15.71404743 -2.20464325 3 8 2347 17.46000000 3180256353 3180256353 -7.25400000
21.53675270 61.60269547 0.37928548 28 9 2347 65.26000000 3180256353 3180256353 0.33300000
21.31327248 45.95751572 -0.29443154 10 10 2348 50.66000000 3180256356 3180256356 -0.33300000
7.27146292 17.92540169 -2.08368015 3 11 2348 19.45600000 3180256356 3180256356 -6.14800000
9.77171803 18.62027550 -1.96297872 2 12 2349 21.12000000 3180256358 3180256358 -5.33300000
39.39734268 75.04087830 0.98669821 28 14 2350 84.76000000 3180256360 3180256360 0.66700000
9.61988926 23.69093132 -1.78799796 2 15 2350 25.63200000 3180256360 3180256360 -4.00000000
9.65702438 20.79477310 -1.87170839 3 16 2351 23.00400000 3180256363 3180256363 -4.66700000
9.02357674 25.75288200 -1.74885499 3 19 2351 27.34400000 3180256365 3180256365 -3.66700000
12.64371014 24.06230736 -1.58300924 4 20 2352 27.22800000 3180256367 3180256367 -3.33300000
43.44325256 106.88078308 6.71901035 42 21 2352 115.56800000 3180256367 3180256367 3.33300000
41.17272949 88.57757568 3.97954369 28 22 2353 97.76000000 3180256370 3180256370 2.33300000
11.62469959 28.58523750 -1.43743944 3 23 2353 30.89200000 3180256370 3180256370 -2.66700000
12.50135136 26.88269806 -1.55374992 5 24 2354 29.68800000 3180256372 3180256372 -3.00000000
11.28263569 32.12824249 -1.38730407 5 27 2355 34.08000000 3180256374 3180256374 -2.33300000
15.78739738 29.99420166 -1.18365133 5 28 2356 33.91600000 3180256376 3180256376 -2.00000000
15.67798710 38.49453354 -0.96718830 5 31 2356 41.57600000 3180256379 3180256379 -1.33300000
2.35067368 5.03186131 -2.58980465 14 0 2364 6.12800000 3180256399 3180256399 -25.00000000
15.34330654 43.47278595 -0.80469555 14 1 2364 46.10800000 3180256399 3180256399 -1.00000000
16.33666992 34.95443344 -1.12289464 7 2 2365 38.60000000 3180256402 3180256402 -1.66700000
3.34876919 8.18548203 -2.47578001 13 3 2365 9.18400000 3180256402 3180256402 -15.63900000
5.27483845 11.28106976 -2.49068952 3 4 2366 12.70000000 3180256404 3180256404 -11.31000000
21.52247810 52.58175278 0.00000000 17 5 2366 56.81600000 3180256404 3180256404 0.00000000
21.25754929 40.21639252 -0.52957618 12 6 2366 45.49200000 3180256406 3180256406 -0.66700000
7.33566475 15.68133640 -2.20363307 3 8 2367 17.45200000 3180256409 3180256409 -7.25400000
21.54367065 60.93883514 0.37565884 28 9 2367 64.63600000 3180256409 3180256409 0.33300000
21.35318375 45.62561798 -0.29278097 20 10 2368 50.37600000 3180256411 3180256411 -0.33300000
7.32795906 17.88519096 -2.08196664 3 11 2368 19.44000000 3180256411 3180256411 -6.14800000
9.83851814 18.58957291 -1.96335053 2 12 2369 21.12400000 3180256413 3180256413 -5.33300000
39.47188568 74.54941559 0.98204178 28 14 2370 84.36000000 3180256416 3180256416 0.66700000
9.64801884 23.52430153 -1.77795303 2 15 2370 25.48800000 3180256416 3180256416 -4.00000000
9.72278595 20.74649811 -1.87040651 3 16 2371 22.98800000 3180256418 3180256418 -4.66700000
41.54845047 88.65616608 1.70900941 28 18 2371 97.92400000 3180256420 3180256420 1.00000000
9.10141850 25.68736267 -1.74655247 3 19 2371 27.30800000 3180256420 3180256420 -3.66700000
12.74445438 24.04978180 -1.58510232 4 20 2372 27.26400000 3180256423 3180256423 -3.33300000
43.83881760 106.78389740 6.72249889 42 21 2372 115.62800000 3180256423 3180256423 3.33300000
41.14730453 87.72049713 3.94746637 28 22 2373 96.97200000 3180256425 3180256425 2.33300000
11.71530151 28.52230835 -1.43632269 3 23 2373 30.86800000 3180256425 3180256425 -2.66700000
12.59002209 26.82804680 -1.55312181 5 24 2374 29.67600000 3180256427 3180256427 -3.00000000
11.36796665 32.01333618 -1.38404751 5 27 2375 34.00000000 3180256429 3180256429 -2.33300000
15.88262939 29.92125511 -1.18295336 5 28 2376 33.89600000 3180256432 3180256432 -2.00000000
15.82962418 38.46269608 -0.96783966 5 31 2377 41.60400000 3180256434 3180256434 -1.33300000
2.36049461 5.00722980 -2.58135223 21 0 2384 6.10800000 3180256455 3180256455 -25.00000000
16.40571213 34.78508759 -1.11928737 7 2 2385 38.47600000 3180256457 3180256457 -1.66700000
3.36261177 8.13814259 -2.46499705 12 3 2385 9.14400000 3180256457 3180256457 -15.63900000
5.30748987 11.24839973 -2.48755169 4 4 2386 12.68400000 3180256459 3180256459 -11.31000000
21.49806213 52.00357056 0.00000000 16 5 2386 56.27200000 3180256459 3180256459 0.00000000
21.27362442 39.90899277 -0.52650291 12 6 2386 45.22800000 3180256462 3180256462 -0.66700000
5.73191690 13.86544323 -2.33419752 3 7 2386 15.18400000 3180256462 3180256462 -8.84300000
7.38188887 15.63769341 -2.20110774 3 8 2387 17.43200000 3180256464 3180256464 -7.25400000
21.53141022 60.23425293 0.37177649 28 9 2387 63.96800000 3180256464 3180256464 0.33300000
21.34321213 45.19273376 -0.29047945 18 10 2388 49.98000000 3180256466 3180256466 -0.33300000
7.37970066 17.83377838 -2.07896781 3 11 2388 19.41200000 3180256466 3180256466 -6.14800000
9.86771774 18.48835754 -1.95628679 2 12 2389 21.04800000 3180256469 3180256469 -5.33300000
39.65651321 74.27005005 0.98017919 28 14 2390 84.20000000 3180256471 3180256471 0.66700000
9.72549438 23.47941971 -1.77711594 2 15 2390 25.47600000 3180256471 3180256471 -4.00000000
9.79684925 20.71603584 -1.87073195 3 16 2391 22.99200000 3180256473 3180256473 -4.66700000
42.91092682 119.77970123 3.70287585 28 17 2391 127.28800000 3180256473 3180256473 1.66700000
41.52596283 87.80918884 1.69546640 28 18 2391 97.14800000 3180256476 3180256476 1.00000000
9.16679573 25.58779335 -1.74194753 3 19 2391 27.23600000 3180256476 3180256476 -3.66700000
12.81138802 23.97345161 -1.58300924 4 20 2392 27.22800000 3180256478 3180256478 -3.33300000
44.34129715 106.94376373 6.74226618 42 21 2392 115.96800000 3180256478 3180256478 3.33300000
40.95396423 86.52149963 3.89992023 28 22 2393 95.80400000 3180256480 3180256480 2.33300000
11.80560589 28.45909691 -1.43520594 3 23 2393 30.84400000 3180256480 3180256480 -2.66700000
12.67333508 26.76227570 -1.55186582 5 24 2394 29.65200000 3180256482 3180256482 -3.00000000
11.47829437 31.96969795 -1.38388467 5 27 2395 33.99600000 3180256485 3180256485 -2.33300000
15.91905975 29.73875427 -1.17792785 5 28 2396 33.75200000 3180256487 3180256487 -2.00000000
15.86095428 38.15980148 -0.96160519 5 31 2397 41.33600000 3180256489 3180256489 -1.33300000
2.37484407 4.99241209 -2.57797146 17 0 2404 6.10000000 3180256510 3180256510 -25.00000000
16.50469971 34.68067551 -1.11777472 7 2 2405 38.42400000 3180256512 3180256512 -1.66700000
3.40434909 8.15834904 -2.47470188 13 3 2405 9.18000000 3180256512 3180256512 -15.63900000
5.34503555 11.22626305 -2.48676729 4 4 2406 12.68000000 3180256515 3180256515 -11.31000000
21.50686073 51.51479340 0.00000000 16 5 2406 55.82400000 3180256515 3180256515 0.00000000
21.25372696 39.53855896 -0.52259153 11 6 2406 44.89200000 3180256517 3180256517 -0.66700000
5.77419043 13.83076096 -2.33173800 4 7 2406 15.16800000 3180256517 3180256517 -8.84300000
7.42960405 15.59750175 -2.19908738 3 8 2407 17.41600000 3180256519 3180256519 -7.25400000
21.54304504 59.60950470 0.36838233 28 9 2407 63.38400000 3180256519 3180256519 0.33300000
21.34424400 44.78936768 -0.28836390 18 10 2408 49.61600000 3180256522 3180256522 -0.33300000
7.43577337 17.79323196 -2.07725430 3 11 2408 19.39600000 3180256522 3180256522 -6.14800000
9.92841911 18.44678688 -1.95554316 2 12 2409 21.04000000 3180256524 3180256524 -5.33300000
39.72400284 73.77548218 0.97547621 28 14 2410 83.79600000 3180256526 3180256526 0.66700000
9.80277443 23.43428612 -1.77627885 2 15 2410 25.46400000 3180256526 3180256526 -4.00000000
9.85880089 20.66012383 -1.86877918 3 16 2411 22.96800000 3180256529 3180256529 -4.66700000
45.50460815 125.63658142 3.88882256 28 17 2411 133.68000000 3180256529 3180256529 1.66700000
41.49462891 86.95623779 1.68178368 28 18 2411 96.36400000 3180256531 3180256531 1.00000000
9.25061989 25.54062653 -1.74092424 3 19 2411 27.22000000 3180256531 3180256531 -3.66700000
12.88741493 23.91452408 -1.58207905 4 20 2412 27.21200000 3180256533 3180256533 -3.33300000
44.58940506 106.48997498 6.72342873 42 21 2412 115.64400000 3180256533 3180256533 3.33300000
40.95257187 85.74327850 3.87126231 28 22 2413 95.10000000 3180256535 3180256535 2.33300000
11.87245274 28.34032249 -1.43129742 3 23 2413 30.76000000 3180256535 3180256535 -2.66700000
12.74428749 26.67102051 -1.54914427 5 24 2414 29.60000000 3180256538 3180256538 -3.00000000
11.54345512 31.80170441 -1.37834847 5 27 2415 33.86000000 3180256540 3180256540 -2.33300000
16.01327515 29.66541672 -1.17722988 5 28 2416 33.73200000 3180256542 3180256542 -2.00000000
15.92750835 37.94564819 -0.95760393 5 31 2417 41.16400000 3180256545 3180256545 -1.33300000
2.39539385 4.99062824 -2.58135223 14 0 2424 6.10800000 3180256565 3180256565 -25.00000000
15.83881760 43.42244720 -0.80678982 9 1 2424 46.22800000 3180256565 3180256565 -1.00000000
16.61008072 34.59041214 -1.11672747 7 2 2425 38.38800000 3180256568 3180256568 -1.66700000
3.11570168 7.39389277 -2.24610186 15 3 2425 8.33200000 3180256568 3180256568 -15.63900000
5.37569761 11.18985939 -2.48284483 4 4 2426 12.66000000 3180256570 3180256570 -11.31000000
21.48764801 50.96762085 0.00000000 15 5 2426 55.31200000 3180256570 3180256570 0.00000000
21.26581383 39.23204803 -0.51951826 11 6 2426 44.62800000 3180256572 3180256572 -0.66700000
5.81936312 13.80323696 -2.33050823 4 7 2426 15.16000000 3180256572 3180256572 -8.84300000
7.48228550 15.56789589 -2.19858241 4 8 2427 17.41200000 3180256575 3180256575 -7.25400000
21.49155807 58.82386398 0.36398852 28 9 2427 62.62800000 3180256575 3180256575 0.33300000
21.32712364 44.35410309 -0.28603914 18 10 2428 49.21600000 3180256577 3180256577 -0.33300000
7.48856068 17.74518394 -2.07468414 3 11 2428 19.37200000 3180256577 3180256577 -6.14800000
9.99654961 18.41901779 -1.95628679 2 12 2429 21.04800000 3180256579 3180256579 -5.33300000
42.10242462 99.71894073 2.51874661 28 13 2429 108.27200000 3180256579 3180256579 1.33300000
39.62248611 72.97554016 0.96672213 28 14 2430 83.04400000 3180256581 3180256581 0.66700000
9.86743546 23.35949135 -1.77320957 2 15 2430 25.42000000 3180256581 3180256581 -4.00000000
9.92912865 20.62199211 -1.86845374 3 16 2431 22.96400000 3180256584 3180256584 -4.66700000
41.42488480 86.03612518 1.66677463 28 18 2431 95.50400000 3180256586 3180256586 1.00000000
9.32187462 25.45944977 -1.73759842 3 19 2431 27.16800000 3180256586 3180256586 -3.66700000
12.94221401 23.81676483 -1.57859075 4 20 2432 27.15200000 3180256588 3180256588 -3.33300000
44.91575241 106.22702026 6.71668482 42 21 2432 115.52800000 3180256588 3180256588 3.33300000
40.68771744 84.42967224 3.81834292 28 22 2433 93.80000000 3180256591 3180256591 2.33300000
11.96040916 28.27294731 -1.42999446 3 23 2433 30.73200000 3180256591 3180256591 -2.66700000
12.79740906 26.54361343 -1.54432940 5 24 2434 29.50800000 3180256593 3180256593 -3.00000000
11.64062595 31.72369576 -1.37672019 5 27 2435 33.82000000 3180256595 3180256595 -2.33300000
16.10335159 29.58476067 -1.17625260 5 28 2436 33.70400000 3180256598 3180256598 -2.00000000
16.13009262 38.05550385 -0.96179128 5 31 2437 41.34400000 3180256600 3180256600 -1.33300000
2.42544055 5.00833845 -2.59487605 17 0 2444 6.14000000 3180256621 3180256621 -25.00000000
15.92111397 43.17927170 -0.80329937 9 1 2444 46.02800000 3180256621 3180256621 -1.00000000
16.68365288 34.43507004 -1.11358559 7 2 2445 38.28000000 3180256623 3180256623 -1.66700000
3.16411471 7.43613815 -2.26227641 17 3 2445 8.39200000 3180256623 3180256623 -15.63900000
5.41301394 11.16749668 -2.48206043 4 4 2446 12.65600000 3180256625 3180256625 -11.31000000
21.48994637 50.48010254 0.00000000 15 5 2446 54.86400000 3180256625 3180256625 0.00000000
21.22998238 38.84170532 -0.51532745 11 6 2446 44.26800000 3180256628 3180256628 -0.66700000
5.86131716 13.76829243 -2.32804847 4 7 2446 15.14400000 3180256628 3180256628 -8.84300000
7.51234293 15.49169827 -2.19151139 22 8 2447 17.35600000 3180256630 3180256630 -7.25400000
21.48751259 58.18190002 0.36047813 28 9 2447 62.02400000 3180256630 3180256630 0.33300000
21.31770134 43.94110489 -0.28385386 18 10 2448 48.84000000 3180256632 3180256632 -0.33300000
7.54578018 17.70796013 -2.07339883 4 11 2448 19.36000000 3180256632 3180256632 -6.14800000
10.04166317 18.34907532 -1.95256901 2 12 2449 21.00800000 3180256634 3180256634 -5.33300000
39.49474716 72.13862610 0.95745581 28 14 2450 82.24800000 3180256637 3180256637 0.66700000
9.96143913 23.35426712 -1.77544177 2 15 2450 25.45200000 3180256637 3180256637 -4.00000000
9.99234200 20.56927872 -1.86682642 3 16 2451 22.94400000 3180256639 3180256639 -4.66700000
41.66759872 112.58177185 3.49365687 28 17 2451 120.09600000 3180256639 3180256639 1.66700000
41.44534302 85.31542206 1.65560508 28 18 2451 94.86400000 3180256641 3180256641 1.00000000
9.39960384 25.39680672 -1.73555183 3 19 2451 27.13600000 3180256641 3180256641 -3.66700000
13.03294659 23.78544998 -1.57952094 4 20 2452 27.16800000 3180256644 3180256644 -3.33300000
50.18150330 117.53517914 7.44272470 42 21 2452 128.01600000 3180256644 3180256644 3.33300000
40.88606644 84.08944702 3.80938721 28 22 2453 93.58000000 3180256646 3180256646 2.33300000
12.05431938 28.22000122 -1.42943609 3 23 2453 30.72000000 3180256646 3180256646 -2.66700000
12.88124943 26.48081970 -1.54328263 5 24 2454 29.48800000 3180256648 3180256648 -3.00000000
11.74434185 31.66413307 -1.37590611 5 27 2455 33.80000000 3180256651 3180256651 -2.33300000
16.15651512 29.43725395 -1.17262304 5 28 2456 33.60000000 3180256653 3180256653 -2.00000000
16.18070793 37.82532501 -0.95732474 5 31 2456 41.15200000 3180256655 3180256655 -1.33300000
2.43017626 4.97378397 -2.58135223 17 0 2464 6.10800000 3180256676 3180256676 -25.00000000
15.99212933 42.90982437 -0.79932022 9 1 2464 45.80000000 3180256676 3180256676 -1.00000000
16.77741241 34.32274246 -1.11184025 7 2 2465 38.22000000 3180256678 3180256678 -1.66700000
3.25239372 7.57015133 -2.30648685 18 3 2465 8.55600000 3180256678 3180256678 -15.63900000
5.45023966 11.14501095 -2.48127604 4 4 2466 12.65200000 3180256681 3180256681 -11.31000000
21.48910713 49.99319458 0.00000000 14 5 2466 54.41600000 3180256681 3180256681 0.00000000
21.26212502 38.56398392 -0.51267332 11 6 2467 44.04000000 3180256683 3180256683 -0.66700000
5.90861797 13.73945522 -2.32681870 2 7 2467 15.13600000 3180256683 3180256683 -8.84300000
7.56811714 15.46894550 -2.19201636 18 8 2467 17.36000000 3180256685 3180256685 -7.25400000
21.46246338 57.49571991 0.35668877 28 9 2467 61.37200000 3180256685 3180256685 0.33300000
21.30214119 43.52152634 -0.28162208 18 10 2468 48.45600000 3180256687 3180256687 -0.33300000
10.10757637 18.31739807 -1.95294082 2 12 2469 21.01200000 3180256690 3180256690 -5.33300000
42.57620621 98.90835571 2.50571942 28 13 2469 107.71200000 3180256690 3180256690 1.33300000
39.55495071 71.65366364 0.95284593 28 14 2470 81.85200000 3180256692 3180256692 0.66700000
10.02553844 23.27904129 -1.77237248 2 15 2470 25.40800000 3180256692 3180256692 -4.00000000
10.02197170 20.44835472 -1.85901546 3 16 2471 22.84800000 3180256694 3180256694 -4.66700000
44.20228958 118.16152191 3.67157459 28 17 2471 126.21200000 3180256694 3180256694 1.66700000
40.94253922 83.50033569 1.62328327 28 18 2472 93.01200000 3180256697 3180256697 1.00000000
9.45484447 25.26124573 -1.72864437 3 19 2472 27.02800000 3180256697 3180256697 -3.66700000
13.02706432 23.57902908 -1.56882334 4 20 2472 26.98400000 3180256699 3180256699 -3.33300000
50.27531433 116.62589264 7.39621353 42 21 2472 127.21600000 3180256699 3180256699 3.33300000
40.74457932 83.05992126 3.76916862 28 22 2473 92.59200000 3180256701 3180256701 2.33300000
12.13850975 28.14473152 -1.42776096 3 23 2473 30.68400000 3180256701 3180256701 -2.66700000
12.96656704 26.42135048 -1.54244530 5 24 2474 29.47200000 3180256704 3180256704 -3.00000000
58.40244293 118.95136261 10.81789494 28 26 2475 132.95600000 3180256706 3180256706 4.66700000
11.80850220 31.49944687 -1.37053275 5 27 2475 33.66800000 3180256706 3180256706 -2.33300000
16.24368668 29.35269737 -1.17150629 5 28 2476 33.56800000 3180256708 3180256708 -2.00000000
16.24446297 37.61075592 -0.95332348 5 31 2476 40.98000000 3180256711 3180256711 -1.33300000
2.44271493 4.95551586 -2.57628083 17 0 2484 6.09600000 3180256731 3180256731 -25.00000000
16.14181519 42.85373688 -0.79932022 9 1 2484 45.80000000 3180256731 3180256731 -1.00000000
16.87943459 34.22810745 -1.11067665 7 2 2485 38.18000000 3180256734 3180256734 -1.66700000
3.32478452 7.66476536 -2.33883595 14 3 2485 8.67600000 3180256734 3180256734 -15.63900000
5.48563910 11.11888313 -2.47970700 4 4 2486 12.64400000 3180256736 3180256736 -11.31000000
21.49787140 49.53626633 0.00000000 14 5 2486 54.00000000 3180256736 3180256736 0.00000000
21.28583527 38.29026413 -0.51001912 11 6 2487 43.81200000 3180256738 3180256738 -0.66700000
5.95024538 13.70424557 -2.32435894 2 7 2487 15.12000000 3180256738 3180256738 -8.84300000
21.46112633 56.88528061 0.35336435 28 9 2487 60.80000000 3180256740 3180256740 0.33300000
21.33350182 43.20302200 -0.28004125 18 10 2488 48.18400000 3180256743 3180256743 -0.33300000
7.62009907 17.54177094 -2.06011891 21 11 2488 19.23600000 3180256743 3180256743 -6.14800000
10.15402699 18.25068092 -1.94959474 2 12 2489 20.97600000 3180256745 3180256745 -5.33300000
44.57728958 102.56969452 2.60240102 28 13 2489 111.86800000 3180256745 3180256745 1.33300000
39.70172882 71.32993317 0.95037800 28 14 2490 81.64000000 3180256747 3180256747 0.66700000
10.10514545 23.24024391 -1.77209342 2 15 2490 25.40400000 3180256747 3180256747 -4.00000000
10.13216400 20.49187088 -1.86617553 3 16 2491 22.93600000 3180256750 3180256750 -4.66700000
41.32279968 109.29991913 3.40068340 28 17 2491 116.90000000 3180256750 3180256750 1.66700000
41.13944244 83.20277405 1.62014174 28 18 2491 92.83200000 3180256752 3180256752 1.00000000
9.52726841 25.19988251 -1.72659779 3 19 2491 26.99600000 3180256752 3180256752 -3.66700000
13.11317825 23.54039001 -1.56928849 4 20 2492 26.99200000 3180256754 3180256754 -3.33300000
50.84146500 116.81584167 7.41946936 42 21 2492 127.61600000 3180256754 3180256754 3.33300000
40.95981216 82.76674652 3.76232958 28 22 2493 92.42400000 3180256757 3180256757 2.33300000
12.22710896 28.08020782 -1.42664421 3 23 2493 30.66000000 3180256757 3180256757 -2.66700000
13.04630852 26.35087013 -1.54097986 5 24 2494 29.44400000 3180256759 3180256759 -3.00000000
11.91696739 31.45429802 -1.37036991 5 27 2495 33.66400000 3180256761 3180256761 -2.33300000
16.32657051 29.26090813 -1.17011034 5 28 2496 33.52800000 3180256764 3180256764 -2.00000000
16.35806656 37.51350403 -0.95229989 5 31 2496 40.93600000 3180256766 3180256766 -1.33300000
2.49389553 5.01512575 -2.61178088 13 0 2504 6.18000000 3180256786 3180256786 -25.00000000
16.19455147 42.54296494 -0.79457319 9 1 2504 45.52800000 3180256786 3180256786 -1.00000000
16.92401314 34.01863098 -1.10578942 7 2 2505 38.01200000 3180256788 3180256788 -1.66700000
3.29898286 7.53314734 -2.30217361 15 3 2505 8.54000000 3180256788 3180256788 -15.63900000
5.51917458 11.08913231 -2.47735357 4 4 2506 12.63200000 3180256791 3180256791 -11.31000000
21.46197510 48.98463058 0.00000000 13 5 2506 53.48000000 3180256791 3180256791 0.00000000
21.25043297 37.92984772 -0.50615430 11 6 2506 43.48000000 3180256793 3180256793 -0.66700000
5.99407148 13.68081760 -2.32374406 3 7 2506 15.11600000 3180256793 3180256793 -8.84300000
7.67415714 15.41218090 -2.19151139 1 8 2507 17.35600000 3180256795 3180256795 -7.25400000
21.51278877 56.42506027 0.35096985 28 9 2507 60.38800000 3180256795 3180256795 0.33300000
21.32366371 42.80606461 -0.27794895 17 10 2508 47.82400000 3180256798 3180256798 -0.33300000
10.20792961 18.19775963 -1.94773591 2 12 2509 20.95600000 3180256800 3180256800 -5.33300000
44.31003952 100.98897552 2.56620359 28 13 2509 110.31200000 3180256800 3180256800 1.33300000
39.93873215 71.16998291 0.95009863 28 14 2510 81.61600000 3180256802 3180256802 0.66700000
10.13007164 23.07694817 -1.76232755 2 15 2510 25.26400000 3180256802 3180256802 -4.00000000
10.14846706 20.34578323 -1.85608637 3 16 2511 22.81200000 3180256804 3180256804 -4.66700000
41.11614990 107.61619568 3.35274220 28 17 2511 115.25200000 3180256804 3180256804 1.66700000
40.85837936 81.91342163 1.59780276 28 18 2511 91.55200000 3180256807 3180256807 1.00000000
9.60805130 25.14782715 -1.72531855 3 19 2511 26.97600000 3180256807 3180256807 -3.66700000
13.19526958 23.49447250 -1.56928849 4 20 2512 26.99200000 3180256809 3180256809 -3.33300000
60.29426193 137.22399902 8.72899246 42 21 2512 150.14000000 3180256809 3180256809 3.33300000
40.89678955 81.91883087 3.73025227 28 22 2513 91.63600000 3180256811 3180256811 2.33300000
12.31540489 28.01540947 -1.42552745 3 23 2513 30.63600000 3180256811 3180256811 -2.66700000
13.11857796 26.26585960 -1.53867710 5 24 2514 29.40000000 3180256814 3180256814 -3.00000000
12.01097202 31.37145042 -1.36857879 5 27 2515 33.62000000 3180256816 3180256816 -2.33300000
16.41880989 29.18631935 -1.16941237 5 28 2516 33.50800000 3180256818 3180256818 -2.00000000
16.43574524 37.33539581 -0.94922918 5 31 2516 40.80400000 3180256821 3180256821 -1.33300000
2.50325894 4.99018812 -2.60332847 15 0 2524 6.16000000 3180256841 3180256841 -25.00000000
16.37885284 42.57949448 -0.79631841 9 1 2524 45.62800000 3180256841 3180256841 -1.00000000
17.02651596 33.92718506 -1.10474217 7 2 2525 37.97600000 3180256844 3180256844 -1.66700000
3.38600063 7.65898228 -2.34422731 15 3 2525 8.69600000 3180256844 3180256844 -15.63900000
5.55432940 11.06278896 -2.47578478 4 4 2526 12.62400000 3180256846 3180256846 -11.31000000
21.45808601 48.51433563 0.00000000 12 5 2526 53.04800000 3180256846 3180256846 0.00000000
21.26074028 37.63951874 -0.50326729 11 6 2526 43.23200000 3180256848 3180256848 -0.66700000
6.03379583 13.64173794 -2.32066965 3 7 2526 15.09600000 3180256848 3180256848 -8.84300000
7.71900368 15.36757088 -2.18898582 3 8 2527 17.33600000 3180256851 3180256851 -7.25400000
21.48960304 55.77854919 0.34741294 27 9 2527 59.77600000 3180256851 3180256851 0.33300000
21.30592537 42.39898300 -0.27578694 17 10 2528 47.45200000 3180256853 3180256853 -0.33300000
7.74237680 17.48814392 -2.06011891 1 11 2528 19.23600000 3180256853 3180256853 -6.14800000
10.26158714 18.14468193 -1.94587696 2 12 2529 20.93600000 3180256855 3180256855 -5.33300000
46.26234055 104.44612122 2.65813947 28 13 2529 114.26400000 3180256855 3180256855 1.33300000
40.16722107 70.99532318 0.94963300 28 14 2530 81.57600000 3180256857 3180256857 0.66700000
10.21379757 23.04874420 -1.76288557 2 15 2530 25.27200000 3180256857 3180256857 -4.00000000
10.21046638 20.29242706 -1.85445905 3 16 2531 22.79200000 3180256860 3180256860 -4.66700000
41.01283264 81.50949860 1.59270656 28 18 2531 91.26000000 3180256862 3180256862 1.00000000
9.69146156 25.10296440 -1.72455108 3 19 2531 26.96400000 3180256862 3180256862 -3.66700000
13.18865871 23.29190254 -1.55882347 4 20 2532 26.81200000 3180256864 3180256864 -3.33300000
60.75346756 136.96888733 8.72620201 42 21 2532 150.09200000 3180256864 3180256864 3.33300000
40.92182922 81.25798035 3.70664215 28 22 2533 91.05600000 3180256867 3180256867 2.33300000
12.37584496 27.88825035 -1.42124665 3 23 2533 30.54400000 3180256867 3180256867 -2.66700000
13.21197987 26.22347450 -1.53888643 5 24 2534 29.40400000 3180256869 3180256869 -3.00000000
12.11175251 31.30696869 -1.36760175 5 27 2535 33.59600000 3180256871 3180256871 -2.33300000
16.46339798 29.02798843 -1.16536403 5 28 2536 33.39200000 3180256874 3180256874 -2.00000000
16.56596947 37.27779388 -0.94922918 5 31 2536 40.80400000 3180256876 3180256876 -1.33300000
2.52884674 4.99759293 -2.61178088 13 0 2544 6.18000000 3180256897 3180256897 -25.00000000
16.46508026 42.36177063 -0.79331660 9 1 2544 45.45600000 3180256897 3180256897 -1.00000000
17.09427643 33.76766205 -1.10148394 7 2 2545 37.86400000 3180256899 3180256899 -1.66700000
3.36248183 7.53455544 -2.30972171 15 3 2545 8.56800000 3180256899 3180256899 -15.63900000
5.58936787 11.03633499 -2.47421575 4 4 2546 12.61600000 3180256901 3180256901 -11.31000000
21.45607185 48.05562973 0.00000000 12 5 2546 52.62800000 3180256901 3180256901 0.00000000
21.27126122 37.35306168 -0.50042689 22 6 2546 42.98800000 3180256904 3180256904 -0.66700000
6.07170916 13.59893894 -2.31698012 3 7 2546 15.07200000 3180256904 3180256904 -8.84300000
7.78335953 15.36176968 -2.19201636 3 8 2547 17.36000000 3180256906 3180256906 -7.25400000
21.48103142 55.18135071 0.34415829 26 9 2547 59.21600000 3180256906 3180256906 0.33300000
21.33443832 42.08888245 -0.27425259 17 10 2548 47.18800000 3180256908 3180256908 -0.33300000
7.81473351 17.48642921 -2.06311750 1 11 2548 19.26400000 3180256908 3180256908 -6.14800000
10.31894302 18.09837341 -1.94476163 2 12 2549 20.92400000 3180256910 3180256910 -5.33300000
45.59180450 101.96949768 2.59914422 28 13 2549 111.72800000 3180256910 3180256910 1.33300000
40.24040985 70.54894257 0.94553536 28 14 2550 81.22400000 3180256913 3180256913 0.66700000
10.28278446 22.98745346 -1.76093245 2 15 2550 25.24400000 3180256913 3180256913 -4.00000000
10.27943325 20.25310898 -1.85413361 3 16 2551 22.78800000 3180256915 3180256915 -4.66700000
41.76037216 107.05460358 3.34424782 28 17 2551 114.96000000 3180256915 3180256915 1.66700000
41.22257996 81.18389893 1.58928597 28 18 2552 91.06400000 3180256917 3180256917 1.00000000
9.77759838 25.05240059 -1.72352779 3 19 2552 26.94800000 3180256917 3180256917 -3.66700000
13.35896873 23.40178108 -1.56928849 4 20 2552 26.99200000 3180256920 3180256920 -3.33300000
61.65222168 137.69628906 8.78620148 42 21 2552 151.12400000 3180256920 3180256920 3.33300000
41.01697540 80.74406433 3.68970799 28 22 2553 90.64000000 3180256922 3180256922 2.33300000
12.45841694 27.81206131 -1.41957152 3 23 2553 30.50800000 3180256922 3180256922 -2.66700000
13.25638294 26.08460999 -1.53344357 5 24 2554 29.30000000 3180256924 3180256924 -3.00000000
12.22096062 31.26449966 -1.36760175 5 27 2555 33.59600000 3180256927 3180256927 -2.33300000
16.55470276 28.95299149 -1.16466606 5 28 2556 33.37200000 3180256929 3180256929 -2.00000000
16.60924721 37.02636337 -0.94429737 5 31 2556 40.59200000 3180256931 3180256931 -1.33300000
2.59407020 5.08237505 -2.66080451 15 0 2564 6.29600000 3180256952 3180256952 -25.00000000
16.51929092 42.06579208 -0.78884876 9 1 2564 45.20000000 3180256952 3180256952 -1.00000000
17.18840599 33.66149139 -1.09997129 7 2 2565 37.81200000 3180256954 3180256954 -1.66700000
3.38559771 7.51574802 -2.30756521 15 3 2565 8.56000000 3180256954 3180256954 -15.63900000
5.62428904 11.00977135 -2.47264671 4 4 2566 12.60800000 3180256956 3180256956 -11.31000000
21.45769119 47.61211777 0.00000000 11 5 2566 52.22400000 3180256956 3180256956 0.00000000
21.24667358 36.99390793 -0.49665517 21 6 2567 42.66400000 3180256959 3180256959 -0.66700000
6.11988640 13.57299042 -2.31636524 3 7 2567 15.06800000 3180256959 3180256959 -8.84300000
7.82971191 15.32037449 -2.18999600 3 8 2567 17.34400000 3180256961 3180256961 -7.25400000
21.46562767 54.57745361 0.34085712 25 9 2567 58.64800000 3180256961 3180256961 0.33300000
21.31006050 41.67937851 -0.27206731 17 10 2568 46.81200000 3180256963 3180256963 -0.33300000
7.87408924 17.45541763 -2.06268907 1 11 2568 19.26000000 3180256963 3180256963 -6.14800000
10.37808609 18.05533600 -1.94401813 2 12 2569 20.91600000 3180256966 3180256966 -5.33300000
42.65258026 94.50896454 2.41275978 28 13 2569 103.71600000 3180256966 3180256966 1.33300000
40.28305435 70.05438232 0.94078577 28 14 2570 80.81600000 3180256968 3180256968 0.66700000
10.36953163 22.96596527 -1.76204848 2 15 2570 25.26000000 3180256968 3180256968 -4.00000000
10.34461689 20.20645714 -1.85315728 3 16 2571 22.77600000 3180256970 3180256970 -4.66700000
42.27161789 107.25785065 3.35518575 28 17 2571 115.33600000 3180256970 3180256970 1.66700000
41.28380203 80.64091492 1.58132768 28 18 2571 90.60800000 3180256973 3180256973 1.00000000
9.82110214 24.91956520 -1.71662033 3 19 2571 26.84000000 3180256973 3180256973 -3.66700000
13.37484550 23.24079323 -1.56161416 4 20 2572 26.86000000 3180256975 3180256975 -3.33300000
41.04341888 80.10242462 3.66691184 28 22 2573 90.08000000 3180256977 3180256977 2.33300000
12.54554558 27.74655914 -1.41845477 3 23 2573 30.48400000 3180256977 3180256977 -2.66700000
13.34006596 26.02395821 -1.53260612 5 24 2574 29.28400000 3180256980 3180256980 -3.00000000
12.27717113 31.08782768 -1.36173999 5 27 2575 33.45200000 3180256982 3180256982 -2.33300000
16.62971497 28.85000420 -1.16285121 5 28 2576 33.32000000 3180256984 3180256984 -2.00000000
16.74319458 36.96159744 -0.94420433 5 31 2577 40.58800000 3180256986 3180256986 -1.33300000
2.56699324 4.98626280 -2.61516190 16 0 2584 6.18800000 3180257007 3180257007 -25.00000000
16.63947868 41.94095612 -0.78759217 9 1 2584 45.12800000 3180257007 3180257007 -1.00000000
17.29664803 33.58351517 -1.09938943 7 2 2585 37.79200000 3180257009 3180257009 -1.66700000
3.39746308 7.47232628 -2.29786038 15 3 2585 8.52400000 3180257009 3180257009 -15.63900000
5.65729618 10.97961140 -2.47029328 4 4 2586 12.59600000 3180257012 3180257012 -11.31000000
21.45482254 47.16554260 0.00000000 11 5 2586 51.81600000 3180257012 3180257012 0.00000000
21.26545143 36.72913742 -0.49409413 21 6 2587 42.44400000 3180257014 3180257014 -0.66700000
6.16067886 13.53715515 -2.31390548 3 7 2587 15.05200000 3180257014 3180257014 -8.84300000
7.87950611 15.28589630 -2.18898582 1 8 2587 17.33600000 3180257016 3180257016 -7.25400000
21.47728920 54.05240631 0.33804414 24 9 2587 58.16400000 3180257016 3180257016 0.33300000
21.22991943 41.16746902 -0.26920784 17 10 2588 46.32000000 3180257019 3180257019 -0.33300000
7.92838049 17.41334915 -2.06097555 1 11 2588 19.24400000 3180257019 3180257019 -6.14800000
10.44304466 18.02244568 -1.94438994 2 12 2589 20.92000000 3180257021 3180257021 -5.33300000
42.83136749 94.02834320 2.40429211 28 13 2589 103.35200000 3180257021 3180257021 1.33300000
40.16427612 69.28701019 0.93235761 28 14 2590 80.09200000 3180257023 3180257023 0.66700000
10.43970585 22.90784454 -1.76037443 2 15 2590 25.23600000 3180257023 3180257023 -4.00000000
10.40960026 20.15959740 -1.85218084 3 16 2591 22.76400000 3180257026 3180257026 -4.66700000
43.47400284 109.18987274 3.42034864 28 17 2591 117.57600000 3180257026 3180257026 1.66700000
41.25860596 79.90286255 1.56966949 28 18 2591 89.94000000 3180257028 3180257028 1.00000000
9.89178562 24.84433746 -1.71380627 3 19 2591 26.79600000 3180257028 3180257028 -3.66700000
13.44587040 23.17669487 -1.56045127 4 20 2592 26.84000000 3180257030 3180257030 -3.33300000
41.17598343 79.67462158 3.65388560 28 22 2593 89.76000000 3180257033 3180257033 2.33300000
12.62573433 27.66624641 -1.41659355 3 23 2593 30.44400000 3180257033 3180257033 -2.66700000
13.41614914 25.94884682 -1.53093135 5 24 2594 29.25200000 3180257035 3180257035 -3.00000000
12.37080288 31.00766182 -1.36011171 5 27 2595 33.41200000 3180257037 3180257037 -2.33300000
16.72228432 28.77795410 -1.16229284 5 28 2596 33.30400000 3180257039 3180257039 -2.00000000
16.85071182 36.87313843 -0.94336689 5 31 2596 40.55200000 3180257042 3180257042 -1.33300000
2.58939457 4.98692417 -2.62023330 13 0 2604 6.20000000 3180257062 3180257062 -25.00000000
16.78577805 41.88261795 -0.78759217 9 1 2604 45.12800000 3180257062 3180257062 -1.00000000
17.34557533 33.39165497 -1.09508407 7 2 2605 37.64400000 3180257065 3180257065 -1.66700000
3.38175583 7.36939764 -2.26982450 21 3 2605 8.42000000 3180257065 3180257065 -15.63900000
5.69377899 10.95631599 -2.46950889 4 4 2606 12.59200000 3180257067 3180257067 -11.31000000
21.45410538 46.73048019 0.00000000 11 5 2606 51.42000000 3180257067 3180257067 0.00000000
21.27022934 36.45804214 -0.49139342 21 6 2606 42.21200000 3180257069 3180257069 -0.66700000
6.20553589 13.51665115 -2.31390548 4 7 2606 15.05200000 3180257069 3180257069 -8.84300000
7.95661068 15.30406666 -2.19555187 3 8 2607 17.38800000 3180257072 3180257072 -7.25400000
21.46021843 53.46484375 0.33483598 23 9 2607 57.61200000 3180257072 3180257072 0.33300000
21.23506165 40.82696533 -0.26746428 17 10 2608 46.02000000 3180257074 3180257074 -0.33300000
7.97915268 17.36388397 -2.05840516 1 11 2608 19.22000000 3180257074 3180257074 -6.14800000
10.45768070 17.90334702 -1.93546724 2 12 2609 20.82400000 3180257076 3180257076 -5.33300000
43.14095306 93.83829498 2.40326858 28 13 2609 103.30800000 3180257076 3180257076 1.33300000
40.19601822 68.78723907 0.92751497 28 14 2610 79.67600000 3180257079 3180257079 0.66700000
10.51627064 22.86401176 -1.75981629 2 15 2610 25.22800000 3180257079 3180257079 -4.00000000
10.46517467 20.09485054 -1.84957719 3 16 2611 22.73200000 3180257081 3180257081 -4.66700000
41.06788635 102.10807800 3.20298409 28 17 2611 110.10400000 3180257081 3180257081 1.66700000
41.31558609 79.33269501 1.56129229 28 18 2611 89.46000000 3180257083 3180257083 1.00000000
9.96802139 24.78373146 -1.71201539 3 19 2611 26.76800000 3180257083 3180257083 -3.66700000
13.54281807 23.15719414 -1.56231177 4 20 2612 26.87200000 3180257086 3180257086 -3.33300000
41.20446014 79.05194855 3.63190365 28 22 2613 89.22000000 3180257088 3180257088 2.33300000
12.69047070 27.55305099 -1.41305721 3 23 2613 30.36800000 3180257088 3180257088 -2.66700000
13.49556446 25.88060760 -1.52967536 5 24 2614 29.22800000 3180257090 3180257090 -3.00000000
12.47298813 30.94946289 -1.35946035 5 27 2615 33.39600000 3180257092 3180257092 -2.33300000
16.74989891 28.59523010 -1.15726733 5 28 2616 33.16000000 3180257095 3180257095 -2.00000000
16.92375374 36.67678070 -0.93992394 5 31 2617 40.40400000 3180257097 3180257097 -1.33300000
2.73214960 5.21503067 -2.74532819 14 0 2625 6.49600000 3180257118 3180257118 -25.00000000
16.91214752 41.75408936 -0.78633565 9 1 2625 45.05600000 3180257118 3180257118 -1.00000000
17.45299721 33.29952240 -1.09415317 7 2 2626 37.61200000 3180257120 3180257120 -1.66700000
3.41198206 7.36394358 -2.27198124 25 3 2626 8.42800000 3180257120 3180257120 -15.63900000
5.73025465 10.92842674 -2.46794009 4 4 2627 12.58400000 3180257122 3180257122 -11.31000000
21.45196724 46.27774048 0.00000000 10 5 2627 51.00800000 3180257122 3180257122 0.00000000
21.22320175 36.07302475 -0.48724917 21 6 2627 41.85600000 3180257125 3180257125 -0.66700000
6.24506187 13.47230053 -2.31021619 3 7 2627 15.02800000 3180257125 3180257125 -8.84300000
8.00896263 15.26777363 -2.19454169 3 8 2628 17.38000000 3180257127 3180257127 -7.25400000
21.48913574 52.97439957 0.33225548 22 9 2628 57.16800000 3180257127 3180257127 0.33300000
21.23586082 40.46551132 -0.26560447 17 10 2629 45.70000000 3180257129 3180257129 -0.33300000
8.03604507 17.32009315 -2.05669165 1 11 2629 19.20400000 3180257129 3180257129 -6.14800000
10.51918697 17.85803413 -1.93472373 2 12 2630 20.81600000 3180257132 3180257132 -5.33300000
43.48796463 93.68679810 2.40345454 28 13 2630 103.31600000 3180257132 3180257132 1.33300000
40.44380569 68.63256073 0.92742181 28 14 2631 79.66800000 3180257134 3180257134 0.66700000
10.53613567 22.68779182 -1.74921334 2 15 2631 25.07600000 3180257134 3180257134 -4.00000000
10.54061031 20.05988693 -1.84990263 3 16 2632 22.73600000 3180257136 3180257136 -4.66700000
41.46895599 102.02354431 3.20507860 28 17 2632 110.17600000 3180257136 3180257136 1.66700000
41.39028168 78.77005005 1.55319440 28 18 2632 88.99600000 3180257139 3180257139 1.00000000
10.05428219 24.73593712 -1.71124792 3 19 2632 26.75600000 3180257139 3180257139 -3.66700000
13.61745930 23.09020424 -1.56114900 4 20 2633 26.85200000 3180257141 3180257141 -3.33300000
40.92095184 77.81089020 3.58175230 28 22 2634 87.98800000 3180257143 3180257143 2.33300000
12.78126335 27.48461533 -1.41194046 3 23 2634 30.34400000 3180257143 3180257143 -2.66700000
13.57731152 25.80622482 -1.52820992 5 24 2635 29.20000000 3180257145 3180257145 -3.00000000
12.57578754 30.87762833 -1.35832059 5 27 2636 33.36800000 3180257148 3180257148 -2.33300000
16.85459328 28.53364754 -1.15726733 5 28 2637 33.16000000 3180257150 3180257150 -2.00000000
17.04962349 36.59638214 -0.93945867 5 31 2638 40.38400000 3180257152 3180257152 -1.33300000
2.65882039 5.03650761 -2.65573311 14 0 2643 6.28400000 3180257173 3180257173 -25.00000000
16.95699310 41.48973083 -0.78235650 9 1 2643 44.82800000 3180257173 3180257173 -1.00000000
17.54258537 33.21624374 -1.09322226 7 2 2644 37.58000000 3180257175 3180257175 -1.66700000
3.43020868 7.34271860 -2.26874614 20 3 2644 8.41600000 3180257175 3180257175 -15.63900000
5.76089430 10.90343475 -2.46637106 4 4 2645 12.57600000 3180257178 3180257178 -11.31000000
21.43296432 45.85861206 0.00000000 10 5 2645 50.62000000 3180257178 3180257178 0.00000000
21.20592499 35.78594971 -0.48426905 31 6 2645 41.60000000 3180257180 3180257180 -0.66700000
6.28066158 13.43829250 -2.30775642 4 7 2645 15.01200000 3180257180 3180257180 -8.84300000
8.01424026 15.16185188 -2.18292499 1 8 2646 17.28800000 3180257182 3180257182 -7.25400000
21.44483757 52.39207077 0.32902405 21 9 2646 56.61200000 3180257182 3180257182 0.33300000
21.22077370 40.12986374 -0.26383764 17 10 2647 45.39600000 3180257185 3180257185 -0.33300000
8.08704758 17.28755569 -2.05583501 1 11 2647 19.19600000 3180257185 3180257185 -6.14800000
10.56304455 17.80434799 -1.93249309 2 12 2648 20.79200000 3180257187 3180257187 -5.33300000
41.52084732 88.71811676 2.27932239 28 13 2648 97.98000000 3180257187 3180257187 1.33300000
40.13048935 67.61432648 0.91536164 28 14 2649 78.63200000 3180257189 3180257189 0.66700000
10.60397530 22.64735222 -1.74865532 2 15 2649 25.06800000 3180257189 3180257189 -4.00000000
10.55880547 19.94211388 -1.84209168 3 16 2650 22.64000000 3180257192 3180257192 -4.66700000
44.48985291 108.47747040 3.41220331 28 17 2650 117.29600000 3180257192 3180257192 1.66700000
41.26325226 77.93272400 1.53923249 28 18 2650 88.19600000 3180257194 3180257194 1.00000000
10.12133980 24.67837524 -1.70945716 3 19 2650 26.72800000 3180257194 3180257194 -3.66700000
13.68177509 23.03357697 -1.56021881 4 20 2651 26.83600000 3180257196 3180257196 -3.33300000
40.78156281 76.95800018 3.54837227 28 22 2652 87.16800000 3180257198 3180257198 2.33300000
12.85058308 27.40814781 -1.41007912 3 23 2652 30.30400000 3180257198 3180257198 -2.66700000
13.63212299 25.71403313 -1.52527916 5 24 2653 29.14400000 3180257201 3180257201 -3.00000000
98.72982788 186.15382385 17.20175171 28 26 2654 211.41600000 3180257203 3180257203 4.66700000
12.62715530 30.72706795 -1.35343564 5 27 2654 33.24800000 3180257203 3180257203 -2.33300000
16.92166710 28.44276619 -1.15573168 5 28 2655 33.11600000 3180257205 3180257205 -2.00000000
17.15260887 36.51730347 -0.93880731 5 31 2656 40.35600000 3180257208 3180257208 -1.33300000
2.67726231 5.02672911 -2.65573311 15 0 2664 6.28400000 3180257228 3180257228 -25.00000000
17.07078171 41.33488846 -0.78061122 9 1 2664 44.72800000 3180257228 3180257228 -1.00000000
17.65669060 33.13761139 -1.09275687 7 2 2665 37.56400000 3180257231 3180257231 -1.66700000
3.44231009 7.29874182 -2.25904155 16 3 2665 8.38000000 3180257231 3180257231 -15.63900000
5.79712868 10.87532425 -2.46480203 4 4 2666 12.56800000 3180257233 3180257233 -11.31000000
21.43191719 45.42161560 0.00000000 9 5 2666 50.22400000 3180257233 3180257233 0.00000000
21.13383293 35.36807251 -0.47965920 20 6 2666 41.20400000 3180257235 3180257235 -0.66700000
6.32481337 13.40445900 -2.30591178 4 7 2666 15.00000000 3180257235 3180257235 -8.84300000
8.06975651 15.13237572 -2.18292499 1 8 2667 17.28800000 3180257238 3180257238 -7.25400000
21.42422104 51.79933929 0.32579264 21 9 2667 56.05600000 3180257238 3180257238 0.33300000
21.21709251 39.76948929 -0.26197782 17 10 2668 45.07600000 3180257240 3180257240 -0.33300000
8.15035534 17.25779915 -2.05583501 1 11 2668 19.19600000 3180257240 3180257240 -6.14800000
10.62823009 17.76551437 -1.93249309 2 12 2669 20.79200000 3180257242 3180257242 -5.33300000
41.54677582 87.93260193 2.26303816 28 13 2669 97.28000000 3180257242 3180257242 1.33300000
40.19728470 67.16477203 0.91126400 28 14 2670 78.28000000 3180257244 3180257244 0.66700000
10.67667866 22.58668900 -1.74698114 2 15 2670 25.04400000 3180257244 3180257244 -4.00000000
10.60740757 19.85756683 -1.83786070 3 16 2671 22.58800000 3180257247 3180257247 -4.66700000
41.24899673 77.22006989 1.52813268 28 18 2671 87.56000000 3180257249 3180257249 1.00000000
10.17810059 24.55998421 -1.70382881 3 19 2671 26.64000000 3180257249 3180257249 -3.66700000
13.74558640 22.94901848 -1.55789316 4 20 2672 26.79600000 3180257251 3180257251 -3.33300000
40.88999557 76.48374939 3.53339195 28 22 2673 86.80000000 3180257254 3180257254 2.33300000
12.93214893 27.32113838 -1.40803182 3 23 2673 30.26000000 3180257254 3180257254 -2.66700000
13.69613457 25.60753822 -1.52192962 5 24 2674 29.08000000 3180257256 3180257256 -3.00000000
12.73356056 30.66581535 -1.35278440 5 27 2675 33.23200000 3180257258 3180257258 -2.33300000
17.02168846 28.37369728 -1.15545249 5 28 2676 33.10800000 3180257261 3180257261 -2.00000000
17.20580673 36.28436661 -0.93443382 5 31 2677 40.16800000 3180257263 3180257263 -1.33300000
2.72052264 5.06525898 -2.68109035 16 0 2684 6.34400000 3180257284 3180257284 -25.00000000
17.16261864 41.14954758 -0.77823770 9 1 2684 44.59200000 3180257284 3180257284 -1.00000000
17.70601845 32.95250320 -1.08868420 7 2 2685 37.42400000 3180257286 3180257286 -1.66700000
3.50749278 7.37015676 -2.28492069 15 3 2685 8.47600000 3180257286 3180257286 -15.63900000
5.83319855 10.85156727 -2.46401763 4 4 2686 12.56400000 3180257288 3180257288 -11.31000000
21.42526245 44.99982071 0.00000000 18 5 2686 49.84000000 3180257288 3180257288 0.00000000
21.11890030 35.06452560 -0.47653937 20 6 2686 40.93600000 3180257291 3180257291 -0.66700000
6.36646795 13.37159348 -2.30406713 3 7 2686 14.98800000 3180257291 3180257291 -8.84300000
8.11501217 15.09013653 -2.18090487 1 8 2687 17.27200000 3180257293 3180257293 -7.25400000
21.43994522 51.32931519 0.32330513 20 9 2687 55.62800000 3180257293 3180257293 0.33300000
21.22881317 39.45917511 -0.26042023 16 10 2688 44.80800000 3180257295 3180257295 -0.33300000
8.20028210 17.20770454 -2.05326462 1 11 2688 19.17200000 3180257295 3180257295 -6.14800000
10.67372513 17.70102119 -1.92951882 2 12 2689 20.76000000 3180257297 3180257297 -5.33300000
41.46797180 86.97847748 2.24219441 28 13 2689 96.38400000 3180257297 3180257297 1.33300000
40.28686905 66.78430939 0.90800446 28 14 2690 78.00000000 3180257300 3180257300 0.66700000
10.75373840 22.54568100 -1.74670208 2 15 2690 25.04000000 3180257300 3180257300 -4.00000000
10.67098618 19.80988884 -1.83688438 3 16 2691 22.57600000 3180257302 3180257302 -4.66700000
42.60530853 101.80135345 3.21171141 28 17 2691 110.40400000 3180257302 3180257302 1.66700000
41.23568726 76.55097198 1.51773107 28 18 2691 86.96400000 3180257304 3180257304 1.00000000
10.24989891 24.49116516 -1.70152640 3 19 2691 26.60400000 3180257304 3180257304 -3.66700000
13.82561016 22.90089798 -1.55789316 4 20 2692 26.79600000 3180257307 3180257307 -3.33300000
40.86085129 75.79174042 3.50799060 28 22 2693 86.17600000 3180257309 3180257309 2.33300000
13.01882839 27.25780296 -1.40710115 3 23 2693 30.24000000 3180257309 3180257309 -2.66700000
13.77974987 25.54902649 -1.52130163 5 24 2694 29.06800000 3180257311 3180257311 -3.00000000
12.82661629 30.58800888 -1.35131884 5 27 2695 33.19600000 3180257314 3180257314 -2.33300000
17.10614777 28.29016304 -1.15447533 5 28 2696 33.08000000 3180257316 3180257316 -2.00000000
17.24839592 36.06476974 -0.93024647 5 31 2696 39.98800000 3180257318 3180257318 -1.33300000
2.74248242 5.06577349 -2.68616176 14 0 2703 6.35600000 3180257339 3180257339 -25.00000000
17.19656563 40.84912872 -0.77363026 9 1 2703 44.32800000 3180257339 3180257339 -1.00000000
17.79615402 32.85844803 -1.08752048 7 2 2704 37.38400000 3180257341 3180257341 -1.66700000
3.50857878 7.30986786 -2.26982450 16 3 2704 8.42000000 3180257341 3180257341 -15.63900000
5.86541414 10.82526684 -2.46244860 4 4 2705 12.55600000 3180257344 3180257344 -11.31000000
