# .PCD v0.7 - Point Cloud Data file format
VERSION 0.7
FIELDS x y z intensity laser_id azimuth distance_m adjustedtime timestamp vertical_angle
SIZE 4 4 4 1 1 2 8 8 4 8
TYPE F F F U U U F U U F
COUNT 1 1 1 1 1 1 1 1 1 1
WIDTH 509
HEIGHT 1
VIEWPOINT 0 0 0 1 0 0 0
POINTS 509
DATA ascii
38.49439621 -45.55196762 -1.04100108 54 1 14400 59.64800000 3185689839 3185689839 -1.00000000
12.81551266 -18.58408165 -0.65698063 2 2 14401 22.58400000 3185689842 3185689842 -1.66700000
6.34344196 -8.29988003 -2.92435360 6 3 14401 10.84800000 3185689842 3185689842 -15.63900000
8.33911610 -12.09726906 -2.93862152 1 4 14402 14.98400000 3185689844 3185689844 -11.31000000
38.22777939 -50.03604507 0.00000000 66 5 14402 62.96800000 3185689844 3185689844 0.00000000
10.75468636 -14.07672691 -2.75602579 2 7 14402 17.92800000 3185689846 3185689846 -8.84300000
11.40377045 -16.54923820 -2.55819416 5 8 14403 20.26000000 3185689849 3185689849 -7.25400000
38.66410446 -45.80141068 0.34836611 83 9 14403 59.94000000 3185689849 3185689849 0.33300000
12.62265587 -18.32493782 -0.12932670 45 10 14404 22.25200000 3185689851 3185689851 -0.33300000
11.21223259 -18.11876678 -1.98900306 2 12 14405 21.40000000 3185689853 3185689853 -5.33300000
40.57121277 -53.16102600 1.55611801 21 13 14405 66.89200000 3185689853 3185689853 1.33300000
11.98295975 -19.37180328 0.26518387 24 14 14406 22.78000000 3185689856 3185689856 0.66700000
19.91877556 -26.10929680 -2.29638314 13 15 14406 32.92000000 3185689856 3185689856 -4.00000000
12.73641968 -18.51083374 -1.83428073 6 16 14407 22.54400000 3185689858 3185689858 -4.66700000
41.11869431 -48.77816010 1.85667419 28 17 14407 63.82400000 3185689858 3185689858 1.66700000
13.13956261 -19.09675407 0.40461659 55 18 14407 23.18400000 3185689860 3185689860 1.00000000
20.03195953 -23.76345253 -1.99189365 15 19 14407 31.14400000 3185689860 3185689860 -3.66700000
106.92663574 -140.25967407 10.27130413 42 21 14408 176.66800000 3185689863 3185689863 3.33300000
12.96097851 -18.85129166 0.93203390 36 22 14409 22.89600000 3185689865 3185689865 2.33300000
20.22029877 -26.53332901 -1.55395341 10 23 14409 33.39600000 3185689865 3185689865 -2.66700000
12.58639908 -18.31332397 -1.16457975 52 24 14410 22.25200000 3185689867 3185689867 -3.00000000
38.12864685 -45.29526901 -2.41215062 27 27 14411 59.25600000 3185689869 3185689869 -2.33300000
38.15280914 -50.13715744 -1.46604311 29 31 14413 63.02000000 3185689874 3185689874 -1.33300000
3.55465770 -5.19339085 -2.93466115 35 0 14421 6.94400000 3185689895 3185689895 -25.00000000
38.47368240 -45.86740494 -1.04498029 55 1 14421 59.87600000 3185689895 3185689895 -1.00000000
12.64571285 -18.48243523 -0.65174431 2 2 14422 22.40400000 3185689897 3185689897 -1.66700000
6.31996250 -8.33228111 -2.92758846 6 3 14422 10.86000000 3185689897 3185689897 -15.63900000
8.30136395 -12.13746452 -2.94097495 1 4 14423 14.99600000 3185689899 3185689899 -11.31000000
38.23021698 -50.42125320 0.00000000 44 5 14423 63.27600000 3185689899 3185689899 0.00000000
11.22393417 -18.26566696 -0.24958482 9 6 14423 21.44000000 3185689902 3185689902 -0.66700000
10.71496010 -14.13179779 -2.75910020 2 7 14423 17.94800000 3185689902 3185689902 -8.84300000
11.33631897 -16.58109665 -2.55667901 3 8 14424 20.24800000 3185689904 3185689904 -7.25400000
38.64497375 -46.12063980 0.34971446 56 9 14424 60.17200000 3185689904 3185689904 0.33300000
12.52380943 -18.32484627 -0.12900123 49 10 14425 22.19600000 3185689906 3185689906 -0.33300000
11.23525524 -14.82875538 -2.00399995 1 11 14425 18.71200000 3185689906 3185689906 -6.14800000
11.27491474 -18.37018967 -2.01205325 2 12 14426 21.64800000 3185689909 3185689909 -5.33300000
40.32297897 -53.23923874 1.55407083 42 13 14426 66.80400000 3185689909 3185689909 1.33300000
19.89761353 -26.28074837 -2.30503297 13 15 14427 33.04400000 3185689911 3185689911 -4.00000000
12.70894814 -18.61665916 -1.84013891 3 16 14428 22.61600000 3185689913 3185689913 -4.66700000
40.91910934 -48.90400696 1.85574329 28 17 14428 63.79200000 3185689913 3185689913 1.66700000
13.07173634 -19.14808846 0.40468639 55 18 14428 23.18800000 3185689916 3185689916 1.00000000
20.02669907 -23.93468094 -2.00008011 15 19 14428 31.27200000 3185689916 3185689916 -3.66700000
11.24295616 -18.33965111 -1.25277960 22 20 14429 21.54800000 3185689918 3185689918 -3.33300000
41.60390472 -54.99026871 4.01577854 28 21 14429 69.07200000 3185689918 3185689918 3.33300000
12.87828445 -18.87885857 0.93105692 33 22 14430 22.87200000 3185689920 3185689920 2.33300000
20.17111778 -26.67099953 -1.55767584 10 23 14430 33.47600000 3185689920 3185689920 -2.66700000
12.48318577 -18.30652809 -1.16123021 67 24 14431 22.18800000 3185689922 3185689922 -3.00000000
38.31345367 -45.85489273 -2.43445826 28 27 14432 59.80400000 3185689925 3185689925 -2.33300000
11.21102047 -18.31624413 -0.74992037 19 28 14433 21.48800000 3185689927 3185689927 -2.00000000
38.28690338 -50.69788742 -1.47832608 44 31 14434 63.54800000 3185689929 3185689929 -1.33300000
3.53945398 -5.20814848 -2.93635178 21 0 14440 6.94800000 3185689950 3185689950 -25.00000000
38.54153442 -46.25898743 -1.05098391 56 1 14440 60.22000000 3185689950 3185689950 -1.00000000
6.30156708 -8.36549950 -2.93190169 6 3 14441 10.87600000 3185689952 3185689952 -15.63900000
8.26767921 -12.17466068 -2.94332838 3 4 14442 15.00800000 3185689955 3185689955 -11.31000000
38.19273758 -50.72029877 0.00000000 44 5 14442 63.49200000 3185689955 3185689955 0.00000000
11.23827839 -18.42571640 -0.25126114 32 6 14442 21.58400000 3185689957 3185689957 -0.66700000
10.68705845 -14.19251060 -2.76401949 2 7 14442 17.98000000 3185689957 3185689957 -8.84300000
11.29464340 -16.63829613 -2.55970955 5 8 14443 20.27200000 3185689959 3185689959 -7.25400000
38.77072906 -46.58364868 0.35224846 84 9 14443 60.60800000 3185689959 3185689959 0.33300000
12.44275856 -18.33648682 -0.12879200 49 10 14444 22.16000000 3185689962 3185689962 -0.33300000
11.26492882 -14.97079945 -2.01813674 4 11 14444 18.84400000 3185689962 3185689962 -6.14800000
11.36312294 -18.65236664 -2.03882098 7 12 14445 21.93600000 3185689964 3185689964 -5.33300000
40.31687927 -53.59956360 1.56067753 42 13 14445 67.08800000 3185689964 3185689964 1.33300000
11.18588638 -18.36865044 0.25037640 24 14 14446 21.50800000 3185689966 3185689966 0.66700000
19.90627670 -26.47415733 -2.31619406 13 15 14446 33.20400000 3185689966 3185689966 -4.00000000
12.94464397 -19.09761238 -1.88342488 6 16 14447 23.14800000 3185689969 3185689969 -4.66700000
40.76949310 -49.05480576 1.85632515 84 17 14447 63.81200000 3185689969 3185689969 1.66700000
13.01489925 -19.20126152 0.40489584 55 18 14447 23.20000000 3185689971 3185689971 1.00000000
20.02886581 -24.09919930 -2.00826669 10 19 14447 31.40000000 3185689971 3185689971 -3.66700000
11.24642563 -18.48258400 -1.25998890 27 20 14448 21.67200000 3185689973 3185689973 -3.33300000
107.14180756 -142.59579468 10.38735008 42 21 14448 178.66400000 3185689973 3185689973 3.33300000
12.79767895 -18.89498901 0.92975426 9 22 14449 22.84000000 3185689975 3185689975 2.33300000
13.61794090 -18.13080215 -1.05625653 3 23 14449 22.70000000 3185689975 3185689975 -2.66700000
12.40449429 -18.32136154 -1.15955544 60 24 14450 22.15600000 3185689978 3185689978 -3.00000000
44.43838501 -65.65990448 6.47238111 28 26 14451 79.54800000 3185689980 3185689980 4.66700000
38.29645920 -46.14469528 -2.44308805 57 27 14451 60.01600000 3185689980 3185689980 -2.33300000
11.22701836 -18.47972870 -0.75508553 32 28 14452 21.63600000 3185689982 3185689982 -2.00000000
38.16416168 -50.88535690 -1.48009408 15 31 14453 63.62400000 3185689985 3185689985 -1.33300000
3.42711401 -5.08281898 -2.85858989 22 0 14461 6.76400000 3185690005 3185690005 -25.00000000
38.74894714 -46.85607910 -1.06131577 28 1 14461 60.81200000 3185690005 3185690005 -1.00000000
12.33983517 -18.30834007 -0.64255172 73 2 14462 22.08800000 3185690008 3185690008 -1.66700000
6.27316999 -8.39162445 -2.93297982 6 3 14462 10.88000000 3185690008 3185690008 -15.63900000
8.22519302 -12.20813370 -2.94411278 3 4 14463 15.01200000 3185690010 3185690010 -11.31000000
38.12869644 -51.02335739 0.00000000 22 5 14463 63.69600000 3185690010 3185690010 0.00000000
11.23691559 -18.57629585 -0.25275120 30 6 14463 21.71200000 3185690012 3185690012 -0.66700000
10.64443302 -14.24425030 -2.76647925 3 7 14463 17.99600000 3185690012 3185690012 -8.84300000
11.25796795 -16.71578407 -2.56526518 3 8 14464 20.31600000 3185690015 3185690015 -7.25400000
38.81881332 -46.99064255 0.35424775 84 9 14464 60.95200000 3185690015 3185690015 0.33300000
12.34866238 -18.34215164 -0.12851304 45 10 14465 22.11200000 3185690017 3185690017 -0.33300000
11.51218319 -15.41668320 -2.07254219 4 11 14465 19.35200000 3185690017 3185690017 -6.14800000
11.31527805 -18.72797585 -2.04253888 7 12 14466 21.97600000 3185690019 3185690019 -5.33300000
40.09384537 -53.71172333 1.55965400 42 13 14466 67.04400000 3185690019 3185690019 1.33300000
11.23014736 -18.59440804 0.25289088 8 14 14467 21.72400000 3185690021 3185690021 0.66700000
19.89740562 -26.66526794 -2.32651782 13 15 14467 33.35200000 3185690021 3185690021 -4.00000000
12.87678528 -19.14823723 -1.88375032 6 16 14468 23.15200000 3185690024 3185690024 -4.66700000
40.37570190 -48.94482040 1.84655070 84 17 14468 63.47600000 3185690024 3185690024 1.66700000
12.93997192 -19.24219704 0.40475622 55 18 14468 23.19200000 3185690026 3185690026 1.00000000
20.01660919 -24.26482582 -2.01594162 10 19 14468 31.52000000 3185690026 3185690026 -3.66700000
11.23431587 -18.61599159 -1.26626790 27 20 14469 21.78000000 3185690028 3185690028 -3.33300000
106.49909973 -142.82746887 10.37572193 42 21 14469 178.46400000 3185690028 3185690028 3.33300000
12.71273518 -18.91854668 0.92861450 21 22 14470 22.81200000 3185690031 3185690031 2.33300000
13.58005142 -18.21903610 -1.05849004 1 23 14470 22.74800000 3185690031 3185690031 -2.66700000
12.30607700 -18.32028008 -1.15662467 52 24 14471 22.10000000 3185690033 3185690033 -3.00000000
38.25921249 -46.44515991 -2.45155525 57 27 14472 60.22400000 3185690035 3185690035 -2.33300000
11.21697712 -18.61662865 -0.75899428 12 28 14473 21.74800000 3185690038 3185690038 -2.00000000
13.64283085 -18.32995415 -0.53170234 2 31 14474 22.85600000 3185690040 3185690040 -1.33300000
3.45057392 -5.15440607 -2.89239931 20 0 14480 6.84400000 3185690061 3185690061 -25.00000000
38.73551178 -47.15738297 -1.06522512 28 1 14480 61.03600000 3185690061 3185690061 -1.00000000
6.24989986 -8.41856670 -2.93513656 7 3 14481 10.88800000 3185690063 3185690063 -15.63900000
8.18902588 -12.24186325 -2.94568181 3 4 14482 15.02000000 3185690065 3185690065 -11.31000000
13.50887203 -18.20298386 0.00000000 2 5 14482 22.66800000 3185690065 3185690065 0.00000000
10.61598206 -14.30486107 -2.77139854 3 7 14482 18.02800000 3185690068 3185690068 -8.84300000
11.25099850 -16.82559204 -2.57637691 3 8 14483 20.40400000 3185690070 3185690070 -7.25400000
38.64501190 -47.09746552 0.35408503 56 9 14483 60.92400000 3185690070 3185690070 0.33300000
12.24775887 -18.32314301 -0.12809458 45 10 14484 22.04000000 3185690072 3185690072 -0.33300000
11.41835499 -15.39727402 -2.06483102 4 11 14484 19.28000000 3185690072 3185690072 -6.14800000
11.27768993 -18.80638313 -2.04700017 7 12 14485 22.02400000 3185690074 3185690074 -5.33300000
13.48854160 -18.19548798 0.52704972 2 13 14485 22.65600000 3185690074 3185690074 1.33300000
13.29223251 -17.93721771 -1.56114984 2 15 14486 22.38000000 3185690077 3185690077 -4.00000000
12.28634357 -18.40171432 -1.80629134 2 16 14487 22.20000000 3185690079 3185690079 -4.66700000
40.04338837 -48.87123108 1.83875453 28 17 14487 63.20800000 3185690079 3185690079 1.66700000
12.87164974 -19.27834892 0.40461659 52 18 14487 23.18400000 3185690081 3185690081 1.00000000
20.01699257 -24.42987633 -2.02412820 10 19 14487 31.64800000 3185690081 3185690081 -3.66700000
11.23407745 -18.75591469 -1.27324450 23 20 14488 21.90000000 3185690084 3185690084 -3.33300000
105.86090851 -142.95841980 10.35967541 42 21 14488 178.18800000 3185690084 3185690084 3.33300000
12.62109375 -18.91737747 0.92649770 30 22 14489 22.76000000 3185690086 3185690086 2.33300000
12.20757961 -18.30449295 -1.15306580 71 24 14490 22.03200000 3185690088 3185690088 -3.00000000
42.57243729 -63.85881805 6.26538992 28 26 14491 77.00400000 3185690091 3185690091 4.66700000
38.22646713 -46.72024918 -2.45937109 57 27 14491 60.41600000 3185690091 3185690091 -2.33300000
3.47067809 -5.22379017 -2.92451835 19 0 14500 6.92000000 3185690116 3185690116 -25.00000000
38.68188477 -47.42867661 -1.06829667 28 1 14500 61.21200000 3185690116 3185690116 -1.00000000
6.22504616 -8.44653320 -2.93729305 6 3 14501 10.89600000 3185690118 3185690118 -15.63900000
8.14841366 -12.27364159 -2.94646621 3 4 14502 15.02400000 3185690121 3185690121 -11.31000000
11.17038918 -18.76082802 -0.25419471 3 6 14503 21.83600000 3185690123 3185690123 -0.66700000
10.57988739 -14.36595249 -2.77570295 3 7 14503 18.05600000 3185690123 3185690123 -8.84300000
12.37263298 -18.64348030 -2.84810615 2 8 14503 22.55600000 3185690125 3185690125 -7.25400000
38.66228104 -47.45535278 0.35575888 56 9 14503 61.21200000 3185690125 3185690125 0.33300000
12.15719032 -18.32578659 -0.12781560 42 10 14504 21.99200000 3185690127 3185690127 -0.33300000
11.31974125 -15.37618637 -2.05669165 4 11 14504 19.20400000 3185690127 3185690127 -6.14800000
11.27713680 -18.95516396 -2.05889702 7 12 14505 22.15200000 3185690130 3185690130 -5.33300000
38.11233521 -64.08652496 0.86805230 28 14 14506 74.56800000 3185690132 3185690132 0.66700000
12.20661926 -18.42122650 -1.80401313 8 16 14507 22.17200000 3185690134 3185690134 -4.66700000
40.13245010 -49.33016968 1.85073972 56 17 14507 63.62000000 3185690134 3185690134 1.66700000
12.78986168 -19.30872536 0.40426755 52 18 14508 23.16400000 3185690137 3185690137 1.00000000
20.00539398 -24.59908295 -2.03205895 10 19 14508 31.77200000 3185690137 3185690137 -3.66700000
11.24197578 -18.91859818 -1.28161657 13 20 14508 22.04400000 3185690139 3185690139 -3.33300000
12.53071117 -18.92466164 0.92470658 24 22 14509 22.71600000 3185690141 3185690141 2.33300000
13.52197456 -18.40120506 -1.06370151 35 23 14509 22.86000000 3185690141 3185690141 -2.66700000
12.12817764 -18.32367706 -1.15160036 37 24 14510 22.00400000 3185690144 3185690144 -3.00000000
42.28107452 -63.90396118 6.25530052 28 26 14511 76.88000000 3185690146 3185690146 4.66700000
38.19167328 -47.01160431 -2.46767545 28 27 14511 60.62000000 3185690146 3185690146 -2.33300000
13.50439835 -18.39746666 -0.53105098 68 31 14512 22.82800000 3185690151 3185690151 -1.33300000
3.43754292 -5.21528816 -2.91268516 21 0 14521 6.89200000 3185690171 3185690171 -25.00000000
38.64870834 -47.74421310 -1.07220602 56 1 14521 61.43600000 3185690171 3185690171 -1.00000000
12.10124111 -18.36644363 -0.64010811 2 2 14522 22.00400000 3185690174 3185690174 -1.66700000
6.20086813 -8.47861958 -2.94052815 6 3 14522 10.90800000 3185690174 3185690174 -15.63900000
8.11631870 -12.32307816 -2.95117307 3 4 14523 15.04800000 3185690176 3185690176 -11.31000000
13.43020535 -18.37022400 0.00000000 60 5 14523 22.75600000 3185690176 3185690176 0.00000000
11.22560310 -19.01173782 -0.25703511 3 6 14524 22.08000000 3185690178 3185690178 -0.66700000
10.54348755 -14.42697048 -2.78000712 3 7 14524 18.08400000 3185690178 3185690178 -8.84300000
12.36313152 -18.77818680 -2.86174297 2 8 14524 22.66400000 3185690180 3185690180 -7.25400000
38.66414642 -47.81445694 0.35738620 56 9 14524 61.49200000 3185690180 3185690180 0.33300000
12.06795216 -18.33680916 -0.12758313 47 10 14525 21.95200000 3185690183 3185690183 -0.33300000
11.25861645 -15.41114902 -2.05583501 4 11 14525 19.19600000 3185690183 3185690183 -6.14800000
11.22175407 -19.02038002 -2.06149936 2 12 14526 22.18000000 3185690185 3185690185 -5.33300000
13.38629436 -18.33029747 0.52816635 63 13 14526 22.70400000 3185690185 3185690185 1.33300000
38.03567123 -64.49451447 0.87168431 28 14 14527 74.88000000 3185690187 3185690187 0.66700000
11.99448204 -18.24596977 -1.78253293 8 16 14528 21.90800000 3185690190 3185690190 -4.66700000
40.06440735 -49.61691666 1.85597610 56 17 14528 63.80000000 3185690190 3185690190 1.66700000
12.71579361 -19.34322739 0.40405813 49 18 14528 23.15200000 3185690192 3185690192 1.00000000
20.00968742 -24.78057098 -2.04126883 10 19 14528 31.91600000 3185690192 3185690192 -3.66700000
11.24351597 -19.08008766 -1.28975606 16 20 14529 22.18400000 3185690194 3185690194 -3.33300000
45.20573044 -61.96981049 4.46716976 38 21 14529 76.83600000 3185690194 3185690194 3.33300000
12.45907021 -18.96712303 0.92454374 6 22 14530 22.71200000 3185690197 3185690197 2.33300000
13.37204170 -18.33764648 -1.05718708 24 23 14530 22.72000000 3185690197 3185690197 -2.66700000
12.04120350 -18.33795547 -1.14971626 7 24 14531 21.96800000 3185690199 3185690199 -3.00000000
42.56285477 -64.84506989 6.33210897 28 26 14532 77.82400000 3185690201 3185690201 4.66700000
38.27248764 -47.46550751 -2.48412108 28 27 14532 61.02400000 3185690201 3185690201 -2.33300000
13.39449787 -18.38865852 -0.52937603 34 31 14533 22.75600000 3185690206 3185690206 -1.33300000
3.42114162 -5.22606134 -2.91268516 28 0 14539 6.89200000 3185690227 3185690227 -25.00000000
38.72912979 -48.15210724 -1.07862854 56 1 14539 61.80400000 3185690227 3185690227 -1.00000000
12.12886524 -18.53484917 -0.64464623 2 2 14540 22.16000000 3185690229 3185690229 -1.66700000
6.18552160 -8.51364040 -2.94591951 6 3 14540 10.92800000 3185690229 3185690229 -15.63900000
8.07541752 -12.34523296 -2.95038843 3 4 14541 15.04400000 3185690232 3185690232 -11.31000000
13.35127258 -18.38319588 0.00000000 36 5 14541 22.72000000 3185690232 3185690232 0.00000000
11.36339092 -19.37617683 -0.26150531 3 6 14541 22.46400000 3185690234 3185690234 -0.66700000
10.51689339 -14.48057652 -2.78431153 3 7 14541 18.11200000 3185690234 3185690234 -8.84300000
12.32145023 -18.84350204 -2.86578369 2 8 14542 22.69600000 3185690236 3185690236 -7.25400000
38.63399506 -48.08536148 0.35850209 56 9 14542 61.68400000 3185690236 3185690236 0.33300000
11.98183537 -18.33110428 -0.12728091 51 10 14543 21.90000000 3185690239 3185690239 -0.33300000
11.22416115 -15.46575451 -2.05840516 3 11 14543 19.22000000 3185690239 3185690239 -6.14800000
11.18610001 -19.09677887 -2.06596065 2 12 14544 22.22800000 3185690241 3185690241 -5.33300000
13.32864189 -18.37226105 0.52816635 46 13 14544 22.70400000 3185690241 3185690241 1.33300000
38.03698730 -64.96229553 0.87638730 28 14 14545 75.28400000 3185690243 3185690243 0.66700000
13.19584179 -18.19588852 -1.57175291 8 15 14545 22.53200000 3185690243 3185690243 -4.00000000
11.93492222 -18.28022385 -1.78220737 2 16 14546 21.90400000 3185690245 3185690245 -4.66700000
40.81659317 -50.87461090 1.89821553 28 17 14546 65.25200000 3185690245 3185690245 1.66700000
12.62872505 -19.34289360 0.40322039 49 18 14546 23.10400000 3185690248 3185690248 1.00000000
20.01667023 -24.94917297 -2.04996705 10 19 14546 32.05200000 3185690248 3185690248 -3.66700000
11.25813007 -19.24284363 -1.29836059 21 20 14547 22.33200000 3185690250 3185690250 -3.33300000
43.86264801 -60.52712631 4.35321712 35 21 14547 74.87600000 3185690250 3185690250 3.33300000
12.34264469 -18.91913986 0.92031020 25 22 14548 22.60800000 3185690252 3185690252 2.33300000
13.28154945 -18.33426285 -1.05458140 21 23 14548 22.66400000 3185690252 3185690252 -2.66700000
11.94425774 -18.31546593 -1.14594805 26 24 14549 21.89600000 3185690255 3185690255 -3.00000000
42.37634277 -65.00518036 6.33471251 28 26 14550 77.85600000 3185690257 3185690257 4.66700000
38.25062561 -47.74458694 -2.49242544 57 27 14550 61.22800000 3185690257 3185690257 -2.33300000
11.32745361 -19.39238358 -0.78426147 2 28 14551 22.47200000 3185690259 3185690259 -2.00000000
13.27805424 -18.34965515 -0.52704972 14 31 14551 22.65600000 3185690262 3185690262 -1.33300000
3.37917876 -5.20149136 -2.89239931 26 0 14559 6.84400000 3185690282 3185690282 -25.00000000
38.57828140 -48.30887985 -1.07911718 56 1 14559 61.83200000 3185690282 3185690282 -1.00000000
11.98134327 -18.44964981 -0.64022446 2 2 14560 22.00800000 3185690285 3185690285 -1.66700000
6.15801907 -8.53830338 -2.94699788 6 3 14560 10.93200000 3185690285 3185690285 -15.63900000
8.04081821 -12.38650608 -2.95352650 3 4 14561 15.06000000 3185690287 3185690287 -11.31000000
13.21450520 -18.32910538 0.00000000 12 5 14561 22.59600000 3185690287 3185690287 0.00000000
10.46859455 -14.52040482 -2.78492641 3 7 14561 18.11600000 3185690289 3185690289 -8.84300000
12.29879761 -18.95296860 -2.87588501 2 8 14562 22.77600000 3185690292 3185690292 -7.25400000
38.49584198 -48.25744629 0.35878107 56 9 14562 61.73200000 3185690292 3185690292 0.33300000
11.89165401 -18.33254814 -0.12700194 42 10 14563 21.85200000 3185690294 3185690294 -0.33300000
11.22822380 -15.58551121 -2.06911492 3 11 14563 19.32000000 3185690294 3185690294 -6.14800000
11.19941044 -19.27345085 -2.08083177 2 12 14564 22.38800000 3185690296 3185690296 -5.33300000
13.32051563 -18.49655533 0.53039962 40 13 14564 22.80000000 3185690296 3185690296 1.33300000
37.92249680 -65.28836060 0.87899488 28 14 14565 75.50800000 3185690298 3185690298 0.66700000
13.24647999 -18.40052032 -1.58542514 6 15 14565 22.72800000 3185690298 3185690298 -4.00000000
12.35446548 -19.06789398 -1.85478449 3 16 14566 22.79600000 3185690301 3185690301 -4.66700000
40.70352936 -51.09808731 1.90124094 28 17 14566 65.35600000 3185690301 3185690301 1.66700000
12.53068256 -19.33986855 0.40224308 49 18 14566 23.04800000 3185690303 3185690303 1.00000000
20.01402283 -25.12504959 -2.05866528 10 19 14566 32.18800000 3185690303 3185690303 -3.66700000
11.26104736 -19.40290260 -1.30650008 21 20 14567 22.47200000 3185690305 3185690305 -3.33300000
43.53916931 -60.52426910 4.34205484 71 21 14567 74.68400000 3185690305 3185690305 3.33300000
12.26132488 -18.93862343 0.91917038 20 22 14568 22.58000000 3185690308 3185690308 2.33300000
13.19180870 -18.34482956 -1.05253398 40 23 14568 22.62000000 3185690308 3185690308 -2.66700000
11.82816505 -18.27656364 -1.14092386 7 24 14569 21.80000000 3185690310 3185690310 -3.00000000
38.17827606 -47.99667358 -2.49861288 28 27 14570 61.38000000 3185690312 3185690312 -2.33300000
11.30979824 -19.51827621 -0.78775144 7 28 14571 22.57200000 3185690315 3185690315 -2.00000000
13.18825912 -18.36016464 -0.52602613 4 31 14571 22.61200000 3185690317 3185690317 -1.33300000
3.37292457 -5.23576117 -2.90423274 17 0 14581 6.87200000 3185690338 3185690338 -25.00000000
38.30805969 -48.35007477 -1.07674372 56 1 14581 61.69600000 3185690338 3185690338 -1.00000000
11.91041374 -18.49551964 -0.64022446 2 2 14582 22.00800000 3185690340 3185690340 -1.66700000
6.13191223 -8.57128429 -2.95023274 6 3 14582 10.94400000 3185690340 3185690340 -15.63900000
8.04839706 -12.50303936 -2.97392249 3 4 14583 15.16400000 3185690342 3185690342 -11.31000000
10.42885685 -14.58299923 -2.78923082 3 7 14583 18.14400000 3185690345 3185690345 -8.84300000
12.23452187 -19.01340103 -2.87790537 2 8 14584 22.79200000 3185690347 3185690347 -7.25400000
38.40459442 -48.52408981 0.35966447 56 9 14584 61.88400000 3185690347 3185690347 0.33300000
11.44808292 -16.02003098 -2.12094998 1 11 14585 19.80400000 3185690349 3185690349 -6.14800000
11.20681953 -19.45780945 -2.09607458 2 12 14586 22.55200000 3185690351 3185690351 -5.33300000
13.34702301 -18.68423080 0.53430778 44 13 14586 22.96800000 3185690351 3185690351 1.33300000
38.15247345 -66.26886749 0.89021689 28 14 14587 76.47200000 3185690354 3185690354 0.66700000
13.10152626 -18.34733391 -1.57649636 44 15 14587 22.60000000 3185690354 3185690354 -4.00000000
12.28977871 -19.12860680 -1.85608637 3 16 14588 22.81200000 3185690356 3185690356 -4.66700000
40.97311020 -51.84374237 1.92311704 56 17 14588 66.10800000 3185690356 3185690356 1.66700000
12.42052841 -19.33953667 0.40119591 47 18 14589 22.98800000 3185690358 3185690358 1.00000000
19.98723984 -25.29915619 -2.06634021 11 19 14589 32.30800000 3185690358 3185690358 -3.66700000
11.27208328 -19.59483910 -1.31649995 21 20 14589 22.64400000 3185690361 3185690361 -3.33300000
43.29717636 -60.67799759 4.34112453 35 21 14589 74.66800000 3185690361 3185690361 3.33300000
12.14749050 -18.92166138 0.91607666 20 22 14590 22.50400000 3185690363 3185690363 2.33300000
13.08414841 -18.34329987 -1.04955602 56 23 14590 22.55600000 3185690363 3185690363 -2.66700000
42.86952972 -66.82746124 6.48149395 28 26 14592 79.66000000 3185690368 3185690368 4.66700000
38.35519409 -48.60096741 -2.52238584 57 27 14592 61.96400000 3185690368 3185690368 -2.33300000
11.25866127 -19.60315704 -0.78942662 7 28 14593 22.62000000 3185690370 3185690370 -2.00000000
3.35658050 -5.25055742 -2.90592313 17 0 14601 6.87600000 3185690393 3185690393 -25.00000000
38.38879395 -48.80097961 -1.08379447 28 1 14601 62.10000000 3185690393 3185690393 -1.00000000
11.79195404 -18.45275307 -0.63731539 2 2 14602 21.90800000 3185690395 3185690395 -1.66700000
6.10641623 -8.59891796 -2.95238948 5 3 14602 10.95200000 3185690395 3185690395 -15.63900000
7.95825100 -12.45833683 -2.95666432 5 4 14603 15.07600000 3185690397 3185690397 -11.31000000
13.03579903 -18.36350632 0.00000000 28 5 14603 22.52000000 3185690397 3185690397 0.00000000
36.91933823 -64.56928253 -0.86591035 29 6 14604 74.38400000 3185690400 3185690400 -0.66700000
10.39363670 -14.64691162 -2.79415011 3 7 14604 18.17600000 3185690400 3185690400 -8.84300000
12.17875576 -19.07271194 -2.88043070 2 8 14604 22.81200000 3185690402 3185690402 -7.25400000
38.36349106 -48.82139587 0.36087334 56 9 14604 62.09200000 3185690402 3185690402 0.33300000
11.41050053 -16.08584404 -2.12437701 1 11 14605 19.83600000 3185690404 3185690404 -6.14800000
11.23366356 -19.66279984 -2.11391997 2 12 14606 22.74400000 3185690407 3185690407 -5.33300000
13.30485249 -18.76332855 0.53523833 42 13 14606 23.00800000 3185690407 3185690407 1.33300000
38.02406311 -66.58225250 0.89263827 28 14 14607 76.68000000 3185690409 3185690409 0.66700000
13.00740433 -18.35063553 -1.57286894 36 15 14607 22.54800000 3185690409 3185690409 -4.00000000
12.32366562 -19.32938766 -1.87138283 3 16 14608 23.00000000 3185690411 3185690411 -4.66700000
40.98194504 -52.22865295 1.93207693 56 17 14608 66.41600000 3185690411 3185690411 1.66700000
12.33697796 -19.35026741 0.40056762 47 18 14608 22.95200000 3185690414 3185690414 1.00000000
19.98948288 -25.47521210 -2.07529426 11 19 14608 32.44800000 3185690414 3185690414 -3.66700000
11.25903034 -19.73117828 -1.32301152 14 20 14609 22.75600000 3185690416 3185690416 -3.33300000
42.99509048 -60.70167542 4.33205462 35 21 14609 74.51200000 3185690416 3185690416 3.33300000
12.04915714 -18.91338730 0.91363418 17 22 14610 22.44400000 3185690418 3185690418 2.33300000
12.98771381 -18.34320641 -1.04695034 40 23 14610 22.50000000 3185690418 3185690418 -2.66700000
11.66812611 -18.32234573 -1.13841176 61 24 14611 21.75200000 3185690421 3185690421 -3.00000000
42.63599777 -66.97669220 6.48149395 28 26 14612 79.66000000 3185690423 3185690423 4.66700000
38.32828140 -48.91702271 -2.53183007 57 27 14612 62.19600000 3185690423 3185690423 -2.33300000
13.18399143 -18.64801025 -0.53142315 2 31 14614 22.84400000 3185690427 3185690427 -1.33300000
3.35570979 -5.28979301 -2.92113733 13 0 14621 6.91200000 3185690448 3185690448 -25.00000000
38.39053345 -49.15532684 -1.08868110 28 1 14621 62.38000000 3185690448 3185690448 -1.00000000
6.07858229 -8.62332916 -2.95346761 6 3 14622 10.95600000 3185690450 3185690450 -15.63900000
7.89791489 -12.45953751 -2.95038843 3 4 14623 15.04400000 3185690453 3185690453 -11.31000000
12.93936253 -18.36312103 0.00000000 48 5 14623 22.46400000 3185690453 3185690453 0.00000000
36.80224991 -64.88911438 -0.86847138 29 6 14624 74.60400000 3185690455 3185690455 -0.66700000
10.36293030 -14.71218491 -2.79968429 3 7 14624 18.21200000 3185690455 3185690455 -8.84300000
12.12909603 -19.14192200 -2.88447142 2 8 14624 22.84400000 3185690457 3185690457 -7.25400000
38.46594238 -49.30507278 0.36345384 56 9 14624 62.53600000 3185690457 3185690457 0.33300000
11.55346298 -18.24050903 -0.12549084 2 10 14625 21.59200000 3185690460 3185690460 -0.33300000
11.34512234 -16.11256981 -2.12266350 1 11 14625 19.82000000 3185690460 3185690460 -6.14800000
11.27295589 -19.89246750 -2.13436770 2 12 14626 22.96400000 3185690462 3185690462 -5.33300000
13.27149868 -18.85543823 0.53654104 47 13 14626 23.06400000 3185690462 3185690462 1.33300000
37.69678879 -66.54752350 0.89040315 28 14 14627 76.48800000 3185690464 3185690464 0.66700000
12.89964294 -18.33392334 -1.56756747 31 15 14627 22.47200000 3185690464 3185690464 -4.00000000
41.06230164 -52.70888519 1.94452763 84 17 14628 66.84400000 3185690467 3185690467 1.66700000
12.25225163 -19.36617470 0.40000916 15 18 14628 22.92000000 3185690469 3185690469 1.00000000
19.98875046 -25.65819931 -2.08450413 11 19 14628 32.59200000 3185690469 3185690469 -3.66700000
11.29630375 -19.95801926 -1.33556962 10 20 14629 22.97200000 3185690471 3185690471 -3.33300000
43.34333420 -61.64845276 4.38879824 36 21 14629 75.48800000 3185690471 3185690471 3.33300000
11.95316410 -18.90803719 0.91135460 17 22 14630 22.38800000 3185690474 3185690474 2.33300000
11.55075073 -18.27854347 -1.13317811 36 24 14631 21.65200000 3185690476 3185690476 -3.00000000
42.38278580 -67.09477997 6.47856474 28 26 14632 79.62400000 3185690478 3185690478 4.66700000
38.29471970 -49.22717285 -2.54094839 28 27 14632 62.42000000 3185690478 3185690478 -2.33300000
10.90126514 -19.29148102 -0.77379161 2 28 14633 22.17200000 3185690480 3185690480 -2.00000000
13.12207985 -18.69162750 -0.53142315 2 31 14633 22.84400000 3185690483 3185690483 -1.33300000
3.33134556 -5.28804016 -2.91437554 17 0 14639 6.89600000 3185690503 3185690503 -25.00000000
38.27269745 -49.32308578 -1.08972824 56 1 14639 62.44000000 3185690503 3185690503 -1.00000000
11.50312519 -18.26665306 -0.62823915 20 2 14640 21.59600000 3185690506 3185690506 -1.66700000
6.05588007 -8.64869308 -2.95562434 6 3 14640 10.96400000 3185690506 3185690506 -15.63900000
7.85873318 -12.48428822 -2.95038843 3 4 14641 15.04400000 3185690508 3185690508 -11.31000000
12.82656002 -18.32503128 0.00000000 107 5 14641 22.36800000 3185690508 3185690508 0.00000000
36.79995728 -65.33605957 -0.87298810 29 6 14641 74.99200000 3185690510 3185690510 -0.66700000
10.33283138 -14.76229572 -2.80337381 3 7 14641 18.23600000 3185690510 3185690510 -8.84300000
12.13863850 -19.29076004 -2.90113878 2 8 14642 22.97600000 3185690513 3185690513 -7.25400000
38.43583298 -49.58690643 0.36463946 56 9 14642 62.74000000 3185690513 3185690513 0.33300000
11.27621269 -16.12206078 -2.11923647 4 11 14643 19.78800000 3185690515 3185690515 -6.14800000
11.22017002 -19.94513893 -2.13622642 2 12 14644 22.98400000 3185690517 3185690517 -5.33300000
37.95216370 -67.49188995 0.90143889 28 14 14645 77.43600000 3185690520 3185690520 0.66700000
12.80997944 -18.32856941 -1.56366110 34 15 14645 22.41600000 3185690520 3185690520 -4.00000000
11.50590420 -18.31356812 -1.76560903 16 16 14646 21.70000000 3185690522 3185690522 -4.66700000
40.76435852 -52.66688538 1.93824410 84 17 14646 66.62800000 3185690522 3185690522 1.66700000
11.47220993 -18.25993729 0.37641349 4 18 14646 21.56800000 3185690524 3185690524 1.00000000
19.99600410 -25.83450890 -2.09371400 11 19 14646 32.73600000 3185690524 3185690524 -3.66700000
11.31374550 -20.13614464 -1.34510434 10 20 14647 23.13600000 3185690527 3185690527 -3.33300000
42.45894623 -60.79560852 4.31856632 70 21 14647 74.28000000 3185690527 3185690527 3.33300000
11.85332870 -18.88118172 0.90826082 17 22 14648 22.31200000 3185690529 3185690529 2.33300000
12.80401611 -18.34048080 -1.04192495 42 23 14648 22.39200000 3185690529 3185690529 -2.66700000
11.48902416 -18.30797386 -1.13275945 65 24 14649 21.64400000 3185690531 3185690531 -3.00000000
41.50868607 -66.17051697 6.37669659 28 26 14650 78.37200000 3185690533 3185690533 4.66700000
38.46982956 -49.77414322 -2.56293035 28 27 14650 62.96000000 3185690533 3185690533 -2.33300000
10.91492271 -19.45812035 -0.77909636 2 28 14651 22.32400000 3185690536 3185690536 -2.00000000
12.90680695 -18.51524353 -0.52518862 2 31 14652 22.57600000 3185690538 3185690538 -1.33300000
3.32631803 -5.32115459 -2.92620873 17 0 14659 6.92400000 3185690559 3185690559 -25.00000000
38.33460617 -49.76053238 -1.09642994 28 1 14659 62.82400000 3185690559 3185690559 -1.00000000
11.45836163 -18.33721161 -0.62928641 70 2 14660 21.63200000 3185690561 3185690561 -1.66700000
6.03005028 -8.67610550 -2.95778084 6 3 14660 10.97200000 3185690561 3185690561 -15.63900000
7.85458803 -12.57485104 -2.96529341 3 4 14661 15.12000000 3185690563 3185690563 -11.31000000
12.72828102 -18.32041740 0.00000000 250 5 14661 22.30800000 3185690563 3185690563 0.00000000
36.76673889 -65.81330109 -0.87764454 29 6 14661 75.39200000 3185690566 3185690566 -0.66700000
10.28800392 -14.80801201 -2.80521846 3 7 14661 18.24800000 3185690566 3185690566 -8.84300000
12.07753181 -19.34311104 -2.90265393 2 8 14662 22.98800000 3185690568 3185690568 -7.25400000
38.40887451 -49.91096878 0.36603433 56 9 14662 62.98000000 3185690568 3185690568 0.33300000
11.44705963 -18.34048653 -0.12565358 22 10 14663 21.62000000 3185690570 3185690570 -0.33300000
11.23347473 -16.18092537 -2.12180662 3 11 14663 19.81200000 3185690570 3185690570 -6.14800000
11.23004341 -20.12677765 -2.15146923 5 12 14664 23.14800000 3185690573 3185690573 -5.33300000
13.18491268 -18.99889183 0.53812295 74 13 14664 23.13200000 3185690573 3185690573 1.33300000
37.54294586 -67.31306458 0.89729470 28 14 14665 77.08000000 3185690575 3185690575 0.66700000
12.72090435 -18.33710861 -1.56059182 44 15 14665 22.37200000 3185690575 3185690575 -4.00000000
11.36387062 -18.22844315 -1.75356710 49 16 14666 21.55200000 3185690577 3185690577 -4.66700000
40.73374939 -53.00859070 1.94557488 84 17 14666 66.88000000 3185690577 3185690577 1.66700000
12.05160427 -19.33161545 0.39763564 49 18 14666 22.78400000 3185690580 3185690580 1.00000000
19.98839951 -26.01176834 -2.10241222 11 19 14666 32.87200000 3185690580 3185690580 -3.66700000
11.35807705 -20.38131714 -1.35882521 10 20 14667 23.37200000 3185690582 3185690582 -3.33300000
42.25784683 -60.95985794 4.31972933 70 21 14667 74.30000000 3185690582 3185690582 3.33300000
11.44078636 -18.36609840 0.88155687 41 22 14668 21.65600000 3185690584 3185690584 2.33300000
11.40815544 -18.32084084 -1.13108468 50 24 14669 21.61200000 3185690586 3185690586 -3.00000000
41.08784866 -66.01039124 6.34740543 28 26 14670 78.01200000 3185690589 3185690589 4.66700000
38.44426346 -50.10154343 -2.57286286 28 27 14670 63.20400000 3185690589 3185690589 -2.33300000
12.74425793 -18.41877937 -0.52118737 2 31 14672 22.40400000 3185690593 3185690593 -1.33300000
3.29724097 -5.31790495 -2.91775656 19 0 14680 6.90400000 3185690614 3185690614 -25.00000000
38.39002228 -50.21206665 -1.10327137 56 1 14680 63.21600000 3185690614 3185690614 -1.00000000
6.00258398 -8.70449066 -2.95993757 6 3 14681 10.98000000 3185690616 3185690616 -15.63900000
7.81670904 -12.61689281 -2.96843123 3 4 14682 15.13600000 3185690619 3185690619 -11.31000000
12.63834572 -18.33401299 0.00000000 239 5 14682 22.26800000 3185690619 3185690619 0.00000000
36.91866302 -66.65789795 -0.88709712 29 6 14682 76.20400000 3185690621 3185690621 -0.66700000
10.25160694 -14.87165356 -2.81013775 3 7 14682 18.28000000 3185690621 3185690621 -8.84300000
12.01073265 -19.39399529 -2.90366411 2 8 14683 22.99600000 3185690623 3185690623 -7.25400000
38.57528687 -50.50916672 0.36938199 84 9 14683 63.55600000 3185690623 3185690623 0.33300000
11.35870743 -18.34830856 -0.12542109 6 10 14684 21.58000000 3185690626 3185690626 -0.33300000
11.31847954 -16.43160057 -2.14922357 3 11 14684 20.06800000 3185690626 3185690626 -6.14800000
11.24873447 -20.33508492 -2.16931462 5 12 14685 23.34000000 3185690628 3185690628 -5.33300000
13.13560104 -19.07673264 0.53896046 63 13 14685 23.16800000 3185690628 3185690628 1.33300000
37.29211044 -67.44321442 0.89720154 28 14 14686 77.07200000 3185690630 3185690630 0.66700000
12.61741161 -18.33101845 -1.55612743 44 15 14686 22.30800000 3185690630 3185690630 -4.00000000
11.27601719 -18.23606300 -1.75031257 11 16 14687 21.51200000 3185690633 3185690633 -4.66700000
40.68466568 -53.34828949 1.95255661 28 17 14687 67.12000000 3185690633 3185690633 1.66700000
11.95542908 -19.33483887 0.39679793 28 18 14687 22.73600000 3185690635 3185690635 1.00000000
19.97522926 -26.19277573 -2.11111045 11 19 14687 33.00800000 3185690635 3185690635 -3.66700000
11.41075039 -20.65349579 -1.37417388 7 20 14688 23.63600000 3185690637 3185690637 -3.33300000
42.35547256 -61.58153152 4.35275221 35 21 14688 74.86800000 3185690637 3185690637 3.33300000
11.34398460 -18.36030769 0.87927723 44 22 14689 21.60000000 3185690639 3185690639 2.33300000
12.62038136 -18.35590553 -1.03764403 55 23 14689 22.30000000 3185690639 3185690639 -2.66700000
40.27597427 -65.23782349 6.25888062 28 26 14691 76.92400000 3185690644 3185690644 4.66700000
38.46619415 -50.51238251 -2.58670354 85 27 14691 63.54400000 3185690644 3185690644 -2.33300000
12.77398586 -18.60712814 -0.52518862 2 31 14693 22.57600000 3185690649 3185690649 -1.33300000
3.29668903 -5.35659647 -2.93297076 17 0 14699 6.94000000 3185690669 3185690669 -25.00000000
38.34664917 -50.50154114 -1.10683167 56 1 14699 63.42000000 3185690669 3185690669 -1.00000000
5.96933317 -8.71799183 -2.95778084 12 3 14700 10.97200000 3185690672 3185690672 -15.63900000
7.78715467 -12.66279125 -2.97313809 3 4 14701 15.16000000 3185690674 3185690674 -11.31000000
12.55262566 -18.33951378 0.00000000 227 5 14701 22.22400000 3185690674 3185690674 0.00000000
38.37134552 -69.82608032 -0.92756152 29 6 14701 79.68000000 3185690676 3185690676 -0.66700000
10.21786118 -14.92839909 -2.81444216 3 7 14701 18.30800000 3185690676 3185690676 -8.84300000
11.96297741 -19.46076012 -2.90770459 2 8 14702 23.02800000 3185690679 3185690679 -7.25400000
38.42449951 -50.65911865 0.36954471 84 9 14702 63.58400000 3185690679 3185690679 0.33300000
11.23288155 -18.28022766 -0.12470042 10 10 14703 21.45600000 3185690681 3185690681 -0.33300000
11.21381474 -20.43162918 -2.17563486 5 12 14704 23.40800000 3185690683 3185690683 -5.33300000
13.07903862 -19.13009071 0.53923959 58 13 14704 23.18000000 3185690683 3185690683 1.33300000
37.11634827 -67.65417480 0.89836568 28 14 14705 77.17200000 3185690685 3185690685 0.66700000
12.52728558 -18.32993126 -1.55250013 44 15 14705 22.25600000 3185690685 3185690685 -4.00000000
11.36354828 -18.51459885 -1.77342010 8 16 14706 21.79600000 3185690688 3185690688 -4.66700000
40.58961105 -53.59127808 1.95651293 56 17 14706 67.25600000 3185690688 3185690688 1.66700000
19.97502518 -26.37342834 -2.12032032 11 19 14706 33.15200000 3185690690 3185690690 -3.66700000
11.45160866 -20.89081573 -1.38742959 3 20 14707 23.86400000 3185690692 3185690692 -3.33300000
42.18705750 -61.77441025 4.35647297 35 21 14707 74.93200000 3185690692 3185690692 3.33300000
11.25169563 -18.34671974 0.87683481 7 22 14708 21.54000000 3185690695 3185690695 2.33300000
12.51438522 -18.33165359 -1.03392160 40 23 14708 22.22000000 3185690695 3185690695 -2.66700000
11.20690441 -18.28084373 -1.12375760 25 24 14709 21.47200000 3185690697 3185690697 -3.00000000
40.32396698 -65.80273438 6.30021381 28 26 14710 77.43200000 3185690699 3185690699 4.66700000
38.43107224 -50.81498718 -2.59565902 57 27 14710 63.76400000 3185690699 3185690699 -2.33300000
38.89271927 -71.06845093 -2.82909274 28 28 14711 81.06400000 3185690702 3185690702 -2.00000000
12.72347355 -18.66590881 -0.52565390 2 31 14712 22.59600000 3185690704 3185690704 -1.33300000
3.27230287 -5.35878944 -2.92789936 22 0 14719 6.92800000 3185690725 3185690725 -25.00000000
38.20383835 -50.67979813 -1.10780895 56 1 14719 63.47600000 3185690725 3185690725 -1.00000000
11.23029709 -18.39818001 -0.62730825 30 2 14720 21.56400000 3185690727 3185690727 -1.66700000
5.95185614 -8.75789070 -2.96425056 6 3 14720 10.99600000 3185690727 3185690727 -15.63900000
7.74699163 -12.69659233 -2.97470713 3 4 14721 15.16800000 3185690729 3185690729 -11.31000000
12.49527550 -18.39314461 0.00000000 114 5 14721 22.23600000 3185690729 3185690729 0.00000000
37.31200027 -68.46347809 -0.90772510 29 6 14721 77.97600000 3185690732 3185690732 -0.66700000
10.18123627 -14.98686028 -2.81874657 3 7 14721 18.33600000 3185690732 3185690732 -8.84300000
11.90530491 -19.51933861 -2.91022992 2 8 14722 23.04800000 3185690734 3185690734 -7.25400000
38.30998993 -50.87601471 0.37014917 56 9 14722 63.68800000 3185690734 3185690734 0.33300000
11.25645638 -18.46276665 -0.12567683 40 10 14723 21.62400000 3185690736 3185690736 -0.33300000
11.38506603 -16.77149963 -2.18349457 5 11 14723 20.38800000 3185690736 3185690736 -6.14800000
11.25095654 -20.67003632 -2.19682598 2 12 14724 23.63600000 3185690738 3185690738 -5.33300000
13.00993729 -19.17231941 0.53914654 51 13 14724 23.17600000 3185690738 3185690738 1.33300000
36.79585648 -67.62873077 0.89631683 28 14 14725 76.99600000 3185690741 3185690741 0.66700000
12.43634605 -18.33392143 -1.54915178 42 15 14725 22.20800000 3185690741 3185690741 -4.00000000
11.45022106 -18.80272102 -1.79717851 8 16 14726 22.08800000 3185690743 3185690743 -4.66700000
40.31338882 -53.61439514 1.95220757 56 17 14726 67.10800000 3185690743 3185690743 1.66700000
11.20366192 -18.39784050 0.37599465 18 18 14726 21.54400000 3185690745 3185690745 1.00000000
13.62147522 -18.11574745 -1.45260358 2 19 14726 22.71200000 3185690745 3185690745 -3.66700000
19.88301659 -36.57427979 -2.42439723 9 20 14727 41.70000000 3185690748 3185690748 -3.33300000
42.48872375 -62.68485641 4.41019344 74 21 14727 75.85600000 3185690748 3185690748 3.33300000
12.42566586 -18.33884048 -1.03187418 40 23 14728 22.17600000 3185690750 3185690750 -2.66700000
11.21775436 -18.44271278 -1.13129401 36 24 14729 21.61600000 3185690752 3185690752 -3.00000000
41.77790070 -68.71257782 6.56481123 28 26 14730 80.68400000 3185690755 3185690755 4.66700000
13.79341888 -18.37110901 -0.93594182 2 27 14730 22.99200000 3185690755 3185690755 -2.33300000
38.84653473 -71.57620239 -2.84389019 28 28 14731 81.48800000 3185690757 3185690757 -2.00000000
12.44185066 -18.38344765 -0.51653475 5 31 14731 22.20400000 3185690759 3185690759 -1.33300000
3.22352123 -5.32056999 -2.90085173 17 0 14739 6.86400000 3185690780 3185690780 -25.00000000
13.71875095 -18.33156204 -0.39966011 2 1 14739 22.90000000 3185690780 3185690780 -1.00000000
11.23642826 -18.55354881 -0.63126457 35 2 14740 21.70000000 3185690782 3185690782 -1.66700000
5.92771101 -8.78819275 -2.96748567 6 3 14740 11.00800000 3185690782 3185690782 -15.63900000
7.72090673 -12.75375557 -2.98176718 3 4 14741 15.20400000 3185690785 3185690785 -11.31000000
36.97336578 -68.43789673 -0.90558314 29 6 14742 77.79200000 3185690787 3185690787 -0.66700000
10.13728333 -15.04046345 -2.82182097 3 7 14742 18.35600000 3185690787 3185690787 -8.84300000
11.89667320 -19.65922546 -2.92487717 2 8 14742 23.16400000 3185690789 3185690789 -7.25400000
13.67268848 -18.28996658 0.13272086 4 9 14742 22.83600000 3185690789 3185690789 0.33300000
11.25404930 -18.60462189 -0.12637424 24 10 14743 21.74400000 3185690791 3185690791 -0.33300000
11.29534245 -16.76496315 -2.17749715 8 11 14743 20.33200000 3185690791 3185690791 -6.14800000
11.23927498 -20.82133484 -2.20872283 5 12 14744 23.76400000 3185690794 3185690794 -5.33300000
12.93846607 -19.21098137 0.53896046 51 13 14744 23.16800000 3185690794 3185690794 1.33300000
36.59944916 -67.83068085 0.89729470 28 14 14745 77.08000000 3185690796 3185690796 0.66700000
12.34998798 -18.34412193 -1.54636157 38 15 14745 22.16800000 3185690796 3185690796 -4.00000000
11.46698380 -18.97906685 -1.81019676 25 16 14746 22.24800000 3185690798 3185690798 -4.66700000
39.98009872 -53.55934143 1.94510949 28 17 14746 66.86400000 3185690798 3185690798 1.66700000
11.25400925 -18.63391685 0.37997380 7 18 14747 21.77200000 3185690801 3185690801 1.00000000
19.81965637 -36.76296997 -2.43230414 19 20 14747 41.83600000 3185690803 3185690803 -3.33300000
42.30754471 -62.88911438 4.41414690 37 21 14747 75.92400000 3185690803 3185690803 3.33300000
38.99674988 -64.59465790 3.07405090 57 22 14748 75.51600000 3185690805 3185690805 2.33300000
12.32812977 -18.33236694 -1.02908230 28 23 14748 22.11600000 3185690805 3185690805 -2.66700000
11.21935368 -18.59119797 -1.13799298 43 24 14749 21.74400000 3185690808 3185690808 -3.00000000
13.76025867 -18.46080399 -0.93805856 5 27 14750 23.04400000 3185690810 3185690810 -2.33300000
38.86927032 -72.21826172 -2.86399221 28 28 14751 82.06400000 3185690812 3185690812 -2.00000000
12.33077908 -18.35705566 -0.51458067 73 31 14751 22.12000000 3185690815 3185690815 -1.33300000
3.21893573 -5.35720873 -2.91437554 17 0 14760 6.89600000 3185690835 3185690835 -25.00000000
13.66577721 -18.40098572 -0.40007895 2 1 14760 22.92400000 3185690835 3185690835 -1.00000000
5.90402985 -8.82266521 -2.97179890 6 3 14761 11.02400000 3185690838 3185690838 -15.63900000
7.67612886 -12.78533077 -2.98255181 3 4 14762 15.20800000 3185690840 3185690840 -11.31000000
12.29216957 -18.37569618 0.00000000 22 5 14762 22.10800000 3185690840 3185690840 0.00000000
37.05271912 -69.18999481 -0.91373187 29 6 14763 78.49200000 3185690842 3185690842 -0.66700000
10.09746838 -15.10051632 -2.82612538 3 7 14763 18.38400000 3185690842 3185690842 -8.84300000
11.83270645 -19.71630669 -2.92689753 2 8 14763 23.18000000 3185690844 3185690844 -7.25400000
13.62224293 -18.36244392 0.13288359 2 9 14763 22.86400000 3185690844 3185690844 0.33300000
11.27015114 -18.78637695 -0.12732741 20 10 14764 21.90800000 3185690847 3185690847 -0.33300000
11.23603058 -16.80955505 -2.17792559 5 11 14764 20.33600000 3185690847 3185690847 -6.14800000
11.24180126 -21.00987434 -2.22433734 2 12 14765 23.93200000 3185690849 3185690849 -5.33300000
12.86574650 -19.25494957 0.53886735 51 13 14765 23.16400000 3185690849 3185690849 1.33300000
37.25605774 -69.65731049 0.91964555 28 14 14766 79.00000000 3185690851 3185690851 0.66700000
12.25385857 -18.34612656 -1.54273415 38 15 14766 22.11600000 3185690851 3185690851 -4.00000000
11.46086884 -19.12698174 -1.82028604 28 16 14767 22.37200000 3185690854 3185690854 -4.66700000
13.61816978 -18.38376045 0.66582412 2 17 14767 22.88800000 3185690854 3185690854 1.66700000
13.58416176 -18.33785248 -1.46258104 46 19 14767 22.86800000 3185690856 3185690856 -3.66700000
19.78829575 -37.02906799 -2.44509459 19 20 14768 42.05600000 3185690858 3185690858 -3.33300000
42.73292923 -64.02689362 4.48298359 38 21 14768 77.10800000 3185690858 3185690858 3.33300000
38.79463959 -64.79544830 3.07681918 57 22 14769 75.58400000 3185690861 3185690861 2.33300000
12.23646259 -18.34086609 -1.02703500 58 23 14769 22.07200000 3185690861 3185690861 -2.66700000
11.21267796 -18.73501968 -1.14427340 39 24 14770 21.86400000 3185690863 3185690863 -3.00000000
38.69651794 -72.53306580 -2.87083268 28 28 14772 82.26000000 3185690868 3185690868 -2.00000000
3.26523995 -5.47314644 -2.97185159 17 0 14778 7.03200000 3185690890 3185690890 -25.00000000
5.88481236 -8.85400105 -2.97611189 6 3 14779 11.04000000 3185690892 3185690892 -15.63900000
7.64596701 -12.82622910 -2.98647404 3 4 14780 15.22800000 3185690895 3185690895 -11.31000000
12.20560360 -18.37091064 0.00000000 39 5 14780 22.05600000 3185690895 3185690895 0.00000000
37.43875885 -70.41206360 -0.92839968 29 6 14780 79.75200000 3185690897 3185690897 -0.66700000
10.07230568 -15.16003799 -2.83165956 3 7 14780 18.42000000 3185690897 3185690897 -8.84300000
11.77680111 -19.76360893 -2.92841268 2 8 14781 23.19200000 3185690899 3185690899 -7.25400000
11.27862549 -18.93509483 -0.12809458 21 10 14782 22.04000000 3185690902 3185690902 -0.33300000
11.22056103 -16.90109825 -2.18520808 3 11 14782 20.40400000 3185690902 3185690902 -6.14800000
15.01617718 -28.27702904 -2.98870945 4 12 14783 32.15600000 3185690904 3185690904 -5.33300000
12.80298042 -19.29194260 0.53877431 51 13 14783 23.16000000 3185690904 3185690904 1.33300000
37.13455200 -69.95771790 0.92206693 28 14 14784 79.20800000 3185690906 3185690906 0.66700000
12.17189789 -18.34795570 -1.53966486 42 15 14784 22.07200000 3185690906 3185690906 -4.00000000
