# .PCD v0.7 - Point Cloud Data file format
VERSION 0.7
FIELDS x y z intensity laser_id azimuth distance_m adjustedtime timestamp vertical_angle
SIZE 4 4 4 1 1 2 8 8 4 8
TYPE F F F U U U F U U F
COUNT 1 1 1 1 1 1 1 1 1 1
WIDTH 511
HEIGHT 1
VIEWPOINT 0 0 0 1 0 0 0
POINTS 511
DATA ascii
39.64220047 -8.13016510 0.23519652 25 9 10579 40.46800000 3185879237 3185879237 0.33300000
39.55167770 -12.24328899 -0.24063647 23 10 10580 41.40400000 3185879240 3185879240 -0.33300000
18.13930130 -4.65738106 -2.01728010 3 11 10580 18.83600000 3185879240 3185879240 -6.14800000
20.30177307 -7.39325380 -2.01688623 11 12 10581 21.70000000 3185879242 3185879242 -5.33300000
38.96736526 -10.01236820 0.93620181 18 13 10581 40.24400000 3185879242 3185879242 1.33300000
39.36544800 -14.34341526 0.48776138 30 14 10582 41.90000000 3185879244 3185879244 0.66700000
20.41640854 -5.24963999 -1.47409379 28 15 10582 21.13200000 3185879244 3185879244 -4.00000000
20.37187195 -6.31783819 -1.74119973 33 16 10583 21.40000000 3185879247 3185879247 -4.66700000
39.00947952 -8.02878475 1.15908325 22 17 10583 39.84400000 3185879247 3185879247 1.66700000
39.18083572 -12.15097904 0.71603733 27 18 10583 41.02800000 3185879249 3185879249 1.00000000
20.42900848 -4.20462179 -1.33671260 24 19 10583 20.90000000 3185879249 3185879249 -3.66700000
20.39292717 -7.43854523 -1.26417482 20 20 10584 21.74400000 3185879251 3185879251 -3.33300000
40.11327362 -10.32919407 2.41230416 24 21 10584 41.49200000 3185879251 3185879251 3.33300000
39.29512405 -12.20145988 1.67632580 17 22 10585 41.18000000 3185879254 3185879254 2.33300000
20.47616386 -5.27643633 -0.98497081 23 23 10585 21.16800000 3185879254 3185879254 -2.66700000
20.43882942 -6.35033655 -1.12166417 32 24 10586 21.43200000 3185879256 3185879256 -3.00000000
41.73234558 -12.97421169 3.56766939 19 26 10587 43.84800000 3185879258 3185879258 4.66700000
35.89591980 -7.41408920 -1.49330592 6 27 10587 36.68400000 3185879258 3185879258 -2.33300000
39.27653503 -14.35762691 -1.46033454 16 28 10588 41.84400000 3185879261 3185879261 -2.00000000
97.62020874 -30.36793137 18.64001274 28 30 10588 103.92000000 3185879263 3185879263 10.33300000
39.84563828 -10.28994560 -0.95760393 11 31 10588 41.16400000 3185879263 3185879263 -1.33300000
5.75414276 -1.79882824 -2.81125665 8 0 10596 6.65200000 3185879284 3185879284 -25.00000000
39.62428665 -8.24907875 -0.70647341 25 1 10596 40.48000000 3185879284 3185879284 -1.00000000
39.89979553 -12.48089886 -1.21668255 27 2 10597 41.82400000 3185879286 3185879286 -1.66700000
8.92866421 -2.32075119 -2.58253193 3 3 10597 9.58000000 3185879286 3185879286 -15.63900000
11.75753784 -3.68008232 -2.46401763 3 4 10598 12.56400000 3185879289 3185879289 -11.31000000
39.36998749 -10.24043941 0.00000000 19 5 10598 40.68000000 3185879289 3185879289 0.00000000
39.70066071 -14.59126663 -0.49241781 21 6 10598 42.30000000 3185879291 3185879291 -0.66700000
14.16843987 -3.68532133 -2.27762580 3 7 10598 14.81600000 3185879291 3185879291 -8.84300000
16.51344109 -5.17183352 -2.20262289 3 8 10599 17.44400000 3185879293 3185879293 -7.25400000
39.54309845 -8.25378132 0.23477806 25 9 10599 40.39600000 3185879293 3185879293 0.33300000
39.27205276 -12.30711460 -0.23919512 23 10 10600 41.15600000 3185879296 3185879296 -0.33300000
18.14217758 -4.72568321 -2.01942205 3 11 10600 18.85600000 3185879296 3185879296 -6.14800000
20.29826736 -7.47233057 -2.01911688 11 12 10601 21.72400000 3185879298 3185879298 -5.33300000
38.89348221 -10.13824272 0.93527126 18 13 10601 40.20400000 3185879298 3185879298 1.33300000
39.42773819 -14.52221107 0.48915830 30 14 10602 42.02000000 3185879300 3185879300 0.66700000
20.40954208 -5.32389593 -1.47493088 28 15 10602 21.14400000 3185879300 3185879300 -4.00000000
20.36490822 -6.39368773 -1.74250150 35 16 10603 21.41600000 3185879302 3185879302 -4.66700000
39.19645309 -8.20998669 1.16548312 15 17 10603 40.06400000 3185879302 3185879302 1.66700000
39.16489029 -12.29605770 0.71652597 18 18 10603 41.05600000 3185879305 3185879305 1.00000000
20.42983437 -4.27918005 -1.33773589 24 19 10603 20.91600000 3185879305 3185879305 -3.66700000
20.41179657 -7.52626228 -1.26696551 16 20 10604 21.79200000 3185879307 3185879307 -3.33300000
39.48970795 -10.31574345 2.37695575 17 21 10604 40.88400000 3185879307 3185879307 3.33300000
39.44293213 -12.39847660 1.68446732 26 22 10605 41.38000000 3185879309 3185879309 2.33300000
20.46921730 -5.35091114 -0.98552918 22 23 10605 21.18000000 3185879309 3185879309 -2.66700000
20.43177986 -6.42643642 -1.12250161 29 24 10606 21.44800000 3185879312 3185879312 -3.00000000
97.21788025 -25.43210411 12.33854008 28 25 10606 101.24400000 3185879312 3185879312 7.00000000
46.19317627 -14.53806591 3.95333695 11 26 10607 48.58800000 3185879314 3185879314 4.66700000
36.02627182 -7.57222748 -1.49981904 6 27 10607 36.84400000 3185879314 3185879314 -2.33300000
39.22618103 -14.49464035 -1.46033454 16 28 10608 41.84400000 3185879316 3185879316 -2.00000000
97.50234985 -30.70495796 18.63785934 28 30 10608 103.90800000 3185879319 3185879319 10.33300000
39.81721497 -10.43099689 -0.95779002 16 31 10608 41.17200000 3185879319 3185879319 -1.33300000
5.75160217 -1.81899297 -2.81294703 7 0 10615 6.65600000 3185879339 3185879339 -25.00000000
39.78452301 -8.42018127 -0.70982426 17 1 10615 40.67200000 3185879339 3185879339 -1.00000000
39.90774536 -12.62882519 -1.21819520 27 2 10616 41.87600000 3185879342 3185879342 -1.66700000
8.92464352 -2.35132837 -2.58361030 3 3 10616 9.58400000 3185879342 3185879342 -15.63900000
11.75274849 -3.72141957 -2.46558666 3 4 10617 12.57200000 3185879344 3185879344 -11.31000000
39.64523697 -10.45251942 0.00000000 20 5 10617 41.00000000 3185879344 3185879344 0.00000000
39.57706451 -14.69499397 -0.49148652 21 6 10617 42.22000000 3185879346 3185879346 -0.66700000
14.16760635 -3.73530817 -2.27947068 3 7 10617 14.82800000 3185879346 3185879346 -8.84300000
16.52267838 -5.23495531 -2.20615840 3 8 10618 17.47200000 3185879349 3185879349 -7.25400000
39.36291122 -8.35248566 0.23387140 33 9 10618 40.24000000 3185879349 3185879349 0.33300000
39.47886276 -12.51585007 -0.24070622 23 10 10619 41.41600000 3185879351 3185879351 -0.33300000
18.15716743 -4.79394054 -2.02284908 3 11 10619 18.88800000 3185879351 3185879351 -6.14800000
20.30697250 -7.55209494 -2.02246284 14 12 10620 21.76000000 3185879353 3185879353 -5.33300000
39.32746506 -10.39076424 0.94653064 18 13 10620 40.68800000 3185879353 3185879353 1.33300000
39.16194153 -14.57197666 0.48645759 20 14 10621 41.78800000 3185879355 3185879355 0.66700000
20.40720749 -5.39562702 -1.47604704 30 15 10621 21.16000000 3185879355 3185879355 -4.00000000
20.37779236 -6.47204638 -1.74543071 33 16 10622 21.45200000 3185879358 3185879358 -4.66700000
39.19247437 -8.34491730 1.16618133 38 17 10622 40.08800000 3185879358 3185879358 1.66700000
39.28399277 -12.47671127 0.71945798 27 18 10622 41.22400000 3185879360 3185879360 1.00000000
20.43505287 -4.35106087 -1.33901501 24 19 10622 20.93600000 3185879360 3185879360 -3.66700000
20.40543747 -7.60087824 -1.26812828 16 20 10623 21.81200000 3185879362 3185879362 -3.33300000
39.39737701 -10.43130779 2.37346745 23 21 10623 40.82400000 3185879362 3185879362 3.33300000
39.48920059 -12.55706215 1.68821239 26 22 10624 41.47200000 3185879365 3185879365 2.33300000
20.47453499 -5.42490005 -0.98664594 22 23 10624 21.20400000 3185879365 3185879365 -2.66700000
20.43319511 -6.50142241 -1.12375760 29 24 10625 21.47200000 3185879367 3185879367 -3.00000000
94.85732269 -25.15096283 12.04946613 28 25 10625 98.87200000 3185879367 3185879367 7.00000000
36.12603378 -7.71837473 -1.50502956 6 27 10626 36.97200000 3185879369 3185879369 -2.33300000
39.18538666 -14.62743568 -1.46061373 16 28 10627 41.85200000 3185879372 3185879372 -2.00000000
96.72883606 -30.81431389 18.50943184 28 30 10627 103.19200000 3185879374 3185879374 10.33300000
39.82878494 -10.57529259 -0.95890665 22 31 10627 41.22000000 3185879374 3185879374 -1.33300000
5.74489689 -1.84006143 -2.81294703 7 0 10636 6.65600000 3185879395 3185879395 -25.00000000
39.84331512 -8.58531857 -0.71142989 25 1 10636 40.76400000 3185879395 3185879395 -1.00000000
39.91449738 -12.79209328 -1.21982431 27 2 10637 41.93200000 3185879397 3185879397 -1.66700000
8.91596603 -2.38402295 -2.58361030 2 3 10637 9.58400000 3185879397 3185879397 -15.63900000
11.74276543 -3.76566839 -2.46637106 4 4 10638 12.57600000 3185879399 3185879399 -11.31000000
39.62598038 -10.60292625 0.00000000 20 5 10638 41.02000000 3185879399 3185879399 0.00000000
39.58659363 -14.86385441 -0.49227813 21 6 10638 42.28800000 3185879402 3185879402 -0.66700000
14.16527462 -3.79027486 -2.28131533 2 7 10638 14.84000000 3185879402 3185879402 -8.84300000
16.51093674 -5.29790306 -2.20716858 3 8 10639 17.48000000 3185879404 3185879404 -7.25400000
39.41022873 -8.51359367 0.23433636 25 9 10639 40.32000000 3185879404 3185879404 0.33300000
39.64980698 -12.73016071 -0.24203134 23 10 10640 41.64400000 3185879406 3185879406 -0.33300000
18.14715767 -4.86251640 -2.02370572 3 11 10640 18.89600000 3185879406 3185879406 -6.14800000
20.30152321 -7.63488483 -2.02469349 15 12 10641 21.78400000 3185879408 3185879408 -5.33300000
39.14234161 -10.49548149 0.94299465 25 13 10641 40.53600000 3185879408 3185879408 1.33300000
39.11201477 -14.71682358 0.48650414 30 14 10642 41.79200000 3185879411 3185879411 0.66700000
20.39885521 -5.47348928 -1.47688401 30 15 10642 21.17200000 3185879411 3185879411 -4.00000000
20.37670517 -6.55401516 -1.74738348 33 16 10643 21.47600000 3185879413 3185879413 -4.66700000
39.25931549 -8.50968361 1.16909039 15 17 10643 40.18800000 3185879413 3185879413 1.66700000
39.40330887 -12.68136978 0.72252965 27 18 10644 41.40000000 3185879415 3185879415 1.00000000
20.42989922 -4.43203211 -1.33978260 24 19 10644 20.94800000 3185879415 3185879415 -3.66700000
20.40359879 -7.68547010 -1.26975620 20 20 10644 21.84000000 3185879418 3185879418 -3.33300000
40.01062012 -10.75075722 2.41276932 24 21 10644 41.50000000 3185879418 3185879418 3.33300000
39.32117462 -12.66250992 1.68300176 26 22 10645 41.34400000 3185879420 3185879420 2.33300000
20.47380829 -5.50509453 -0.98757654 22 23 10645 21.22400000 3185879420 3185879420 -2.66700000
20.43584251 -6.58484554 -1.12522304 25 24 10646 21.50000000 3185879422 3185879422 -3.00000000
93.91339111 -25.26945496 11.94124603 28 25 10646 97.98400000 3185879422 3185879422 7.00000000
47.99913788 -15.47554970 4.11704254 26 26 10647 50.60000000 3185879425 3185879425 4.66700000
36.16389465 -7.86517096 -1.50779772 6 27 10647 37.04000000 3185879425 3185879425 -2.33300000
39.18387222 -14.79072285 -1.46256816 16 28 10648 41.90800000 3185879427 3185879427 -2.00000000
97.30433655 -31.39093971 18.64144707 28 30 10648 103.92800000 3185879429 3185879429 10.33300000
39.83609009 -10.73368549 -0.96002328 16 31 10648 41.26800000 3185879429 3185879429 -1.33300000
5.74188709 -1.86122143 -2.81463766 7 0 10656 6.66000000 3185879450 3185879450 -25.00000000
39.83263779 -8.72862530 -0.71177894 25 1 10656 40.78400000 3185879450 3185879450 -1.00000000
39.94186401 -12.95478058 -1.22203517 18 2 10657 42.00800000 3185879452 3185879452 -1.66700000
8.92617798 -2.42017102 -2.58900189 2 3 10657 9.60400000 3185879452 3185879452 -15.63900000
11.74074078 -3.81026769 -2.46872449 3 4 10658 12.58800000 3185879454 3185879454 -11.31000000
39.49607849 -10.71604347 0.00000000 20 5 10658 40.92400000 3185879454 3185879454 0.00000000
39.62533188 -15.04433823 -0.49344224 21 6 10659 42.38800000 3185879457 3185879457 -0.66700000
14.16273117 -3.84527469 -2.28316021 3 7 10659 14.85200000 3185879457 3185879457 -8.84300000
16.50366402 -5.35918140 -2.20868373 3 8 10659 17.49200000 3185879459 3185879459 -7.25400000
39.50138092 -8.67771435 0.23505704 25 9 10659 40.44400000 3185879459 3185879459 0.33300000
39.59751892 -12.86601448 -0.24198484 23 10 10660 41.63600000 3185879461 3185879461 -0.33300000
18.14542580 -4.93000317 -2.02541947 3 11 10660 18.91200000 3185879461 3185879461 -6.14800000
20.30453110 -7.71702337 -2.02766776 15 12 10661 21.81600000 3185879464 3185879464 -5.33300000
39.14019775 -10.64149189 0.94383210 25 13 10661 40.57200000 3185879464 3185879464 1.33300000
39.07162094 -14.85752487 0.48664385 30 14 10662 41.80400000 3185879466 3185879466 0.66700000
20.40272713 -5.55094671 -1.47855818 28 15 10662 21.19600000 3185879466 3185879466 -4.00000000
20.37644958 -6.63250685 -1.74933612 30 16 10663 21.50000000 3185879468 3185879468 -4.66700000
39.30355835 -8.66302490 1.17130125 22 17 10663 40.26400000 3185879468 3185879468 1.66700000
39.40287399 -12.82558250 0.72329754 18 18 10663 41.44400000 3185879471 3185879471 1.00000000
20.42288589 -4.50147438 -1.34029424 24 19 10663 20.95600000 3185879471 3185879471 -3.66700000
20.40650368 -7.76801014 -1.27161670 20 20 10664 21.87200000 3185879473 3185879473 -3.33300000
39.54518890 -10.77384090 2.38695574 18 21 10664 41.05600000 3185879473 3185879473 3.33300000
39.72893143 -12.94705391 1.70237851 26 22 10665 41.82000000 3185879475 3185879475 2.33300000
20.46988678 -5.58073139 -0.98832107 22 23 10665 21.24000000 3185879475 3185879475 -2.66700000
20.43931770 -6.66480827 -1.12668848 29 24 10666 21.52800000 3185879478 3185879478 -3.00000000
93.42627716 -25.48844528 11.89054775 28 25 10666 97.56800000 3185879478 3185879478 7.00000000
47.99030685 -15.65784264 4.12094784 13 26 10667 50.64800000 3185879480 3185879480 4.66700000
36.17134094 -7.99912548 -1.50926316 6 27 10667 37.07600000 3185879480 3185879480 -2.33300000
39.19923401 -14.95305634 -1.46508086 24 28 10668 41.98000000 3185879482 3185879482 -2.00000000
39.84663010 -10.89332962 -0.96123296 16 31 10669 41.32000000 3185879484 3185879484 -1.33300000
5.73535538 -1.88125312 -2.81463766 7 0 10676 6.66000000 3185879505 3185879505 -25.00000000
39.85267639 -8.87892056 -0.71268648 25 1 10676 40.83600000 3185879505 3185879505 -1.00000000
39.83941269 -13.07542229 -1.22028971 18 2 10677 41.94800000 3185879507 3185879507 -1.66700000
8.91024780 -2.44927239 -2.58684516 2 3 10677 9.59600000 3185879507 3185879507 -15.63900000
11.74227524 -3.85612226 -2.47186232 3 4 10678 12.60400000 3185879510 3185879510 -11.31000000
39.60884476 -10.89521980 0.00000000 20 5 10678 41.08000000 3185879510 3185879510 0.00000000
39.58004379 -15.18543053 -0.49353537 32 6 10679 42.39600000 3185879512 3185879512 -0.66700000
14.15303326 -3.89573717 -2.28377509 3 7 10679 14.85600000 3185879512 3185879512 -8.84300000
16.50747490 -5.42418957 -2.21171427 3 8 10679 17.51600000 3185879514 3185879514 -7.25400000
39.60748291 -8.84606266 0.23587070 16 9 10679 40.58400000 3185879514 3185879514 0.33300000
39.51057053 -12.99041462 -0.24172911 23 10 10680 41.59200000 3185879517 3185879517 -0.33300000
18.14727783 -4.99859285 -2.02756143 4 11 10680 18.93200000 3185879517 3185879517 -6.14800000
20.29605865 -7.79499197 -2.02952671 15 12 10681 21.83600000 3185879519 3185879519 -5.33300000
39.16064072 -10.79399109 0.94522792 18 13 10681 40.63200000 3185879519 3185879519 1.33300000
39.10912704 -15.02825260 0.48776138 30 14 10682 41.90000000 3185879521 3185879521 0.66700000
20.40246010 -5.62743664 -1.47995329 28 15 10682 21.21600000 3185879521 3185879521 -4.00000000
20.37210655 -6.70982981 -1.75096345 30 16 10683 21.52000000 3185879524 3185879524 -4.66700000
39.03118515 -8.74596310 1.16408682 22 17 10683 40.01600000 3185879524 3185879524 1.66700000
39.26289749 -12.93176746 0.72155231 27 18 10683 41.34400000 3185879526 3185879526 1.00000000
20.43431473 -4.57884598 -1.34208500 24 19 10683 20.98400000 3185879526 3185879526 -3.66700000
20.39789963 -7.84636307 -1.27277946 20 20 10684 21.89200000 3185879528 3185879528 -3.33300000
40.11935043 -11.08084965 2.42393208 43 21 10684 41.69200000 3185879528 3185879528 3.33300000
39.65313339 -13.07564163 1.70107579 26 22 10685 41.78800000 3185879531 3185879531 2.33300000
20.46568680 -5.65640879 -0.98906559 22 23 10685 21.25600000 3185879531 3185879531 -2.66700000
20.44248199 -6.74487543 -1.12815392 32 24 10686 21.55600000 3185879533 3185879533 -3.00000000
95.19642639 -26.32874870 12.12746239 28 25 10686 99.51200000 3185879533 3185879533 7.00000000
48.93480301 -16.15521812 4.20686865 14 26 10687 51.70400000 3185879535 3185879535 4.66700000
36.27187729 -8.15426636 -1.51463652 6 27 10687 37.20800000 3185879535 3185879535 -2.33300000
39.10950089 -15.07541752 -1.46368492 24 28 10688 41.94000000 3185879537 3185879537 -2.00000000
39.72164917 -11.00085735 -0.95909274 16 31 10688 41.22800000 3185879540 3185879540 -1.33300000
5.72875357 -1.90126169 -2.81463766 7 0 10696 6.66000000 3185879560 3185879560 -25.00000000
39.84874344 -9.02416134 -0.71317512 17 1 10696 40.86400000 3185879560 3185879560 -1.00000000
39.86942291 -13.23960972 -1.22261691 27 2 10697 42.02800000 3185879563 3185879563 -1.66700000
8.90906525 -2.48242784 -2.58900189 2 3 10697 9.60400000 3185879563 3185879563 -15.63900000
11.72129917 -3.89461350 -2.47029328 4 4 10698 12.59600000 3185879565 3185879565 -11.31000000
39.48580551 -11.00977898 0.00000000 20 5 10698 40.99200000 3185879565 3185879565 0.00000000
39.57049561 -15.33249474 -0.49404758 32 6 10698 42.44000000 3185879567 3185879567 -0.66700000
14.15907288 -3.94795680 -2.28684950 3 7 10698 14.87600000 3185879567 3185879567 -8.84300000
16.51103210 -5.48928928 -2.21474457 3 8 10699 17.54000000 3185879570 3185879570 -7.25400000
39.59196472 -8.98780727 0.23596370 25 9 10699 40.60000000 3185879570 3185879570 0.33300000
39.42323303 -13.11436462 -0.24147339 23 10 10700 41.54800000 3185879572 3185879572 -0.33300000
18.14504051 -5.06618643 -2.02927494 4 11 10700 18.94800000 3185879572 3185879572 -6.14800000
20.28729057 -7.87299538 -2.03138566 10 12 10701 21.85600000 3185879574 3185879574 -5.33300000
39.01103210 -10.89941597 0.94252938 25 13 10701 40.51600000 3185879574 3185879574 1.33300000
39.04151535 -15.15888596 0.48757511 20 14 10702 41.88400000 3185879577 3185879577 0.66700000
20.39037704 -5.70076895 -1.48051143 28 15 10702 21.22400000 3185879577 3185879577 -4.00000000
20.37125397 -6.78846312 -1.75291622 30 16 10703 21.54400000 3185879579 3185879579 -4.66700000
39.14076233 -8.91411781 1.16827583 22 17 10703 40.16000000 3185879579 3185879579 1.66700000
39.28960800 -13.09276581 0.72287869 27 18 10703 41.42000000 3185879581 3185879581 1.00000000
20.43766785 -4.65457916 -1.34336412 24 19 10703 21.00400000 3185879581 3185879581 -3.66700000
20.39644051 -7.92764378 -1.27440739 20 20 10704 21.92000000 3185879584 3185879584 -3.33300000
39.51515579 -11.06257248 2.38974643 18 21 10704 41.10400000 3185879584 3185879584 3.33300000
39.66411591 -13.23295021 1.70351827 26 22 10705 41.84800000 3185879586 3185879586 2.33300000
20.46505547 -5.73320198 -0.98999619 22 23 10705 21.27600000 3185879586 3185879586 -2.66700000
20.44154739 -6.82378101 -1.12940991 32 24 10706 21.58000000 3185879588 3185879588 -3.00000000
96.44574738 -27.03704071 12.29856682 28 25 10706 100.91600000 3185879588 3185879588 7.00000000
49.38103485 -16.49391747 4.25015450 15 26 10707 52.23600000 3185879590 3185879590 4.66700000
36.27825928 -8.28884125 -1.51610196 6 27 10707 37.24400000 3185879590 3185879590 -2.33300000
39.05291367 -15.21039295 -1.46354532 24 28 10708 41.93600000 3185879593 3185879593 -2.00000000
39.80040741 -11.17989540 -0.96197736 16 31 10709 41.35200000 3185879595 3185879595 -1.33300000
5.72208214 -1.92124724 -2.81463766 7 0 10716 6.66000000 3185879616 3185879616 -25.00000000
39.67279434 -9.13001728 -0.71059221 25 1 10716 40.71600000 3185879616 3185879616 -1.00000000
39.85328293 -13.38888550 -1.22354782 18 2 10717 42.06000000 3185879618 3185879618 -1.66700000
8.89663887 -2.51246428 -2.58792353 2 3 10717 9.60000000 3185879618 3185879618 -15.63900000
11.71878624 -3.93925405 -2.47264671 3 4 10718 12.60800000 3185879620 3185879620 -11.31000000
39.50487137 -11.16385937 0.00000000 20 5 10718 41.05200000 3185879620 3185879620 0.00000000
38.83887863 -15.20515251 -0.48557287 31 6 10718 41.71200000 3185879623 3185879623 -0.66700000
14.14900875 -3.99843192 -2.28746438 5 7 10718 14.88000000 3185879623 3185879623 -8.84300000
16.49929237 -5.54941988 -2.21575475 3 8 10719 17.54800000 3185879625 3185879625 -7.25400000
39.48239899 -9.10797215 0.23549874 25 9 10719 40.52000000 3185879625 3185879625 0.33300000
39.68049622 -13.35396290 -0.24333321 15 10 10720 41.86800000 3185879627 3185879627 -0.33300000
18.14637947 -5.13490772 -2.03141689 3 11 10720 18.96800000 3185879627 3185879627 -6.14800000
20.28934860 -7.95539379 -2.03435969 10 12 10721 21.88800000 3185879630 3185879630 -5.33300000
39.08433151 -11.06711864 0.94522792 18 13 10721 40.63200000 3185879630 3185879630 1.33300000
39.10006714 -15.33889580 0.48897207 30 14 10722 42.00400000 3185879632 3185879632 0.66700000
20.38187218 -5.77517319 -1.48134851 26 15 10722 21.23600000 3185879632 3185879632 -4.00000000
20.36254501 -6.86462498 -1.75421798 33 16 10723 21.56000000 3185879634 3185879634 -4.66700000
39.17173386 -9.06511307 1.17013764 22 17 10723 40.22400000 3185879634 3185879634 1.66700000
39.42178726 -13.28988075 0.72615975 18 18 10723 41.60800000 3185879637 3185879637 1.00000000
20.42907333 -4.72769165 -1.34387577 28 19 10723 21.01200000 3185879637 3185879637 -3.66700000
20.38351059 -8.00463104 -1.27533758 20 20 10724 21.93600000 3185879639 3185879639 -3.33300000
39.27653503 -11.14376068 2.37765336 29 21 10724 40.89600000 3185879639 3185879639 3.33300000
39.61768341 -13.37132359 1.70351827 26 22 10725 41.84800000 3185879641 3185879641 2.33300000
20.44876099 -5.80569458 -0.99018234 19 23 10725 21.28000000 3185879641 3185879641 -2.66700000
20.43274117 -6.90020609 -1.13024735 29 24 10726 21.59600000 3185879643 3185879643 -3.00000000
97.60343170 -27.72941589 12.45845890 28 25 10726 102.22800000 3185879643 3185879643 7.00000000
36.38925934 -8.44796276 -1.52196383 6 27 10727 37.38800000 3185879646 3185879646 -2.33300000
39.01446152 -15.35247517 -1.46410370 24 28 10728 41.95200000 3185879648 3185879648 -2.00000000
39.82652283 -11.33736897 -0.96355927 16 31 10729 41.42000000 3185879650 3185879650 -1.33300000
5.71534109 -1.94120932 -2.81463766 9 0 10736 6.66000000 3185879671 3185879671 -25.00000000
39.61731720 -9.26298237 -0.71017331 25 1 10736 40.69200000 3185879671 3185879671 -1.00000000
39.73059082 -13.50218678 -1.22122061 18 2 10737 41.98000000 3185879673 3185879673 -1.66700000
8.89522076 -2.54562378 -2.59008002 2 3 10737 9.60800000 3185879673 3185879673 -15.63900000
11.71610546 -3.98392439 -2.47500014 3 4 10738 12.62000000 3185879676 3185879676 -11.31000000
39.41567230 -11.28737354 0.00000000 20 5 10738 41.00000000 3185879676 3185879676 0.00000000
39.70425034 -15.70399475 -0.49707425 32 6 10738 42.70000000 3185879678 3185879678 -0.66700000
14.14256477 -4.04997301 -2.28869438 2 7 10738 14.88800000 3185879678 3185879678 -8.84300000
16.49484825 -5.61209202 -2.21777511 3 8 10739 17.56400000 3185879680 3185879680 -7.25400000
39.52436066 -9.26307678 0.23594044 25 9 10739 40.59600000 3185879680 3185879680 0.33300000
39.63742828 -13.49368095 -0.24335645 15 10 10740 41.87200000 3185879683 3185879683 -0.33300000
18.14363670 -5.20260429 -2.03313041 4 11 10740 18.98400000 3185879683 3185879683 -6.14800000
20.28367043 -8.03496933 -2.03659034 7 12 10741 21.91200000 3185879685 3185879685 -5.33300000
39.20305634 -11.24870110 0.94904310 19 13 10741 40.79600000 3185879685 3185879685 1.33300000
39.15411758 -15.51802349 0.49032241 20 14 10742 42.12000000 3185879687 3185879687 0.66700000
20.38459969 -5.85289145 -1.48302269 28 15 10742 21.26000000 3185879687 3185879687 -4.00000000
20.35732651 -6.94209528 -1.75584531 33 16 10743 21.58000000 3185879690 3185879690 -4.66700000
39.14374161 -9.20270824 1.17025399 45 17 10743 40.22800000 3185879690 3185879690 1.66700000
39.41679764 -13.44160652 0.72692764 28 18 10743 41.65200000 3185879692 3185879692 1.00000000
20.43576241 -4.80445480 -1.34541082 28 19 10743 21.03600000 3185879692 3185879692 -3.66700000
20.38885117 -8.08898735 -1.27743053 20 20 10744 21.97200000 3185879694 3185879694 -3.33300000
39.17982864 -11.26424313 2.37416506 17 21 10744 40.83600000 3185879694 3185879694 3.33300000
39.46107864 -13.47208595 1.69879627 26 22 10745 41.73200000 3185879696 3185879696 2.33300000
20.44757080 -5.88256264 -0.99111295 20 23 10745 21.30000000 3185879696 3185879696 -2.66700000
20.42743111 -6.97794390 -1.13129401 29 24 10746 21.61600000 3185879699 3185879699 -3.00000000
98.04017639 -28.22371101 12.52670574 28 25 10746 102.78800000 3185879699 3185879699 7.00000000
48.40833282 -16.54556465 4.17627573 28 26 10747 51.32800000 3185879701 3185879701 4.66700000
36.40233612 -8.58502483 -1.52375495 6 27 10747 37.43200000 3185879701 3185879701 -2.33300000
39.07207870 -15.53287125 -1.46829164 16 28 10748 42.07200000 3185879703 3185879703 -2.00000000
51.38000870 -17.58129120 9.90116119 20 30 10749 55.20000000 3185879706 3185879706 10.33300000
39.85202408 -11.49516106 -0.96514118 16 31 10749 41.48800000 3185879706 3185879706 -1.33300000
5.71230078 -1.96132863 -2.81632805 8 0 10755 6.66400000 3185879726 3185879726 -25.00000000
39.67198944 -9.41462326 -0.71170914 17 1 10755 40.78000000 3185879726 3185879726 -1.00000000
39.67425537 -13.62996674 -1.22087157 18 2 10756 41.96800000 3185879729 3185879729 -1.66700000
8.90522861 -2.58046770 -2.59547162 3 3 10756 9.62800000 3185879729 3185879729 -15.63900000
11.70282936 -4.02275467 -2.47500014 3 4 10757 12.62000000 3185879731 3185879731 -11.31000000
39.46254349 -11.44252586 0.00000000 20 5 10757 41.08800000 3185879731 3185879731 0.00000000
39.75967407 -15.87859154 -0.49842462 32 6 10757 42.81600000 3185879733 3185879733 -0.66700000
14.14044476 -4.10015154 -2.29053903 4 7 10757 14.90000000 3185879733 3185879733 -8.84300000
16.48365021 -5.66934109 -2.21878529 3 8 10758 17.57200000 3185879736 3185879736 -7.25400000
39.59070969 -9.41723442 0.23652165 17 9 10758 40.69600000 3185879736 3185879736 0.33300000
39.56598663 -13.61593819 -0.24319372 15 10 10759 41.84400000 3185879738 3185879738 -0.33300000
18.13774300 -5.26606846 -2.03441548 3 11 10759 18.99600000 3185879738 3185879738 -6.14800000
20.29759216 -8.11845684 -2.04067993 12 12 10760 21.95600000 3185879740 3185879740 -5.33300000
39.01961517 -11.33624554 0.94550705 18 13 10760 40.64400000 3185879740 3185879740 1.33300000
39.13957596 -15.66263866 0.49078807 20 14 10761 42.16000000 3185879742 3185879742 0.66700000
20.39190102 -5.92825413 -1.48497581 26 15 10761 21.28800000 3185879742 3185879742 -4.00000000
20.35680771 -7.01736021 -1.75779808 30 16 10762 21.60400000 3185879745 3185879745 -4.66700000
39.16745758 -9.34545422 1.17188311 22 17 10762 40.28400000 3185879745 3185879745 1.66700000
39.41737747 -13.58788395 0.72776532 28 18 10762 41.70000000 3185879747 3185879747 1.00000000
20.42748260 -4.87404871 -1.34592247 28 19 10762 21.04400000 3185879747 3185879747 -3.66700000
20.39156914 -8.16843414 -1.27929103 20 20 10763 22.00400000 3185879749 3185879749 -3.33300000
39.34930038 -11.45437431 2.38672304 18 21 10763 41.05200000 3185879749 3185879749 3.33300000
39.48041534 -13.62503433 1.70156431 26 22 10764 41.80000000 3185879752 3185879752 2.33300000
20.45864105 -5.95927620 -0.99260193 20 23 10764 21.33200000 3185879752 3185879752 -2.66700000
20.42305756 -7.05216408 -1.13234079 29 24 10765 21.63600000 3185879754 3185879754 -3.00000000
94.53087616 -27.55323792 12.08992672 28 25 10765 99.20400000 3185879754 3185879754 7.00000000
48.15725327 -16.63830185 4.15935183 41 26 10766 51.12000000 3185879756 3185879756 4.66700000
36.42031097 -8.71685600 -1.52570891 6 27 10766 37.48000000 3185879756 3185879756 -2.33300000
39.12052155 -15.70255947 -1.47206080 25 28 10767 42.18000000 3185879759 3185879759 -2.00000000
51.67472458 -17.87377930 9.96932125 20 30 10768 55.58000000 3185879761 3185879761 10.33300000
39.95955276 -11.66985130 -0.96867716 17 31 10768 41.64000000 3185879761 3185879761 -1.33300000
5.70507383 -1.98225212 -2.81632805 7 0 10776 6.66400000 3185879782 3185879782 -25.00000000
39.78107071 -9.59466076 -0.71429211 25 1 10776 40.92800000 3185879782 3185879782 -1.00000000
39.78264999 -13.83043194 -1.22575879 27 2 10777 42.13600000 3185879784 3185879784 -1.66700000
8.88831902 -2.61091852 -2.59331489 2 3 10777 9.62000000 3185879784 3185879784 -15.63900000
11.69912052 -4.06948662 -2.47735357 3 4 10778 12.63200000 3185879786 3185879786 -11.31000000
39.52779388 -11.61867046 0.00000000 13 5 10778 41.20000000 3185879786 3185879786 0.00000000
39.53430557 -15.95684528 -0.49632922 32 6 10778 42.63600000 3185879789 3185879789 -0.66700000
14.14428234 -4.15752411 -2.29361367 5 7 10778 14.92000000 3185879789 3185879789 -8.84300000
16.47775078 -5.73493576 -2.22080541 3 8 10779 17.58800000 3185879791 3185879791 -7.25400000
39.48594284 -9.54536057 0.23610318 25 9 10779 40.62400000 3185879791 3185879791 0.33300000
39.53848267 -13.76875591 -0.24333321 23 10 10780 41.86800000 3185879793 3185879793 -0.33300000
18.13739586 -5.33812571 -2.03655744 4 11 10780 19.01600000 3185879793 3185879793 -6.14800000
20.29723930 -8.20473766 -2.04365420 15 12 10781 21.98800000 3185879795 3185879795 -5.33300000
39.13891602 -11.52663231 0.94941527 19 13 10781 40.81200000 3185879795 3185879795 1.33300000
39.16348267 -15.83897877 0.49181247 31 14 10782 42.24800000 3185879798 3185879798 0.66700000
20.38917351 -6.00859451 -1.48637092 26 15 10782 21.30800000 3185879798 3185879798 -4.00000000
20.35730171 -7.10111618 -1.76007628 30 16 10783 21.63200000 3185879800 3185879800 -4.66700000
39.16402817 -9.49648476 1.17281401 22 17 10783 40.31600000 3185879800 3185879800 1.66700000
39.53346634 -13.79022408 0.73083699 19 18 10783 41.87600000 3185879802 3185879802 1.00000000
20.41724014 -4.95076799 -1.34643412 26 19 10783 21.05200000 3185879802 3185879802 -3.66700000
20.38740349 -8.25360680 -1.28091896 13 20 10784 22.03200000 3185879805 3185879805 -3.33300000
40.14965057 -11.84714890 2.43788552 12 21 10784 41.93200000 3185879805 3185879805 3.33300000
39.38493347 -13.75383377 1.69961035 26 22 10785 41.75200000 3185879807 3185879807 2.33300000
20.45199013 -6.03874683 -0.99334645 19 23 10785 21.34800000 3185879807 3185879807 -2.66700000
20.43101120 -7.13882971 -1.13422489 29 24 10786 21.67200000 3185879809 3185879809 -3.00000000
93.95331573 -27.75890923 12.02899170 28 25 10786 98.70400000 3185879809 3185879809 7.00000000
47.58789062 -16.63707542 4.11541510 26 26 10787 50.58000000 3185879812 3185879812 4.66700000
36.52404022 -8.88334274 -1.53140783 6 27 10787 37.62000000 3185879812 3185879812 -2.33300000
39.11086273 -15.86537266 -1.47387552 16 28 10788 42.23200000 3185879814 3185879814 -2.00000000
51.53772736 -18.02806282 9.95497227 20 30 10788 55.50000000 3185879816 3185879816 10.33300000
39.98759842 -11.82968426 -0.97035211 17 31 10788 41.71200000 3185879816 3185879816 -1.33300000
5.69811964 -2.00215459 -2.81632805 7 0 10796 6.66400000 3185879837 3185879837 -25.00000000
39.63079834 -9.70492554 -0.71219778 25 1 10796 40.80800000 3185879837 3185879837 -1.00000000
39.79447937 -13.99043274 -1.22762048 27 2 10797 42.20000000 3185879839 3185879839 -1.66700000
8.87545967 -2.64083004 -2.59223676 3 3 10797 9.61600000 3185879839 3185879839 -15.63900000
11.69594479 -4.11420393 -2.47970700 3 4 10798 12.64400000 3185879842 3185879842 -11.31000000
39.32981491 -11.70977974 0.00000000 20 5 10798 41.03600000 3185879842 3185879842 0.00000000
39.51629257 -16.11825562 -0.49684143 32 6 10799 42.68000000 3185879844 3185879844 -0.66700000
14.13652515 -4.21159458 -2.29484344 3 7 10799 14.92800000 3185879844 3185879844 -8.84300000
16.47634697 -5.79900551 -2.22333097 3 8 10799 17.60800000 3185879846 3185879846 -7.25400000
39.52619171 -9.70124912 0.23654489 25 9 10799 40.70000000 3185879846 3185879846 0.33300000
39.55809021 -13.93060303 -0.24375166 15 10 10800 41.94000000 3185879848 3185879848 -0.33300000
18.13770676 -5.40708542 -2.03869939 3 11 10800 19.03600000 3185879848 3185879848 -6.14800000
20.27585030 -8.27854919 -2.04439783 12 12 10801 21.99600000 3185879851 3185879851 -5.33300000
39.06395340 -11.65289402 0.94857782 25 13 10801 40.77600000 3185879851 3185879851 1.33300000
39.28198242 -16.04667854 0.49400100 21 14 10802 42.43600000 3185879853 3185879853 0.66700000
20.38719177 -6.08543587 -1.48776603 24 15 10802 21.32800000 3185879853 3185879853 -4.00000000
20.35870743 -7.18141651 -1.76235449 30 16 10803 21.66000000 3185879855 3185879855 -4.66700000
38.98699188 -9.59777164 1.16850853 22 17 10803 40.16800000 3185879855 3185879855 1.66700000
39.44117355 -13.92038631 0.73006904 28 18 10804 41.83200000 3185879858 3185879858 1.00000000
20.42609024 -5.03225183 -1.34822488 28 19 10804 21.08000000 3185879858 3185879858 -3.66700000
20.38064575 -8.33379078 -1.28231430 20 20 10804 22.05600000 3185879860 3185879860 -3.33300000
40.13100815 -11.99408627 2.43928075 12 21 10804 41.95600000 3185879860 3185879860 3.33300000
39.26884842 -13.86727428 1.69667947 26 22 10805 41.68000000 3185879862 3185879862 2.33300000
20.44609833 -6.11468029 -0.99409091 19 23 10805 21.36400000 3185879862 3185879862 -2.66700000
20.42103386 -7.21542692 -1.13506222 29 24 10806 21.68800000 3185879865 3185879865 -3.00000000
64.99848175 -19.45102882 8.33050060 28 25 10806 68.35600000 3185879865 3185879865 7.00000000
47.52576828 -16.80175781 4.11508942 26 26 10807 50.57600000 3185879867 3185879867 4.66700000
36.53160858 -9.02036285 -1.53303623 6 27 10807 37.66000000 3185879867 3185879867 -2.33300000
39.09223175 -16.01695442 -1.47527158 25 28 10808 42.27200000 3185879869 3185879869 -2.00000000
39.94989014 -11.97034264 -0.97044516 17 31 10808 41.71600000 3185879872 3185879872 -1.33300000
5.69828176 -2.02346539 -2.81970906 8 0 10815 6.67200000 3185879892 3185879892 -25.00000000
39.76918030 -9.87871552 -0.71526945 17 1 10815 40.98400000 3185879892 3185879892 -1.00000000
39.77800751 -14.13302803 -1.22855139 18 2 10816 42.23200000 3185879895 3185879895 -1.66700000
8.88509464 -2.67580128 -2.59762812 6 3 10816 9.63600000 3185879895 3185879895 -15.63900000
11.68593311 -4.15428019 -2.48049140 3 4 10817 12.64800000 3185879897 3185879897 -11.31000000
39.67375565 -11.95555019 0.00000000 20 5 10817 41.43600000 3185879897 3185879897 0.00000000
39.62165833 -16.31469154 -0.49884370 33 6 10818 42.85200000 3185879899 3185879899 -0.66700000
14.12626553 -4.25959110 -2.29545832 3 7 10818 14.93200000 3185879899 3185879899 -8.84300000
16.46824074 -5.85760021 -2.22484612 3 8 10818 17.62000000 3185879901 3185879901 -7.25400000
39.22598267 -9.76559353 0.23494080 25 9 10818 40.42400000 3185879901 3185879901 0.33300000
39.73401260 -14.14083195 -0.24512327 100 10 10819 42.17600000 3185879904 3185879904 -0.33300000
18.13871384 -5.47294664 -2.04084134 4 11 10819 19.05600000 3185879904 3185879904 -6.14800000
20.28510666 -8.36091805 -2.04811549 15 12 10820 22.03600000 3185879906 3185879906 -5.33300000
39.15908432 -11.82282448 0.95183462 19 13 10820 40.91600000 3185879906 3185879906 1.33300000
39.13611221 -16.13873291 0.49283689 31 14 10821 42.33600000 3185879908 3185879908 0.66700000
20.38981819 -6.15993261 -1.48944020 26 15 10821 21.35200000 3185879908 3185879908 -4.00000000
20.35731316 -7.25692081 -1.76430726 30 16 10822 21.68400000 3185879911 3185879911 -4.66700000
38.93943405 -9.72313023 1.16804314 22 17 10822 40.15200000 3185879911 3185879911 1.66700000
39.83423996 -14.20000458 0.73816699 29 18 10822 42.29600000 3185879913 3185879913 1.00000000
20.41792488 -5.09833145 -1.34873664 28 19 10822 21.08800000 3185879913 3185879913 -3.66700000
20.38611794 -8.41504192 -1.28440726 20 20 10823 22.09200000 3185879915 3185879915 -3.33300000
40.13687897 -12.14097309 2.44207144 18 21 10823 42.00400000 3185879915 3185879915 3.33300000
39.04573059 -13.93428230 1.68902647 17 22 10824 41.49200000 3185879918 3185879918 2.33300000
20.44100761 -6.18707848 -0.99483544 19 23 10824 21.38000000 3185879918 3185879918 -2.66700000
20.42708969 -7.29385185 -1.13673699 25 24 10825 21.72000000 3185879920 3185879920 -3.00000000
64.75883484 -19.61352539 8.30807686 56 25 10825 68.17200000 3185879920 3185879920 7.00000000
45.57760620 -16.28325653 3.95105886 11 26 10826 48.56000000 3185879922 3185879922 4.66700000
36.66044998 -9.18126488 -1.53971219 7 27 10826 37.82400000 3185879922 3185879922 -2.33300000
39.06106949 -16.15566826 -1.47610915 25 28 10827 42.29600000 3185879925 3185879925 -2.00000000
39.97120667 -12.12132359 -0.97193402 17 31 10827 41.78000000 3185879927 3185879927 -1.33300000
5.69423866 -2.04556251 -2.82139945 7 0 10836 6.67600000 3185879947 3185879947 -25.00000000
39.75209427 -10.02930260 -0.71561849 17 1 10836 41.00400000 3185879947 3185879947 -1.00000000
39.75604248 -14.28954601 -1.22948229 46 2 10837 42.26400000 3185879949 3185879949 -1.66700000
8.88996506 -2.71284580 -2.60194135 3 3 10837 9.65200000 3185879949 3185879949 -15.63900000
11.68170071 -4.20106554 -2.48284483 3 4 10838 12.66000000 3185879952 3185879952 -11.31000000
39.65262222 -12.10789013 0.00000000 20 5 10838 41.46000000 3185879952 3185879952 0.00000000
39.49060822 -16.42218208 -0.49791241 32 6 10838 42.77200000 3185879954 3185879954 -0.66700000
14.12265110 -4.31233788 -2.29730296 4 7 10838 14.94400000 3185879954 3185879954 -8.84300000
16.46159554 -5.92329407 -2.22686648 3 8 10839 17.63600000 3185879956 3185879956 -7.25400000
39.42259979 -9.96813107 0.23633566 17 9 10839 40.66400000 3185879956 3185879956 0.33300000
39.66686249 -14.28094959 -0.24503028 15 10 10840 42.16000000 3185879959 3185879959 -0.33300000
18.14135170 -5.54636812 -2.04341173 4 11 10840 19.08000000 3185879959 3185879959 -6.14800000
20.27638626 -8.44439697 -2.05034614 12 12 10841 22.06000000 3185879961 3185879961 -5.33300000
38.85163498 -11.88555145 0.94541401 31 13 10841 40.64000000 3185879961 3185879961 1.33300000
39.13946152 -16.30821800 0.49362850 31 14 10842 42.40400000 3185879963 3185879963 0.66700000
20.38618279 -6.24046326 -1.49083531 28 15 10842 21.37200000 3185879963 3185879963 -4.00000000
20.34932899 -7.33824778 -1.76593447 33 16 10843 21.70400000 3185879965 3185879965 -4.66700000
39.12832260 -9.92278957 1.17479217 22 17 10843 40.38400000 3185879965 3185879965 1.66700000
39.14986801 -14.11798096 0.72643894 18 18 10843 41.62400000 3185879968 3185879968 1.00000000
20.41457939 -5.17705774 -1.34975994 28 19 10843 21.10400000 3185879968 3185879968 -3.66700000
20.38093758 -8.50046444 -1.28603518 16 20 10844 22.12000000 3185879970 3185879970 -3.33300000
39.20635223 -12.01652050 2.38811851 18 21 10844 41.07600000 3185879970 3185879970 3.33300000
39.14852524 -14.13293934 1.69570243 26 22 10845 41.65600000 3185879972 3185879972 2.33300000
20.44875336 -6.27132940 -0.99632442 19 23 10845 21.41200000 3185879972 3185879972 -2.66700000
20.43027306 -7.37952805 -1.13841176 29 24 10846 21.75200000 3185879975 3185879975 -3.00000000
64.65615082 -19.84142876 8.30417728 56 25 10846 68.14000000 3185879975 3185879975 7.00000000
44.13409424 -15.95018768 3.83096480 22 26 10847 47.08400000 3185879977 3185879977 4.66700000
36.67303467 -9.32739258 -1.54166615 7 27 10847 37.87200000 3185879977 3185879977 -2.33300000
39.02003479 -16.30643272 -1.47680712 25 28 10848 42.31600000 3185879979 3185879979 -2.00000000
39.90739822 -12.26187134 -0.97146875 17 31 10848 41.76000000 3185879982 3185879982 -1.33300000
5.69047117 -2.06666422 -2.82309008 7 0 10856 6.68000000 3185880002 3185880002 -25.00000000
39.53086853 -10.12039089 -0.71226764 17 1 10856 40.81200000 3185880002 3185880002 -1.00000000
39.66082764 -14.41184711 -1.22808599 18 2 10857 42.21600000 3185880005 3185880005 -1.66700000
8.87676048 -2.74272394 -2.60086298 2 3 10857 9.64800000 3185880005 3185880005 -15.63900000
11.66696548 -4.24181652 -2.48284483 3 4 10858 12.66000000 3185880007 3185880007 -11.31000000
39.67126083 -12.26513386 0.00000000 20 5 10858 41.52400000 3185880007 3185880007 0.00000000
39.47360611 -16.57696533 -0.49842462 32 6 10858 42.81600000 3185880009 3185880009 -0.66700000
14.12639236 -4.36744595 -2.30037761 2 7 10858 14.96400000 3185880009 3185880009 -8.84300000
16.46692276 -5.99021482 -2.23040199 3 8 10859 17.66400000 3185880012 3185880012 -7.25400000
39.35657120 -10.09772778 0.23614968 25 9 10859 40.63200000 3185880012 3185880012 0.33300000
39.36493683 -14.32766628 -0.24347270 23 10 10860 41.89200000 3185880014 3185880014 -0.33300000
18.14087677 -5.61553955 -2.04555368 3 11 10860 19.10000000 3185880014 3185880014 -6.14800000
20.27982712 -8.52901936 -2.05369210 15 12 10861 22.09600000 3185880016 3185880016 -5.33300000
39.20335388 -12.14296436 0.95499843 19 13 10861 41.05200000 3185880016 3185880016 1.33300000
38.94957733 -16.38889694 0.49195218 31 14 10862 42.26000000 3185880018 3185880018 0.66700000
20.38333130 -6.31749296 -1.49223053 28 15 10862 21.39200000 3185880018 3185880018 -4.00000000
20.35729980 -7.42152500 -1.76886368 33 16 10863 21.74000000 3185880021 3185880021 -4.66700000
39.24446106 -10.09817123 1.17933023 23 17 10863 40.54000000 3185880021 3185880021 1.66700000
39.20180130 -14.29153919 0.72832382 28 18 10863 41.73200000 3185880023 3185880023 1.00000000
20.40798187 -5.25127029 -1.35052741 28 19 10863 21.11600000 3185880023 3185880023 -3.66700000
20.37322235 -8.58085537 -1.28743052 16 20 10864 22.14400000 3185880025 3185880025 -3.33300000
41.83002853 -12.98056507 2.55067515 7 21 10864 43.87200000 3185880025 3185880025 3.33300000
39.55324173 -14.43530464 1.71540475 26 22 10865 42.14000000 3185880028 3185880028 2.33300000
20.44963264 -6.34978008 -0.99744117 19 23 10865 21.43600000 3185880028 3185880028 -2.66700000
20.41939926 -7.45627832 -1.13924909 29 24 10866 21.76800000 3185880030 3185880030 -3.00000000
64.66232300 -20.09056091 8.31392670 56 25 10866 68.22000000 3185880030 3185880030 7.00000000
36.81439590 -9.50028801 -1.54899347 7 27 10867 38.05200000 3185880032 3185880032 -2.33300000
39.04390335 -16.47673225 -1.47987831 25 28 10868 42.40400000 3185880035 3185880035 -2.00000000
39.94071960 -12.42485619 -0.97332978 17 31 10868 41.84000000 3185880037 3185880037 -1.33300000
5.68322229 -2.08651519 -2.82309008 7 0 10876 6.68000000 3185880058 3185880058 -25.00000000
39.76239777 -10.32769108 -0.71708447 25 1 10876 41.08800000 3185880058 3185880058 -1.00000000
39.55773544 -14.53090096 -1.22645688 27 2 10877 42.16000000 3185880060 3185880060 -1.66700000
8.86345673 -2.77254295 -2.59978485 3 3 10877 9.64400000 3185880060 3185880060 -15.63900000
11.65945053 -4.28522205 -2.48441386 3 4 10878 12.66800000 3185880062 3185880062 -11.31000000
39.44497299 -12.34618568 0.00000000 20 5 10878 41.33200000 3185880062 3185880062 0.00000000
39.27557373 -16.65531540 -0.49665517 32 6 10878 42.66400000 3185880065 3185880065 -0.66700000
14.11860561 -4.41909122 -2.30160737 3 7 10878 14.97200000 3185880065 3185880065 -8.84300000
16.45708466 -6.05176735 -2.23191714 3 8 10879 17.67600000 3185880067 3185880067 -7.25400000
39.49527359 -10.28038788 0.23719582 17 9 10879 40.81200000 3185880067 3185880067 0.33300000
39.26588440 -14.44703293 -0.24317047 23 10 10880 41.84000000 3185880069 3185880069 -0.33300000
18.12495995 -5.68001795 -2.04598212 3 11 10880 19.10400000 3185880069 3185880069 -6.14800000
20.27925873 -8.61221218 -2.05666637 17 12 10881 22.12800000 3185880071 3185880071 -5.33300000
39.02717972 -12.23785782 0.95174158 19 13 10881 40.91200000 3185880071 3185880071 1.33300000
38.88845062 -16.52319145 0.49190560 20 14 10882 42.25600000 3185880074 3185880074 0.66700000
20.37638474 -6.39338398 -1.49334657 30 15 10882 21.40800000 3185880074 3185880074 -4.00000000
20.35371590 -7.50081158 -1.77081645 35 16 10883 21.76400000 3185880076 3185880076 -4.66700000
38.95363998 -10.16844654 1.17165029 22 17 10883 40.27600000 3185880076 3185880076 1.66700000
39.24671936 -14.47109795 0.73013890 28 18 10884 41.83600000 3185880078 3185880078 1.00000000
20.40790749 -5.33107853 -1.35180652 28 19 10884 21.13600000 3185880078 3185880078 -3.66700000
20.36519432 -8.66129589 -1.28882587 10 20 10884 22.16800000 3185880081 3185880081 -3.33300000
39.50247192 -12.40961742 2.41137409 18 21 10884 41.47600000 3185880081 3185880081 3.33300000
39.49136353 -14.56913280 1.71491635 26 22 10885 42.12800000 3185880083 3185880083 2.33300000
20.44640350 -6.42711496 -0.99837178 21 23 10885 21.45600000 3185880083 3185880083 -2.66700000
20.41573143 -7.53580952 -1.14050519 29 24 10886 21.79200000 3185880085 3185880085 -3.00000000
64.45167542 -20.27207756 8.29588985 28 25 10886 68.07200000 3185880085 3185880085 7.00000000
42.63792419 -15.74687195 3.71054554 21 26 10887 45.60400000 3185880088 3185880088 4.66700000
36.79261017 -9.63177299 -1.54948187 7 27 10887 38.06400000 3185880088 3185880088 -2.33300000
39.12957764 -16.67403793 -1.48532259 25 28 10888 42.56000000 3185880090 3185880090 -2.00000000
39.77123642 -12.52456093 -0.97025907 17 31 10888 41.70800000 3185880092 3185880092 -1.33300000
5.67930317 -2.10760188 -2.82478046 7 0 10896 6.68400000 3185880113 3185880113 -25.00000000
39.73770905 -10.46948242 -0.71729392 25 1 10896 41.10000000 3185880113 3185880113 -1.00000000
39.51426697 -14.67167759 -1.22668970 27 2 10897 42.16800000 3185880115 3185880115 -1.66700000
8.85739708 -2.80462813 -2.60086298 3 3 10897 9.64800000 3185880115 3185880115 -15.63900000
11.65545177 -4.32999277 -2.48676729 3 4 10898 12.68000000 3185880117 3185880117 -11.31000000
39.15377808 -12.40526962 0.00000000 20 5 10898 41.07200000 3185880117 3185880117 0.00000000
39.21059036 -16.79758072 -0.49660861 32 6 10899 42.66000000 3185880120 3185880120 -0.66700000
14.12491989 -4.47797537 -2.30529690 4 7 10899 14.99600000 3185880120 3185880120 -8.84300000
16.46189499 -6.11885357 -2.23545265 3 8 10899 17.70400000 3185880122 3185880122 -7.25400000
39.52102661 -10.43452644 0.23756778 17 9 10899 40.87600000 3185880122 3185880122 0.33300000
39.34268570 -14.63141346 -0.24396089 78 10 10900 41.97600000 3185880124 3185880124 -0.33300000
18.13534927 -5.75287151 -2.04940915 4 11 10900 19.13600000 3185880124 3185880124 -6.14800000
20.28567505 -8.69864273 -2.06038404 15 12 10901 22.16800000 3185880127 3185880127 -5.33300000
39.04901886 -12.39457989 0.95332348 19 13 10901 40.98000000 3185880127 3185880127 1.33300000
38.89302444 -16.68564415 0.49269721 31 14 10902 42.32400000 3185880129 3185880129 0.66700000
20.37676048 -6.47171879 -1.49502075 26 15 10902 21.43200000 3185880129 3185880129 -4.00000000
20.34235191 -7.57737970 -1.77211821 34 16 10903 21.78000000 3185880131 3185880131 -4.66700000
39.04545593 -10.33812904 1.17549026 22 17 10903 40.40800000 3185880131 3185880131 1.66700000
39.34843063 -14.65700722 0.73293126 28 18 10903 41.99600000 3185880134 3185880134 1.00000000
20.41327095 -5.40485477 -1.35334158 26 19 10903 21.16000000 3185880134 3185880134 -3.66700000
20.37519646 -8.74966335 -1.29138398 16 20 10904 22.21200000 3185880136 3185880136 -3.33300000
39.58256912 -14.75995827 1.72110379 27 22 10905 42.28000000 3185880138 3185880138 2.33300000
20.43526649 -6.50208139 -0.99893016 21 23 10905 21.46800000 3185880138 3185880138 -2.66700000
20.40801430 -7.61400938 -1.14155185 29 24 10906 21.81200000 3185880141 3185880141 -3.00000000
63.16993332 -20.11151505 8.13989735 28 25 10906 66.79200000 3185880141 3185880141 7.00000000
43.41933823 -16.20791817 3.78344798 43 26 10907 46.50000000 3185880143 3185880143 4.66700000
36.90555191 -9.79911900 -1.55566943 7 27 10907 38.21600000 3185880143 3185880143 -2.33300000
39.12989044 -16.83580399 -1.48755610 25 28 10908 42.62400000 3185880145 3185880145 -2.00000000
39.83554840 -12.70548534 -0.97295755 11 31 10909 41.82400000 3185880147 3185880147 -1.33300000
5.66851759 -2.12614036 -2.82309008 7 0 10916 6.68000000 3185880168 3185880168 -25.00000000
39.78592682 -10.63084221 -0.71882969 17 1 10916 41.18800000 3185880168 3185880168 -1.00000000
39.57137299 -14.85025883 -1.23006415 18 2 10917 42.28400000 3185880170 3185880170 -1.66700000
8.85488892 -2.83788037 -2.60301971 3 3 10917 9.65600000 3185880170 3185880170 -15.63900000
11.64760971 -4.37340927 -2.48833609 4 4 10918 12.68800000 3185880173 3185880173 -11.31000000
39.54064941 -12.67989063 0.00000000 20 5 10918 41.52400000 3185880173 3185880173 0.00000000
39.52249146 -17.09472084 -0.50131160 22 6 10919 43.06400000 3185880175 3185880175 -0.66700000
14.11672974 -4.52966833 -2.30652666 4 7 10919 15.00400000 3185880175 3185880175 -8.84300000
