# .PCD v0.7 - Point Cloud Data file format
VERSION 0.7
FIELDS x y z intensity laser_id azimuth distance_m adjustedtime timestamp vertical_angle
SIZE 4 4 4 1 1 2 8 8 4 8
TYPE F F F U U U F U U F
COUNT 1 1 1 1 1 1 1 1 1 1
WIDTH 509
HEIGHT 1
VIEWPOINT 0 0 0 1 0 0 0
POINTS 509
DATA ascii
41.65858459 -54.82352829 4.00996447 28 21 14417 68.97200000 3181489966 3181489966 3.33300000
44.08948898 -64.34288788 3.17777324 28 22 14418 78.06400000 3181489968 3181489968 2.33300000
20.20034790 -26.59369469 -1.55562854 10 23 14418 33.43200000 3181489968 3181489968 -2.66700000
19.92785263 -29.09300041 -1.84808731 15 24 14419 35.31200000 3181489970 3181489970 -3.00000000
38.36316299 -45.71944046 -2.43152738 28 27 14420 59.73200000 3181489972 3181489972 -2.33300000
38.69427109 -62.92124557 -2.57949162 26 28 14421 73.91200000 3181489975 3181489975 -2.00000000
38.02808762 -50.13648987 -1.46427512 28 31 14422 62.94400000 3181489977 3181489977 -1.33300000
3.54967284 -5.20557737 -2.93804216 28 0 14431 6.95200000 3181489998 3181489998 -25.00000000
38.51412201 -46.07871246 -1.04826128 56 1 14431 60.06400000 3181489998 3181489998 -1.00000000
38.28620148 -56.16757965 -1.97827268 28 2 14432 68.00400000 3181490000 3181490000 -1.66700000
6.31005478 -8.34944439 -2.92974496 5 3 14432 10.86800000 3181490000 3181490000 -15.63900000
8.27575016 -12.14545155 -2.93940592 1 4 14433 14.98800000 3181490002 3181490002 -11.31000000
38.21208191 -50.58045578 0.00000000 44 5 14433 63.39200000 3181490002 3181490002 0.00000000
37.91720200 -61.94803619 -0.84556174 29 6 14433 72.63600000 3181490005 3181490005 -0.66700000
10.69980907 -14.16309166 -2.76155996 2 7 14433 17.96400000 3181490005 3181490005 -8.84300000
12.56050968 -18.44066048 -2.84002495 2 8 14434 22.49200000 3181490007 3181490007 -7.25400000
38.69516373 -46.34460831 0.35090011 56 9 14434 60.37600000 3181490007 3181490007 0.33300000
38.19580078 -56.09804535 -0.39444295 28 10 14435 67.86800000 3181490009 3181490009 -0.33300000
14.84437084 -19.66341972 -2.65386486 2 11 14435 24.78000000 3181490009 3181490009 -6.14800000
15.96058846 -26.10663986 -2.85635710 4 12 14436 30.73200000 3181490012 3181490012 -5.33300000
40.23722458 -53.31911087 1.55435002 42 13 14436 66.81600000 3181490012 3181490012 1.33300000
38.61019135 -63.17923737 0.86199892 28 14 14437 74.04800000 3181490014 3181490014 0.66700000
19.90458298 -26.38551712 -2.31117153 13 15 14437 33.13200000 3181490014 3181490014 -4.00000000
18.47880936 -27.17033768 -2.68242407 5 16 14438 32.96800000 3181490016 3181490016 -4.66700000
40.35233307 -48.39801407 1.83386731 56 17 14438 63.04000000 3181490016 3181490016 1.66700000
43.34103394 -63.72653580 1.34523153 28 18 14438 77.08000000 3181490019 3181490019 1.00000000
20.02068329 -24.01252174 -2.00366187 10 19 14438 31.32800000 3181490019 3181490019 -3.66700000
19.80798721 -32.43796158 -2.21346879 17 20 14439 38.07200000 3181490021 3181490021 -3.33300000
107.18778992 -142.19136047 10.37014103 42 21 14439 178.36800000 3181490021 3181490021 3.33300000
41.78209305 -61.48048401 3.02845883 28 22 14440 74.39600000 3181490023 3181490023 2.33300000
20.15579796 -26.74764824 -1.56009555 10 23 14440 33.52800000 3181490023 3181490023 -2.66700000
19.91027260 -29.30807877 -1.85687971 15 24 14441 35.48000000 3181490025 3181490025 -3.00000000
38.34076691 -46.05069351 -2.44129705 28 27 14442 59.97200000 3181490028 3181490028 -2.33300000
38.77077866 -63.59157944 -2.60085011 26 28 14443 74.52400000 3181490030 3181490030 -2.00000000
38.10699463 -50.64321136 -1.47478998 29 31 14444 63.39600000 3181490032 3181490032 -1.33300000
3.47027946 -5.12365484 -2.88563752 25 0 14449 6.82800000 3181490053 3181490053 -25.00000000
38.47904587 -46.33177948 -1.05126321 28 1 14449 60.23600000 3181490053 3181490053 -1.00000000
38.31354523 -56.58887100 -1.98886168 28 2 14450 68.36800000 3181490055 3181490055 -1.66700000
6.29535723 -8.38462830 -2.93513656 6 3 14450 10.88800000 3181490055 3181490055 -15.63900000
8.24414825 -12.18113518 -2.94175935 3 4 14451 15.00000000 3181490058 3181490058 -11.31000000
38.17544937 -50.86341095 0.00000000 44 5 14451 63.59600000 3181490058 3181490058 0.00000000
37.90520859 -62.36763000 -0.84965938 29 6 14451 72.98800000 3181490060 3181490060 -0.66700000
10.67187023 -14.21876431 -2.76586437 3 7 14451 17.99200000 3181490060 3181490060 -8.84300000
12.51363182 -18.49646187 -2.84255028 2 8 14452 22.51200000 3181490062 3181490062 -7.25400000
38.69239807 -46.63833618 0.35220197 56 9 14452 60.60000000 3181490062 3181490062 0.33300000
38.20311737 -56.48945999 -0.39634925 56 10 14453 68.19600000 3181490065 3181490065 -0.33300000
14.78968143 -19.71950150 -2.65514994 2 11 14453 24.79200000 3181490065 3181490065 -6.14800000
15.96736145 -26.30304527 -2.87234354 4 12 14454 30.90400000 3181490067 3181490067 -5.33300000
40.24702835 -53.68202209 1.56123590 42 13 14454 67.11200000 3181490067 3181490067 1.33300000
38.85348511 -64.02855682 0.87191713 28 14 14455 74.90000000 3181490069 3181490069 0.66700000
19.90534782 -26.55967522 -2.32093740 13 15 14455 33.27200000 3181490069 3181490069 -4.00000000
18.42683601 -27.27780914 -2.68730593 5 16 14456 33.02800000 3181490072 3181490072 -4.66700000
40.60821152 -49.01718140 1.85248518 84 17 14456 63.68000000 3181490072 3181490072 1.66700000
43.32643509 -64.13745117 1.35102570 28 18 14456 77.41200000 3181490074 3181490074 1.00000000
20.02663803 -24.17366600 -2.01184845 10 19 14456 31.45600000 3181490074 3181490074 -3.66700000
19.87161446 -32.77319717 -2.23207331 17 20 14457 38.39200000 3181490076 3181490076 -3.33300000
106.74055481 -142.52738953 10.37014103 42 21 14457 178.36800000 3181490076 3181490076 3.33300000
41.64240646 -61.69094467 3.03236675 28 22 14458 74.49200000 3181490078 3181490078 2.33300000
20.15069199 -26.91639137 -1.56623757 10 23 14458 33.66000000 3181490078 3181490078 -2.66700000
19.91640854 -29.51617622 -1.86609089 22 24 14459 35.65600000 3181490081 3181490081 -3.00000000
44.33518982 -65.72962189 6.47238111 28 26 14460 79.54800000 3181490083 3181490083 4.66700000
38.32838058 -46.33105087 -2.44976425 57 27 14460 60.18000000 3181490083 3181490083 -2.33300000
38.16711044 -63.04621887 -2.57362843 26 28 14461 73.74400000 3181490085 3181490085 -2.00000000
37.97643661 -50.80111313 -1.47590661 29 31 14462 63.44400000 3181490088 3181490088 -1.33300000
3.41596889 -5.08158207 -2.85520887 19 0 14469 6.75600000 3181490108 3181490108 -25.00000000
38.66567230 -46.88853836 -1.06082702 28 1 14469 60.78400000 3181490108 3181490108 -1.00000000
38.37669373 -57.11054611 -2.00247598 28 2 14470 68.83600000 3181490111 3181490111 -1.66700000
6.26374912 -8.40346432 -2.93405819 6 3 14470 10.88400000 3181490111 3181490111 -15.63900000
8.20595264 -12.21635056 -2.94332838 1 4 14471 15.00800000 3181490113 3181490113 -11.31000000
38.14345551 -51.19201660 0.00000000 45 5 14471 63.84000000 3181490113 3181490113 0.00000000
37.96403503 -62.95854187 -0.85589898 29 6 14471 73.52400000 3181490115 3181490115 -0.66700000
10.63397980 -14.27177620 -2.76893878 3 7 14471 18.01200000 3181490115 3181490115 -8.84300000
12.49544239 -18.60920906 -2.85315681 2 8 14472 22.59600000 3181490118 3181490118 -7.25400000
38.74807739 -47.03862381 0.35420126 56 9 14472 60.94400000 3181490118 3181490118 0.33300000
38.56745911 -57.45940018 -0.40220767 28 10 14473 69.20400000 3181490120 3181490120 -0.33300000
14.74213314 -19.79971695 -2.65900540 2 11 14473 24.82800000 3181490120 3181490120 -6.14800000
15.87750435 -26.36203384 -2.87271523 4 12 14474 30.90800000 3181490122 3181490122 -5.33300000
39.99971008 -53.74198914 1.55890954 42 13 14474 67.01200000 3181490122 3181490122 1.33300000
38.71432877 -64.30428314 0.87382627 28 14 14475 75.06400000 3181490124 3181490124 0.66700000
19.90779114 -26.75705147 -2.33209848 13 15 14475 33.43200000 3181490124 3181490124 -4.00000000
18.41365051 -27.46448517 -2.69934773 5 16 14476 33.17600000 3181490127 3181490127 -4.66700000
40.18032074 -48.84675598 1.84073257 56 17 14476 63.27600000 3181490127 3181490127 1.66700000
42.65908432 -63.62724304 1.33713353 28 18 14476 76.61600000 3181490129 3181490129 1.00000000
20.02581787 -24.34515953 -2.02029085 10 19 14476 31.58800000 3181490129 3181490129 -3.66700000
19.81267166 -32.93474960 -2.23835230 17 20 14477 38.50000000 3181490131 3181490131 -3.33300000
106.15423584 -142.78054810 10.36153603 42 21 14477 178.22000000 3181490131 3181490131 3.33300000
43.81814575 -65.40536499 3.20740795 28 22 14478 78.79200000 3181490134 3181490134 2.33300000
20.12096596 -27.07315445 -1.57126296 10 23 14478 33.76800000 3181490134 3181490134 -2.66700000
19.91105652 -29.73155403 -1.87530196 23 24 14479 35.83200000 3181490136 3181490136 -3.00000000
42.55301666 -63.56494141 6.24456072 28 26 14480 76.74800000 3181490138 3181490138 4.66700000
38.27550507 -46.59736252 -2.45676589 57 27 14480 60.35200000 3181490138 3181490138 -2.33300000
38.83187485 -64.65264893 -2.63365555 26 28 14481 75.46400000 3181490141 3181490141 -2.00000000
38.16111374 -51.42147446 -1.49005067 30 31 14482 64.05200000 3181490143 3181490143 -1.33300000
3.48070049 -5.21711779 -2.92451835 25 0 14489 6.92000000 3181490164 3181490164 -25.00000000
38.76273727 -47.34194946 -1.06801748 28 1 14489 61.19600000 3181490164 3181490164 -1.00000000
38.28802872 -57.41047668 -2.00829411 28 2 14490 69.03600000 3181490166 3181490166 -1.66700000
6.24354219 -8.43766308 -2.93837142 7 3 14490 10.90000000 3181490166 3181490166 -15.63900000
8.17196274 -12.25797462 -2.94646621 1 4 14491 15.02400000 3181490168 3181490168 -11.31000000
38.10725403 -51.51779938 0.00000000 45 5 14491 64.08000000 3181490168 3181490168 0.00000000
37.96991348 -63.46823883 -0.86102110 29 6 14491 73.96400000 3181490171 3181490171 -0.66700000
10.60055065 -14.33105183 -2.77324319 3 7 14491 18.04000000 3181490171 3181490171 -8.84300000
12.44581127 -18.67582512 -2.85669231 2 8 14492 22.62400000 3181490173 3181490173 -7.25400000
38.71279907 -47.33149719 0.35538691 56 9 14492 61.14800000 3181490173 3181490173 0.33300000
38.45757675 -57.73016357 -0.40316084 84 10 14493 69.36800000 3181490175 3181490175 -0.33300000
14.69420528 -19.87983894 -2.66286111 2 11 14493 24.86400000 3181490175 3181490175 -6.14800000
15.86301708 -26.54721069 -2.88684273 4 12 14494 31.06000000 3181490177 3181490177 -5.33300000
39.73820114 -53.78158188 1.55602491 42 13 14494 66.88800000 3181490177 3181490177 1.33300000
38.37682343 -64.25017548 0.87126523 28 14 14495 74.84400000 3181490180 3181490180 0.66700000
19.90198708 -26.94513702 -2.34242249 13 15 14495 33.58000000 3181490180 3181490180 -4.00000000
18.33975410 -27.56178474 -2.70260239 5 16 14496 33.21600000 3181490182 3181490182 -4.66700000
40.10567856 -49.10438919 1.84515440 56 17 14496 63.42800000 3181490182 3181490182 1.66700000
41.90942001 -62.98331070 1.32051885 28 18 14496 75.66400000 3181490184 3181490184 1.00000000
20.02151871 -24.51384735 -2.02847743 10 19 14496 31.71600000 3181490184 3181490184 -3.66700000
19.88381958 -33.31574249 -2.25951481 26 20 14497 38.86400000 3181490187 3181490187 -3.33300000
106.15554047 -143.82814026 10.41060543 42 21 14497 179.06400000 3181490187 3181490187 3.33300000
42.51631927 -63.94376755 3.12843585 28 22 14498 76.85200000 3181490189 3181490189 2.33300000
20.09750748 -27.23968315 -1.57684672 10 23 14498 33.88800000 3181490189 3181490189 -2.66700000
19.90223122 -29.94392586 -1.88430381 15 24 14499 36.00400000 3181490191 3181490191 -3.00000000
42.41030121 -63.83263397 6.25627708 28 26 14500 76.89200000 3181490194 3181490194 4.66700000
38.25154495 -46.90103149 -2.46572137 28 27 14500 60.57200000 3181490194 3181490194 -2.33300000
38.77989578 -65.07970428 -2.64552140 27 28 14501 75.80400000 3181490196 3181490196 -2.00000000
38.16120148 -51.77951431 -1.49675047 31 31 14501 64.34000000 3181490198 3181490198 -1.33300000
3.46246815 -5.22923565 -2.92451835 17 0 14509 6.92000000 3181490219 3181490219 -25.00000000
38.72843552 -47.63833618 -1.07164752 28 1 14509 61.40400000 3181490219 3181490219 -1.00000000
38.38090134 -57.98721695 -2.02377033 28 2 14510 69.56800000 3181490221 3181490221 -1.66700000
6.22545290 -8.47492695 -2.94376302 5 3 14510 10.92000000 3181490221 3181490221 -15.63900000
8.13778114 -12.29951000 -2.94960403 3 4 14511 15.04000000 3181490224 3181490224 -11.31000000
38.12606049 -51.92132950 0.00000000 45 5 14511 64.41600000 3181490224 3181490224 0.00000000
37.96152878 -63.98536682 -0.86614317 29 6 14512 74.40400000 3181490226 3181490226 -0.66700000
10.56198597 -14.38892555 -2.77693272 3 7 14512 18.06400000 3181490226 3181490226 -8.84300000
12.38930035 -18.73239517 -2.85871267 2 8 14512 22.64000000 3181490228 3181490228 -7.25400000
38.67594528 -47.62469864 0.35657254 56 9 14512 61.35200000 3181490228 3181490228 0.33300000
38.25362015 -57.86071777 -0.40313759 56 10 14513 69.36400000 3181490230 3181490230 -0.33300000
14.68589306 -20.01437759 -2.67399907 2 11 14513 24.96800000 3181490230 3181490230 -6.14800000
15.78650093 -26.62982941 -2.88981700 4 12 14514 31.09200000 3181490233 3181490233 -5.33300000
40.30707932 -54.95180511 1.58580172 43 13 14514 68.16800000 3181490233 3181490233 1.33300000
38.16658783 -64.40782928 0.87159115 28 14 14515 74.87200000 3181490235 3181490235 0.66700000
19.90454865 -27.14637756 -2.35386252 13 15 14515 33.74400000 3181490235 3181490235 -4.00000000
18.30934334 -27.72543907 -2.71236610 5 16 14516 33.33600000 3181490237 3181490237 -4.66700000
40.16320038 -49.52668762 1.85574329 56 17 14516 63.79200000 3181490237 3181490237 1.66700000
41.66948318 -63.12314224 1.32023966 28 18 14517 75.64800000 3181490240 3181490240 1.00000000
20.01700401 -24.69249535 -2.03717566 10 19 14517 31.85200000 3181490240 3181490240 -3.66700000
19.87116623 -33.56018829 -2.27137518 27 20 14517 39.06800000 3181490242 3181490242 -3.33300000
44.07040024 -60.14846039 4.34251976 35 21 14517 74.69200000 3181490242 3181490242 3.33300000
41.09536743 -62.27708435 3.03985691 28 22 14518 74.67600000 3181490244 3181490244 2.33300000
20.08729553 -27.42571640 -1.58354723 10 23 14518 34.03200000 3181490244 3181490244 -2.66700000
19.88996315 -30.15326118 -1.89309621 15 24 14519 36.17200000 3181490247 3181490247 -3.00000000
42.18502808 -63.97695541 6.25595140 28 26 14520 76.88800000 3181490249 3181490249 4.66700000
38.25360107 -47.23926163 -2.47646809 28 27 14520 60.83600000 3181490249 3181490249 -2.33300000
38.79253769 -65.62073517 -2.66199398 27 28 14521 76.27600000 3181490251 3181490251 -2.00000000
38.28718567 -52.33196640 -1.50884724 32 31 14521 64.86000000 3181490254 3181490254 -1.33300000
3.42644548 -5.21824932 -2.91099453 30 0 14531 6.88800000 3181490274 3181490274 -25.00000000
38.68082047 -47.95479202 -1.07541728 56 1 14531 61.62000000 3181490274 3181490274 -1.00000000
38.27205276 -58.30797577 -2.02982116 28 2 14532 69.77600000 3181490277 3181490277 -1.66700000
6.19059753 -8.49565601 -2.94268465 6 3 14532 10.91600000 3181490277 3181490277 -15.63900000
8.09264660 -12.33394527 -2.95038843 3 4 14533 15.04400000 3181490279 3181490279 -11.31000000
38.18783188 -52.42622757 0.00000000 45 5 14533 64.86000000 3181490279 3181490279 0.00000000
37.81694412 -64.30303955 -0.86847138 29 6 14534 74.60400000 3181490281 3181490281 -0.66700000
10.52061844 -14.44854641 -2.78062201 3 7 14534 18.08800000 3181490281 3181490281 -8.84300000
12.33251476 -18.80305290 -2.86224818 2 8 14534 22.66800000 3181490283 3181490283 -7.25400000
38.66094208 -47.98153687 0.35813013 56 9 14534 61.62000000 3181490283 3181490283 0.33300000
38.25267410 -58.34502792 -0.40548560 56 10 14535 69.76800000 3181490286 3181490286 -0.33300000
14.62297821 -20.08991241 -2.67656946 2 11 14535 24.99200000 3181490286 3181490286 -6.14800000
15.69422245 -26.70741653 -2.89167595 4 12 14536 31.11200000 3181490288 3181490288 -5.33300000
40.46751785 -55.61706924 1.60050404 22 13 14536 68.80000000 3181490288 3181490288 1.33300000
38.10132217 -64.86428833 0.87578195 28 14 14537 75.23200000 3181490290 3181490290 0.66700000
19.87527466 -27.32586861 -2.36279130 13 15 14537 33.87200000 3181490290 3181490290 -4.00000000
18.23551178 -27.84556389 -2.71724796 5 16 14538 33.39600000 3181490293 3181490293 -4.66700000
39.99028397 -49.70234299 1.85655785 28 17 14538 63.82000000 3181490293 3181490293 1.66700000
41.42908096 -63.26206207 1.31996036 28 18 14538 75.63200000 3181490295 3181490295 1.00000000
20.00394058 -24.86210823 -2.04510617 10 19 14538 31.97600000 3181490295 3181490295 -3.66700000
19.90588379 -33.91519547 -2.29021239 27 20 14539 39.39200000 3181490297 3181490297 -3.33300000
44.95194626 -61.84834290 4.45275116 37 21 14539 76.58800000 3181490297 3181490297 3.33300000
42.53665924 -65.00283051 3.16490960 28 22 14540 77.74800000 3181490300 3181490300 2.33300000
20.05934525 -27.60931969 -1.58968925 10 23 14540 34.16400000 3181490300 3181490300 -2.66700000
19.87462425 -30.38318062 -1.90272605 15 24 14541 36.35600000 3181490302 3181490302 -3.00000000
42.39506912 -64.83583832 6.32397223 28 26 14542 77.72400000 3181490304 3181490304 4.66700000
38.28220749 -47.64751053 -2.49014568 57 27 14542 61.17200000 3181490304 3181490304 -2.33300000
38.73027039 -66.09341431 -2.67511630 27 28 14543 76.65200000 3181490307 3181490307 -2.00000000
38.27621460 -52.74074173 -1.51638448 32 31 14543 65.18400000 3181490309 3181490309 -1.33300000
3.40013361 -5.21380520 -2.90254211 23 0 14549 6.86800000 3181490329 3181490329 -25.00000000
38.65753555 -48.23523331 -1.07897758 56 1 14549 61.82400000 3181490329 3181490329 -1.00000000
38.29611588 -58.74612045 -2.04087543 28 2 14550 70.15600000 3181490331 3181490331 -1.66700000
6.17517042 -8.53066349 -2.94807625 6 3 14550 10.93600000 3181490331 3181490331 -15.63900000
8.06028271 -12.36916733 -2.95274186 3 4 14551 15.05600000 3181490334 3181490334 -11.31000000
38.17301559 -52.75333405 0.00000000 46 5 14551 65.11600000 3181490334 3181490334 0.00000000
38.12226105 -65.26457214 -0.87992620 29 6 14551 75.58800000 3181490336 3181490336 -0.66700000
10.48928738 -14.49570751 -2.78369665 3 7 14551 18.10800000 3181490336 3181490336 -8.84300000
12.32969284 -18.92815018 -2.87538004 2 8 14552 22.77200000 3181490338 3181490338 -7.25400000
38.60750580 -48.22453308 0.35903677 84 9 14552 61.77600000 3181490338 3181490338 0.33300000
38.30273056 -58.82357407 -0.40797308 56 10 14553 70.19600000 3181490341 3181490341 -0.33300000
14.58076477 -20.16475677 -2.68042493 2 11 14553 25.02800000 3181490341 3181490341 -6.14800000
15.64837360 -26.82195091 -2.89873958 4 12 14554 31.18800000 3181490343 3181490343 -5.33300000
43.33093643 -59.94740677 1.72119319 25 13 14554 73.98800000 3181490343 3181490343 1.33300000
38.03235626 -65.21516418 0.87890178 28 14 14555 75.50000000 3181490345 3181490345 0.66700000
19.88748169 -27.52401543 -2.37451029 13 15 14555 34.04000000 3181490345 3181490345 -4.00000000
18.22836876 -28.02637100 -2.72928977 5 16 14556 33.54400000 3181490347 3181490347 -4.66700000
40.74271774 -50.96450806 1.89891374 28 17 14556 65.27600000 3181490347 3181490347 1.66700000
40.68717194 -62.55709457 1.30257785 28 18 14556 74.63600000 3181490350 3181490350 1.00000000
20.01048470 -25.03083992 -2.05380440 10 19 14556 32.11200000 3181490350 3181490350 -3.66700000
19.90177345 -34.15352249 -2.30207276 18 20 14557 39.59600000 3181490352 3181490352 -3.33300000
43.66344070 -60.47408676 4.34391499 71 21 14557 74.71600000 3181490352 3181490352 3.33300000
44.61251831 -68.64478302 3.33539176 28 22 14558 81.93600000 3181490354 3181490354 2.33300000
20.04733849 -27.77587891 -1.59564531 10 23 14558 34.29200000 3181490354 3181490354 -2.66700000
19.87917709 -30.59955597 -1.91235590 16 24 14559 36.54000000 3181490357 3181490357 -3.00000000
42.24328232 -65.04895020 6.33178329 28 26 14560 77.82000000 3181490359 3181490359 4.66700000
38.15726471 -47.79877853 -2.49177408 28 27 14560 61.21200000 3181490359 3181490359 -2.33300000
38.74356842 -66.59484863 -2.69047189 27 28 14561 77.09200000 3181490361 3181490361 -2.00000000
38.25299454 -53.05860138 -1.52206075 32 31 14561 65.42800000 3181490364 3181490364 -1.33300000
3.37600446 -5.21651173 -2.89747071 19 0 14569 6.85600000 3181490384 3181490384 -25.00000000
38.40674973 -48.26660538 -1.07667387 56 1 14569 61.69200000 3181490384 3181490384 -1.00000000
38.81184769 -59.99398422 -2.07950783 28 2 14570 71.48400000 3181490387 3181490387 -1.66700000
6.15209818 -8.56155109 -2.95131111 5 3 14570 10.94800000 3181490387 3181490387 -15.63900000
8.07243538 -12.48286152 -2.97313809 3 4 14571 15.16000000 3181490389 3181490389 -11.31000000
38.16832733 -53.13641357 0.00000000 46 5 14571 65.42400000 3181490389 3181490389 0.00000000
37.70571136 -65.07194519 -0.87554914 29 6 14571 75.21200000 3181490391 3181490391 -0.66700000
10.45476532 -14.55470467 -2.78800106 3 7 14571 18.13600000 3181490391 3181490391 -8.84300000
12.26354599 -18.97107315 -2.87538004 2 8 14572 22.77200000 3181490394 3181490394 -7.25400000
38.44391251 -48.36526871 0.35908327 56 9 14572 61.78400000 3181490394 3181490394 0.33300000
38.15361023 -59.04426575 -0.40857753 56 10 14573 70.30000000 3181490396 3181490396 -0.33300000
14.52652073 -20.23814583 -2.68342376 2 11 14573 25.05600000 3181490396 3181490396 -6.14800000
15.60652065 -26.96603394 -2.90840578 4 12 14574 31.29200000 3181490398 3181490398 -5.33300000
43.10976028 -60.08205032 1.72072792 50 13 14574 73.96800000 3181490398 3181490398 1.33300000
38.34926987 -66.28921509 0.89156729 28 14 14575 76.58800000 3181490400 3181490400 0.66700000
19.87733269 -27.71323776 -2.38483429 13 15 14575 34.18800000 3181490400 3181490400 -4.00000000
18.13907433 -28.10322762 -2.73059177 5 16 14576 33.56000000 3181490403 3181490403 -4.66700000
41.05177307 -51.72023392 1.92172062 28 17 14576 66.06000000 3181490403 3181490403 1.66700000
40.46855927 -62.69873810 1.30257785 28 18 14576 74.63600000 3181490405 3181490405 1.00000000
20.00488472 -25.20371628 -2.06224680 10 19 14576 32.24400000 3181490405 3181490405 -3.66700000
19.89234734 -34.41292953 -2.31486320 18 20 14577 39.81600000 3181490407 3181490407 -3.33300000
43.42649078 -60.59042740 4.34135675 35 21 14577 74.67200000 3181490407 3181490407 3.33300000
42.93426895 -66.56990051 3.22727323 28 22 14578 79.28000000 3181490410 3181490410 2.33300000
20.03170776 -27.95936966 -1.60215962 10 23 14578 34.43200000 3181490410 3181490410 -2.66700000
19.86531448 -30.81312370 -1.92135763 16 24 14579 36.71200000 3181490412 3181490412 -3.00000000
43.00292206 -66.72747040 6.48051739 28 26 14580 79.64800000 3181490414 3181490414 4.66700000
38.21361160 -48.21357727 -2.50642872 57 27 14580 61.57200000 3181490414 3181490414 -2.33300000
38.10923767 -66.03375244 -2.66241288 27 28 14581 76.28800000 3181490417 3181490417 -2.00000000
38.18158722 -53.35115051 -1.52662027 33 31 14581 65.62400000 3181490419 3181490419 -1.33300000
3.37057161 -5.25020504 -2.90930414 17 0 14590 6.88400000 3181490440 3181490440 -25.00000000
38.36095810 -48.57339859 -1.08037376 28 1 14590 61.90400000 3181490440 3181490440 -1.00000000
38.57226562 -60.10554886 -2.07846045 28 2 14591 71.44800000 3181490442 3181490442 -1.66700000
6.11844110 -8.58090591 -2.95023274 6 3 14591 10.94400000 3181490442 3181490442 -15.63900000
8.02874660 -12.51566601 -2.97392249 3 4 14592 15.16400000 3181490444 3181490444 -11.31000000
38.12654495 -53.49093246 0.00000000 46 5 14592 65.68800000 3181490444 3181490444 0.00000000
37.16806793 -64.68949890 -0.86856449 29 6 14592 74.61200000 3181490447 3181490447 -0.66700000
10.42199612 -14.62189293 -2.79353523 2 7 14592 18.17200000 3181490447 3181490447 -8.84300000
12.20892429 -19.03927612 -2.87891555 2 8 14593 22.80000000 3181490449 3181490449 -7.25400000
38.42742157 -48.70996857 0.36059436 56 9 14593 62.04400000 3181490449 3181490449 0.33300000
38.32332993 -59.78649139 -0.41273886 28 10 14594 71.01600000 3181490451 3181490451 -0.33300000
14.51684856 -20.38195419 -2.69541860 2 11 14594 25.16800000 3181490451 3181490451 -6.14800000
15.55119133 -27.09904671 -2.91658497 4 12 14595 31.38000000 3181490453 3181490453 -5.33300000
43.40647125 -60.96609879 1.74147868 51 13 14595 74.86000000 3181490453 3181490453 1.33300000
38.14585114 -66.49871826 0.89249855 28 14 14596 76.66800000 3181490456 3181490456 0.66700000
19.86354828 -27.90944290 -2.39543724 13 15 14596 34.34000000 3181490456 3181490456 -4.00000000
18.12838745 -28.31389427 -2.74458647 6 16 14597 33.73200000 3181490458 3181490458 -4.66700000
40.88420105 -51.89861298 1.92276800 56 17 14597 66.09600000 3181490458 3181490458 1.66700000
40.33315659 -63.01872253 1.30599844 28 18 14598 74.83200000 3181490460 3181490460 1.00000000
19.99193001 -25.38697243 -2.07094502 11 19 14598 32.38000000 3181490460 3181490460 -3.66700000
19.87132835 -34.66922760 -2.32718873 19 20 14598 40.02800000 3181490463 3181490463 -3.33300000
43.78965378 -61.57249832 4.40019369 36 21 14598 75.68400000 3181490463 3181490463 3.33300000
43.77124023 -68.41687012 3.30901337 28 22 14599 81.28800000 3181490465 3181490465 2.33300000
20.01244354 -28.14983940 -1.60886014 10 23 14599 34.57600000 3181490465 3181490465 -2.66700000
19.85554886 -31.04725647 -1.93140614 24 24 14600 36.90400000 3181490467 3181490467 -3.00000000
42.75806427 -66.88463593 6.48051739 28 26 14601 79.64800000 3181490470 3181490470 4.66700000
38.40482712 -48.82136154 -2.53069019 28 27 14601 62.16800000 3181490470 3181490470 -2.33300000
38.94506836 -68.05699921 -2.73821449 28 28 14602 78.46000000 3181490472 3181490472 -2.00000000
38.05756760 -53.59180832 -1.52950490 33 31 14602 65.74800000 3181490474 3181490474 -1.33300000
3.37170291 -5.29251337 -2.92620873 17 0 14610 6.92400000 3181490495 3181490495 -25.00000000
38.38859177 -48.95878601 -1.08595848 28 1 14610 62.22400000 3181490495 3181490495 -1.00000000
38.35577774 -60.22970963 -2.07811141 28 2 14611 71.43600000 3181490497 3181490497 -1.66700000
6.09735203 -8.61478710 -2.95454597 5 3 14611 10.96000000 3181490497 3181490497 -15.63900000
7.98711634 -12.54692459 -2.97470713 5 4 14612 15.16800000 3181490499 3181490499 -11.31000000
38.02738571 -53.74777603 0.00000000 46 5 14612 65.84000000 3181490499 3181490499 0.00000000
36.83766556 -64.66194916 -0.86637598 29 6 14613 74.42400000 3181490502 3181490502 -0.66700000
10.37974548 -14.67612743 -2.79660988 3 7 14613 18.19200000 3181490502 3181490502 -8.84300000
12.15943241 -19.10855865 -2.88295603 2 8 14613 22.83200000 3181490504 3181490504 -7.25400000
38.46434021 -49.10832596 0.36254719 56 9 14613 62.38000000 3181490504 3181490504 0.33300000
38.33123016 -60.26077652 -0.41508687 56 10 14614 71.42000000 3181490506 3181490506 -0.33300000
14.45250130 -20.44224548 -2.69670367 2 11 14614 25.18000000 3181490506 3181490506 -6.14800000
15.50969982 -27.24661827 -2.92662287 4 12 14615 31.48800000 3181490509 3181490509 -5.33300000
43.14492798 -61.04866409 1.73952460 51 13 14615 74.77600000 3181490509 3181490509 1.33300000
37.89173889 -66.59323120 0.89198637 28 14 14616 76.62400000 3181490511 3181490511 0.66700000
19.85579681 -28.10571098 -2.40631938 13 15 14616 34.49600000 3181490511 3181490511 -4.00000000
18.04227066 -28.39719200 -2.74653912 6 16 14617 33.75600000 3181490513 3181490513 -4.66700000
41.03040695 -52.45988464 1.93824410 56 17 14617 66.62800000 3181490513 3181490513 1.66700000
40.20545578 -63.28039932 1.30865121 28 18 14617 74.98400000 3181490516 3181490516 1.00000000
19.98878860 -25.55689049 -2.07938743 11 19 14617 32.51200000 3181490516 3181490516 -3.66700000
19.85873795 -34.92930603 -2.33997941 19 20 14618 40.24800000 3181490518 3181490518 -3.33300000
42.88126373 -60.74304199 4.33019447 35 21 14618 74.48000000 3181490518 3181490518 3.33300000
43.48074341 -68.48826599 3.30510545 28 22 14619 81.19200000 3181490520 3181490520 2.33300000
19.99930191 -28.34031487 -1.61574674 11 23 14619 34.72400000 3181490520 3181490520 -2.66700000
19.84550858 -31.27151871 -1.94103599 24 24 14620 37.08800000 3181490523 3181490523 -3.00000000
42.53073883 -67.04358673 6.48149395 28 26 14621 79.66000000 3181490525 3181490525 4.66700000
38.35717773 -49.11261368 -2.53883171 28 27 14621 62.36800000 3181490525 3181490525 -2.33300000
38.86908340 -68.47760773 -2.74966145 28 28 14622 78.78800000 3181490527 3181490527 -2.00000000
38.14420319 -54.13301086 -1.54095042 34 31 14623 66.24000000 3181490529 3181490529 -1.33300000
3.34250760 -5.28528166 -2.91606593 13 0 14629 6.90000000 3181490550 3181490550 -25.00000000
38.33415222 -49.22465897 -1.08903015 56 1 14629 62.40000000 3181490550 3181490550 -1.00000000
38.34171677 -60.65059662 -2.08823490 28 2 14630 71.78400000 3181490552 3181490552 -1.66700000
6.07096577 -8.63811016 -2.95562434 6 3 14630 10.96400000 3181490552 3181490552 -15.63900000
7.90984488 -12.51697350 -2.96137118 3 4 14631 15.10000000 3181490555 3181490555 -11.31000000
38.14097214 -54.28925323 0.00000000 46 5 14631 66.34800000 3181490555 3181490555 0.00000000
36.80215454 -65.10060120 -0.87061334 29 6 14632 74.78800000 3181490557 3181490557 -0.66700000
10.34919262 -14.73634338 -2.80152917 3 7 14632 18.22400000 3181490557 3181490557 -8.84300000
12.11295223 -19.17561340 -2.88699675 2 8 14632 22.86400000 3181490559 3181490559 -7.25400000
38.48302460 -49.46923447 0.36426750 56 9 14632 62.67600000 3181490559 3181490559 0.33300000
38.32125473 -60.68856049 -0.41715592 56 10 14633 71.77600000 3181490562 3181490562 -0.33300000
14.41890907 -20.53888321 -2.70312953 2 11 14633 25.24000000 3181490562 3181490562 -6.14800000
15.45256042 -27.35685158 -2.93294311 4 12 14634 31.55600000 3181490564 3181490564 -5.33300000
42.97900009 -61.24377441 1.74101341 25 13 14634 74.84000000 3181490564 3181490564 1.33300000
38.11119843 -67.49868774 0.90241677 28 14 14635 77.52000000 3181490566 3181490566 0.66700000
19.85644150 -28.30533218 -2.41775942 14 15 14635 34.66000000 3181490566 3181490566 -4.00000000
17.99691963 -28.53442383 -2.75402474 6 16 14636 33.84800000 3181490569 3181490569 -4.66700000
40.98621368 -52.76300812 1.94441128 84 17 14636 66.84000000 3181490569 3181490569 1.66700000
40.11700058 -63.60619736 1.31263041 28 18 14636 75.21200000 3181490571 3181490571 1.00000000
19.99208641 -25.73652267 -2.08859730 11 19 14636 32.65600000 3181490571 3181490571 -3.66700000
19.84875488 -35.18277740 -2.35253739 19 20 14637 40.46400000 3181490573 3181490573 -3.33300000
42.67042923 -60.87182617 4.32926416 35 21 14637 74.46400000 3181490573 3181490573 3.33300000
40.32550430 -63.98627090 3.08137822 28 22 14638 75.69600000 3181490576 3181490576 2.33300000
19.99463844 -28.53409767 -1.62300563 11 23 14638 34.88000000 3181490576 3181490576 -2.66700000
19.85454559 -31.51628494 -1.95213115 24 24 14639 37.30000000 3181490578 3181490578 -3.00000000
42.25082016 -67.09316254 6.47270679 28 26 14640 79.55200000 3181490580 3181490580 4.66700000
38.34842682 -49.43849564 -2.54908991 28 27 14640 62.62000000 3181490580 3181490580 -2.33300000
38.89878845 -69.06240845 -2.76794887 28 28 14641 79.31200000 3181490582 3181490582 -2.00000000
38.07026291 -54.39017105 -1.54485857 34 31 14641 66.40800000 3181490585 3181490585 -1.33300000
3.33081937 -5.30978107 -2.92282796 20 0 14650 6.91600000 3181490605 3181490605 -25.00000000
38.31000137 -49.56735229 -1.09349799 28 1 14650 62.65600000 3181490605 3181490605 -1.00000000
38.32519913 -61.11929703 -2.09952211 28 2 14651 72.17200000 3181490608 3181490608 -1.66700000
6.04367161 -8.66662312 -2.95778084 6 3 14651 10.97200000 3181490608 3181490608 -15.63900000
7.87433052 -12.56249809 -2.96529341 3 4 14652 15.12000000 3181490610 3181490610 -11.31000000
38.02408600 -54.54681396 0.00000000 47 5 14652 66.49200000 3181490610 3181490610 0.00000000
36.85441971 -65.72755432 -0.87727201 29 6 14652 75.36000000 3181490612 3181490612 -0.66700000
10.31577206 -14.79831791 -2.80644822 3 7 14652 18.25600000 3181490612 3181490612 -8.84300000
12.09525967 -19.30394173 -2.89962339 2 8 14653 22.96400000 3181490615 3181490615 -7.25400000
38.30633926 -49.61628342 0.36431399 56 9 14653 62.68400000 3181490615 3181490615 0.33300000
38.21533966 -61.01505280 -0.41843453 56 10 14654 71.99600000 3181490617 3181490617 -0.33300000
14.34807968 -20.59811974 -2.70398617 2 11 14654 25.24800000 3181490617 3181490617 -6.14800000
15.42224503 -27.53840065 -2.94632697 4 12 14655 31.70000000 3181490619 3181490619 -5.33300000
42.82736588 -61.50590515 1.74399114 51 13 14655 74.96800000 3181490619 3181490619 1.33300000
37.73264694 -67.40408325 0.89929694 28 14 14656 77.25200000 3181490622 3181490622 0.66700000
19.84830475 -28.51546860 -2.42947841 14 15 14656 34.82800000 3181490622 3181490622 -4.00000000
17.94718933 -28.68807030 -2.76248670 6 16 14657 33.95200000 3181490624 3181490624 -4.66700000
40.77790833 -52.89387512 1.94371307 84 17 14657 66.81600000 3181490624 3181490624 1.66700000
39.80936432 -63.63413620 1.31018710 28 18 14657 75.07200000 3181490626 3181490626 1.00000000
19.98292732 -25.92027283 -2.09755135 11 19 14657 32.79600000 3181490626 3181490626 -3.66700000
19.81713676 -35.42954636 -2.36416507 19 20 14658 40.66400000 3181490629 3181490629 -3.33300000
42.32390976 -60.85078812 4.31670618 70 21 14658 74.24800000 3181490629 3181490629 3.33300000
42.75156403 -68.39024353 3.28589177 28 22 14659 80.72000000 3181490631 3181490631 2.33300000
19.97203445 -28.72529221 -1.62970603 11 23 14659 35.02400000 3181490631 3181490631 -2.66700000
19.84262085 -31.75483322 -1.96238899 16 24 14660 37.49600000 3181490633 3181490633 -3.00000000
41.32876968 -66.16555023 6.36855984 28 26 14661 78.27200000 3181490635 3181490635 4.66700000
38.49122238 -49.99991989 -2.57074618 28 27 14661 63.15200000 3181490635 3181490635 -2.33300000
38.87148666 -69.60938263 -2.78414226 28 28 14662 79.77600000 3181490638 3181490638 -2.00000000
38.06410599 -54.82830811 -1.55314028 35 31 14663 66.76400000 3181490640 3181490640 -1.33300000
3.31220508 -5.31714201 -2.92113733 18 0 14668 6.91200000 3181490661 3181490661 -25.00000000
38.39036560 -49.99515152 -1.10026956 56 1 14668 63.04400000 3181490661 3181490661 -1.00000000
38.48594666 -61.80620956 -2.11895442 28 2 14669 72.84000000 3181490663 3181490663 -1.66700000
6.02080154 -8.69189930 -2.95993757 6 3 14669 10.98000000 3181490663 3181490663 -15.63900000
7.84311628 -12.60049343 -2.96843123 3 4 14670 15.13600000 3181490665 3181490665 -11.31000000
38.08935547 -55.00801468 0.00000000 47 5 14670 66.90800000 3181490665 3181490665 0.00000000
36.67887497 -65.89893341 -0.87801707 29 6 14670 75.42400000 3181490668 3181490668 -0.66700000
10.28273106 -14.85015011 -2.81013775 3 7 14670 18.28000000 3181490668 3181490668 -8.84300000
12.04713249 -19.36205864 -2.90265393 2 8 14671 22.98800000 3181490670 3181490670 -7.25400000
38.47892761 -50.16484070 0.36745244 56 9 14671 63.22400000 3181490670 3181490670 0.33300000
38.08261871 -61.22991180 -0.41908547 56 10 14672 72.10800000 3181490672 3181490672 -0.33300000
14.34213352 -20.72812653 -2.71512437 2 11 14672 25.35200000 3181490672 3181490672 -6.14800000
15.34533024 -27.60412025 -2.94818592 4 12 14673 31.72000000 3181490675 3181490675 -5.33300000
42.75449371 -61.81445694 1.74892282 51 13 14673 75.18000000 3181490675 3181490675 1.33300000
37.43716431 -67.37194824 0.89729470 28 14 14674 77.08000000 3181490677 3181490677 0.66700000
19.84485626 -28.70240593 -2.44008136 14 15 14674 34.98000000 3181490677 3181490677 -4.00000000
17.89273834 -28.80188179 -2.76801944 6 16 14675 34.02000000 3181490679 3181490679 -4.66700000
40.74039078 -53.18995667 1.94988036 56 17 14675 67.02800000 3181490679 3181490679 1.66700000
39.67890167 -63.87099457 1.31249082 28 18 14675 75.20400000 3181490682 3181490682 1.00000000
19.98635292 -26.09383965 -2.10650563 11 19 14675 32.93600000 3181490682 3181490682 -3.66700000
19.86855888 -35.78488922 -2.38369989 19 20 14676 41.00000000 3181490684 3181490684 -3.33300000
42.19154739 -61.06887054 4.32275248 35 21 14676 74.35200000 3181490684 3181490684 3.33300000
41.88095856 -67.46816254 3.23525190 28 22 14677 79.47600000 3181490686 3181490686 2.33300000
19.96797752 -28.91283035 -1.63677883 11 23 14677 35.17600000 3181490686 3181490686 -2.66700000
19.85017586 -31.99011612 -1.97306550 25 24 14678 37.70000000 3181490688 3181490688 -3.00000000
40.39991379 -65.13300323 6.25692797 28 26 14679 76.90000000 3181490691 3181490691 4.66700000
38.46749496 -50.29520035 -2.57970166 57 27 14679 63.37200000 3181490691 3181490691 -2.33300000
38.85416794 -70.09477997 -2.79866052 28 28 14680 80.19200000 3181490693 3181490693 -2.00000000
38.13457870 -55.29986954 -1.56309688 35 31 14681 67.19200000 3181490695 3181490695 -1.33300000
3.30315471 -5.34408998 -2.92958975 19 0 14688 6.93200000 3181490716 3181490716 -25.00000000
38.33200073 -50.28152084 -1.10362041 56 1 14688 63.23600000 3181490716 3181490716 -1.00000000
38.28467941 -61.96398544 -2.11976910 28 2 14689 72.86800000 3181490718 3181490718 -1.66700000
5.98824215 -8.70968914 -2.95885921 9 3 14689 10.97600000 3181490718 3181490718 -15.63900000
7.80526781 -12.63780594 -2.97078466 3 4 14690 15.14800000 3181490721 3181490721 -11.31000000
38.23468781 -55.63181305 0.00000000 47 5 14690 67.50400000 3181490721 3181490721 0.00000000
36.80429077 -66.67086029 -0.88658488 29 6 14690 76.16000000 3181490723 3181490723 -0.66700000
10.24202538 -14.90223980 -2.81321239 3 7 14690 18.30000000 3181490723 3181490723 -8.84300000
11.98572636 -19.41412354 -2.90416908 2 8 14691 23.00000000 3181490725 3181490725 -7.25400000
38.44171524 -50.48023987 0.36877754 56 9 14691 63.45200000 3181490725 3181490725 0.33300000
38.01990128 -61.60755539 -0.42075929 56 10 14692 72.39600000 3181490728 3181490728 -0.33300000
14.28545094 -20.80101204 -2.71812320 5 11 14692 25.38000000 3181490728 3181490728 -6.14800000
15.28926182 -27.73075867 -2.95599318 4 12 14693 31.80400000 3181490730 3181490730 -5.33300000
43.11559677 -62.80400467 1.77265131 26 13 14693 76.20000000 3181490730 3181490730 1.33300000
37.12840271 -67.36911011 0.89552522 28 14 14694 76.92800000 3181490732 3181490732 0.66700000
19.83034134 -28.89652443 -2.45068455 9 15 14694 35.13200000 3181490732 3181490732 -4.00000000
17.85066795 -28.95918846 -2.77713227 6 16 14695 34.13200000 3181490735 3181490735 -4.66700000
40.59803772 -53.38912964 1.95197487 56 17 14695 67.10000000 3181490735 3181490735 1.66700000
39.59211731 -64.23040771 1.31702840 28 18 14695 75.46400000 3181490737 3181490737 1.00000000
19.98696327 -26.28418922 -2.11622715 11 19 14695 33.08800000 3181490737 3181490737 -3.66700000
19.84753990 -36.04291534 -2.39625788 19 20 14696 41.21600000 3181490739 3181490739 -3.33300000
42.30106354 -61.68671799 4.35600805 35 21 14696 74.92400000 3181490739 3181490739 3.33300000
41.68501663 -67.67860413 3.23834562 28 22 14697 79.55200000 3181490741 3181490741 2.33300000
19.95729637 -29.11418343 -1.64422381 11 23 14697 35.33600000 3181490741 3181490741 -2.66700000
19.83472443 -32.21567917 -1.98269534 25 24 14698 37.88400000 3181490744 3181490744 -3.00000000
40.32902908 -65.52827454 6.28133726 28 26 14699 77.20000000 3181490746 3181490746 4.66700000
38.42704773 -50.60742188 -2.58882022 57 27 14699 63.59600000 3181490746 3181490746 -2.33300000
38.87502289 -70.71340179 -2.81792498 28 28 14700 80.74400000 3181490748 3181490748 -2.00000000
38.02262878 -55.55144501 -1.56644678 35 31 14701 67.33600000 3181490751 3181490751 -1.33300000
3.27121353 -5.33395481 -2.91775656 17 0 14708 6.90400000 3181490771 3181490771 -25.00000000
38.28899765 -50.59041595 -1.10745990 56 1 14708 63.45600000 3181490771 3181490771 -1.00000000
38.26458359 -62.41766739 -2.13070703 28 2 14709 73.24400000 3181490774 3181490774 -1.66700000
5.95997429 -8.73372078 -2.95993757 9 3 14709 10.98000000 3181490774 3181490774 -15.63900000
7.77135324 -12.68169594 -2.97470713 3 4 14710 15.16800000 3181490776 3181490776 -11.31000000
38.25440216 -56.07885742 0.00000000 47 5 14710 67.88400000 3181490776 3181490776 0.00000000
37.43760681 -68.38118744 -0.90758538 29 6 14710 77.96400000 3181490778 3181490778 -0.66700000
10.20108128 -14.95422554 -2.81628680 3 7 14710 18.32000000 3181490778 3181490778 -8.84300000
11.93239403 -19.47952843 -2.90770459 2 8 14711 23.02800000 3181490781 3181490781 -7.25400000
38.22667694 -50.56306839 0.36840558 56 9 14711 63.38800000 3181490781 3181490781 0.33300000
37.72733307 -61.61367798 -0.41989914 56 10 14712 72.24800000 3181490783 3181490783 -0.33300000
14.15675545 -20.76859665 -2.70741343 8 11 14712 25.28000000 3181490783 3181490783 -6.14800000
15.23249626 -27.85734177 -2.96380043 4 12 14713 31.88800000 3181490785 3181490785 -5.33300000
42.80153275 -62.81532669 1.76874304 26 13 14713 76.03200000 3181490785 3181490785 1.33300000
36.86232376 -67.44214630 0.89478022 28 14 14714 76.86400000 3181490787 3181490787 0.66700000
19.83043861 -29.11397552 -2.46324062 14 15 14714 35.31200000 3181490787 3181490787 -4.00000000
17.78275299 -29.07574081 -2.78233957 6 16 14715 34.19600000 3181490790 3181490790 -4.66700000
40.50056076 -53.64858627 1.95628023 56 17 14715 67.24800000 3181490790 3181490790 1.66700000
38.84807968 -63.51866150 1.29964578 28 18 14715 74.46800000 3181490792 3181490792 1.00000000
19.98167610 -26.46849060 -2.12543702 11 19 14715 33.23200000 3181490792 3181490792 -3.66700000
19.83261681 -36.31524658 -2.40974617 19 20 14716 41.44800000 3181490794 3181490794 -3.33300000
42.43149185 -62.34237671 4.39182186 36 21 14716 75.54000000 3181490794 3181490794 3.33300000
42.41971207 -69.41288757 3.31422400 28 22 14717 81.41600000 3181490797 3181490797 2.33300000
19.94545364 -29.31581306 -1.65166879 11 23 14717 35.49600000 3181490797 3181490797 -2.66700000
19.83043289 -32.46197891 -1.99358130 17 24 14718 38.09200000 3181490799 3181490799 -3.00000000
40.21640015 -65.85918427 6.29956293 28 26 14719 77.42400000 3181490801 3181490801 4.66700000
38.36082840 -50.88805771 -2.59631038 28 27 14719 63.78000000 3181490801 3181490801 -2.33300000
38.88245773 -71.31547546 -2.83649158 28 28 14720 81.27600000 3181490804 3181490804 -2.00000000
38.33858871 -56.43470383 -1.58756971 18 31 14721 68.24400000 3181490806 3181490806 -1.33300000
3.25445890 -5.34843826 -2.91944695 27 0 14728 6.90800000 3181490827 3181490827 -25.00000000
38.11217117 -50.72375870 -1.10745990 56 1 14728 63.45600000 3181490827 3181490827 -1.00000000
38.26048279 -62.90270615 -2.14269233 28 2 14729 73.65600000 3181490829 3181490829 -1.66700000
5.94673204 -8.77998543 -2.96856380 6 3 14729 11.01200000 3181490829 3181490829 -15.63900000
7.74334049 -12.73555756 -2.98098278 3 4 14730 15.20000000 3181490831 3181490831 -11.31000000
38.18624496 -56.40084457 0.00000000 48 5 14730 68.11200000 3181490831 3181490831 0.00000000
37.13761139 -68.39897156 -0.90609533 29 6 14730 77.83600000 3181490834 3181490834 -0.66700000
10.16433048 -15.01265335 -2.82059121 3 7 14730 18.34800000 3181490834 3181490834 -8.84300000
11.88905525 -19.56175041 -2.91376543 2 8 14731 23.07600000 3181490836 3181490836 -7.25400000
38.40050507 -51.16326523 0.37179974 56 9 14731 63.97200000 3181490836 3181490836 0.33300000
37.78202057 -62.18940353 -0.42292133 28 10 14732 72.76800000 3181490838 3181490838 -0.33300000
14.10868645 -20.85412025 -2.71212554 28 11 14732 25.32400000 3181490838 3181490838 -6.14800000
15.16364098 -27.96285820 -2.96937704 4 12 14733 31.94800000 3181490840 3181490840 -5.33300000
42.48791885 -62.82522202 1.76483488 26 13 14733 75.86400000 3181490840 3181490840 1.33300000
36.69530106 -67.69699860 0.89645654 28 14 14734 77.00800000 3181490843 3181490843 0.66700000
19.81808090 -29.31524849 -2.47440171 14 15 14734 35.47200000 3181490843 3181490843 -4.00000000
17.71010780 -29.18535233 -2.78689599 6 16 14735 34.25200000 3181490845 3181490845 -4.66700000
40.17876434 -53.61046219 1.94976401 56 17 14735 67.02400000 3181490845 3181490845 1.66700000
38.71326447 -63.79748535 1.30257785 28 18 14735 74.63600000 3181490847 3181490847 1.00000000
19.97534561 -26.65307236 -2.13464689 11 19 14735 33.37600000 3181490847 3181490847 -3.66700000
19.81032753 -36.57737732 -2.42253661 19 20 14736 41.66800000 3181490850 3181490850 -3.33300000
42.40138245 -62.76806641 4.41135645 74 21 14736 75.87600000 3181490850 3181490850 3.33300000
39.28853607 -64.79649353 3.08724022 28 22 14737 75.84000000 3181490852 3181490852 2.33300000
19.93467903 -29.52102470 -1.65929985 11 23 14737 35.66000000 3181490852 3181490852 -2.66700000
19.82880402 -32.71546936 -2.00488591 26 24 14738 38.30800000 3181490854 3181490854 -3.00000000
39.84371948 -65.76389313 6.27710629 28 26 14739 77.14800000 3181490857 3181490857 4.66700000
38.19254303 -51.03445053 -2.59696174 28 27 14739 63.79600000 3181490857 3181490857 -2.33300000
38.85764313 -71.86570740 -2.85296416 28 28 14740 81.74800000 3181490859 3181490859 -2.00000000
38.15123367 -56.56152725 -1.58756971 37 31 14740 68.24400000 3181490861 3181490861 -1.33300000
3.20579147 -5.31010962 -2.89239931 16 0 14748 6.84400000 3181490882 3181490882 -25.00000000
38.17639542 -51.18027115 -1.11451066 28 1 14748 63.86000000 3181490882 3181490882 -1.00000000
38.62118530 -63.99781418 -2.17539024 28 2 14749 74.78000000 3181490884 3181490884 -1.66700000
5.92679310 -8.81667423 -2.97395539 6 3 14749 11.03200000 3181490884 3181490884 -15.63900000
7.70288992 -12.76922607 -2.98255181 3 4 14750 15.20800000 3181490887 3181490887 -11.31000000
38.14084244 -56.75955963 0.00000000 48 5 14750 68.38400000 3181490887 3181490887 0.00000000
37.02504730 -68.79174042 -0.90949452 29 6 14751 78.12800000 3181490889 3181490889 -0.66700000
10.12686920 -15.07605457 -2.82551050 3 7 14751 18.38000000 3181490889 3181490889 -8.84300000
11.82684708 -19.61332703 -2.91528082 2 8 14751 23.08800000 3181490891 3181490891 -7.25400000
38.35073090 -51.47019958 0.37305513 56 9 14751 64.18800000 3181490891 3181490891 0.33300000
37.76707077 -62.65662766 -0.42519960 28 10 14752 73.16000000 3181490893 3181490893 -0.33300000
14.07127857 -20.95606804 -2.71897984 48 11 14752 25.38800000 3181490893 3181490893 -6.14800000
15.14705181 -28.16644859 -2.98536348 4 12 14753 32.12000000 3181490896 3181490896 -5.33300000
42.33967209 -63.07940292 1.76781249 26 13 14753 75.99200000 3181490896 3181490896 1.33300000
37.27308655 -69.33956146 0.91647917 28 14 14754 78.72800000 3181490898 3181490898 0.66700000
19.80900764 -29.52341461 -2.48612070 14 15 14754 35.64000000 3181490898 3181490898 -4.00000000
17.66981316 -29.34946060 -2.79665971 12 16 14755 34.37200000 3181490900 3181490900 -4.66700000
39.98183823 -53.73755646 1.94929850 56 17 14755 67.00800000 3181490900 3181490900 1.66700000
38.47711182 -63.93552017 1.30250800 28 18 14756 74.63200000 3181490903 3181490903 1.00000000
19.96090126 -26.83821297 -2.14360094 11 19 14756 33.51600000 3181490903 3181490903 -3.66700000
19.84313202 -36.94532776 -2.44230390 19 20 14756 42.00800000 3181490905 3181490905 -3.33300000
41.83289719 -62.39495850 4.37484503 36 21 14756 75.24800000 3181490905 3181490905 3.33300000
39.03739166 -64.89214325 3.08528614 28 22 14757 75.79200000 3181490907 3181490907 2.33300000
19.92938995 -29.73647308 -1.66748929 11 23 14757 35.83600000 3181490907 3181490907 -2.66700000
19.82358551 -32.96591568 -2.01598096 26 24 14758 38.52000000 3181490910 3181490910 -3.00000000
38.32878494 -51.59093857 -2.61845517 28 27 14759 64.32400000 3181490912 3181490912 -2.33300000
38.81623077 -72.39196777 -2.86845946 28 28 14760 82.19200000 3181490914 3181490914 -2.00000000
38.24720764 -57.13299942 -1.59985268 38 31 14760 68.77200000 3181490917 3181490917 -1.33300000
3.26174784 -5.44566870 -2.96001840 16 0 14768 7.00400000 3181490937 3181490937 -25.00000000
38.23789597 -51.63784409 -1.12156141 28 1 14768 64.26400000 3181490937 3181490937 -1.00000000
38.18600464 -63.77890015 -2.16340494 28 2 14769 74.36800000 3181490940 3181490940 -1.66700000
5.89598083 -8.83730888 -2.97395539 6 3 14769 11.03200000 3181490940 3181490940 -15.63900000
7.66834116 -12.81286430 -2.98647404 3 4 14770 15.22800000 3181490942 3181490942 -11.31000000
38.39523315 -57.57122421 0.00000000 48 5 14770 69.20000000 3181490942 3181490942 0.00000000
37.02575684 -69.37222290 -0.91545480 29 6 14771 78.64000000 3181490944 3181490944 -0.66700000
10.09829903 -15.14748669 -2.83227444 3 7 14771 18.42400000 3181490944 3181490944 -8.84300000
11.80516529 -19.73280907 -2.92689753 2 8 14771 23.18000000 3181490946 3181490946 -7.25400000
38.52288055 -52.07969284 0.37649578 56 9 14771 64.78000000 3181490946 3181490946 0.33300000
37.77189636 -63.16226578 -0.42773360 28 10 14772 73.59600000 3181490949 3181490949 -0.33300000
