# .PCD v0.7 - Point Cloud Data file format
VERSION 0.7
FIELDS x y z intensity laser_id azimuth distance_m adjustedtime timestamp vertical_angle
SIZE 4 4 4 1 1 2 8 8 4 8
TYPE F F F U U U F U U F
COUNT 1 1 1 1 1 1 1 1 1 1
WIDTH 523
HEIGHT 1
VIEWPOINT 0 0 0 1 0 0 0
POINTS 523
DATA ascii
40.29395676 12.83619881 0.49232468 31 14 6813 42.29200000 3176568835 3176568835 0.66700000
20.12448502 8.65448380 -1.53185213 4 15 6813 21.96000000 3176568835 3176568835 -4.00000000
19.09081268 7.12257528 -1.66341531 5 16 6814 20.44400000 3176568837 3176568837 -4.66700000
40.58394241 19.84674835 1.31477582 18 17 6814 45.19600000 3176568837 3176568837 1.66700000
40.43378830 15.07736874 0.75324589 30 18 6815 43.16000000 3176568840 3176568840 1.00000000
20.47411346 10.00801849 -1.46053433 8 19 6815 22.83600000 3176568840 3176568840 -3.66700000
20.63211060 6.56471300 -1.26091909 16 20 6815 21.68800000 3176568842 3176568842 -3.33300000
39.94017029 17.15965080 2.53160548 20 21 6815 43.54400000 3176568842 3176568842 3.33300000
40.56260300 15.11734009 1.76360226 18 22 6816 43.32400000 3176568844 3176568844 2.33300000
20.67765808 8.87954807 -1.04825318 24 23 6816 22.52800000 3176568844 3176568844 -2.66700000
20.66279793 7.69674301 -1.15557790 30 24 6817 22.08000000 3176568847 3176568847 -3.00000000
42.95893860 18.43885612 5.74004602 19 25 6817 47.10000000 3176568847 3176568847 7.00000000
42.85808945 15.95581245 3.73332739 31 26 6818 45.88400000 3176568849 3176568849 4.66700000
20.71266747 10.11119461 -0.93903553 27 27 6818 23.06800000 3176568849 3176568849 -2.33300000
20.70097351 6.57071257 -0.75843585 20 28 6819 21.73200000 3176568851 3176568851 -2.00000000
49.32813263 18.35476875 9.59623432 17 30 6819 53.50000000 3176568854 3176568854 10.33300000
21.07033157 9.03510857 -0.53347033 2 31 6819 22.93200000 3176568854 3176568854 -1.33300000
5.49003935 2.03409576 -2.73011398 7 0 6827 6.46000000 3176568874 3176568874 -25.00000000
38.56454468 18.75089645 -0.74849880 9 1 6827 42.88800000 3176568874 3176568874 -1.00000000
20.82088280 7.71014166 -0.64615893 7 2 6828 22.21200000 3176568877 3176568877 -1.66700000
8.15848923 3.48325706 -2.48332834 4 3 6828 9.21200000 3176568877 3176568877 -15.63900000
10.79261494 3.99445105 -2.30163264 4 4 6829 11.73600000 3176568879 3176568879 -11.31000000
40.39187241 17.23692703 0.00000000 22 5 6829 43.91600000 3176568879 3176568879 0.00000000
40.40434265 12.73943996 -0.49320942 21 6 6830 42.36800000 3176568881 3176568881 -0.66700000
12.56083012 5.35764790 -2.12451339 2 7 6830 13.82000000 3176568881 3176568881 -8.84300000
14.86378574 5.49828148 -2.01726103 2 8 6830 15.97600000 3176568883 3176568883 -7.25400000
40.83203888 19.82697105 0.26381439 9 9 6830 45.39200000 3176568883 3176568883 0.33300000
40.35365677 14.91926479 -0.25005177 16 10 6831 43.02400000 3176568886 3176568886 -0.33300000
15.86281013 6.76278973 -1.85749125 2 11 6831 17.34400000 3176568886 3176568886 -6.14800000
18.27209473 5.75415802 -1.78824389 12 12 6832 19.24000000 3176568888 3176568888 -5.33300000
40.35317230 17.19544029 1.02069354 14 13 6832 43.87600000 3176568888 3176568888 1.33300000
40.28891754 12.67985916 0.49171937 20 14 6833 42.24000000 3176568890 3176568890 0.66700000
20.15457344 8.58418369 -1.53185213 6 15 6833 21.96000000 3176568890 3176568890 -4.00000000
19.10807800 7.05313110 -1.66276443 5 16 6834 20.43600000 3176568893 3176568893 -4.66700000
40.54863358 19.65438843 1.31140125 18 17 6834 45.08000000 3176568893 3176568893 1.66700000
40.35974884 14.89750099 0.75094217 30 18 6834 43.02800000 3176568895 3176568895 1.00000000
20.50359535 9.93832779 -1.46027851 8 19 6834 22.83200000 3176568895 3176568895 -3.66700000
20.63966179 6.48786354 -1.25998890 16 20 6835 21.67200000 3176568897 3176568897 -3.33300000
40.00350189 17.02169418 2.53183818 20 21 6835 43.54800000 3176568897 3176568897 3.33300000
40.56637573 14.95768261 1.76148546 18 22 6836 43.27200000 3176568900 3176568900 2.33300000
20.67543602 8.79324150 -1.04657805 24 23 6836 22.49200000 3176568900 3176568900 -2.66700000
20.65955353 7.61351967 -1.15390313 30 24 6837 22.04800000 3176568902 3176568902 -3.00000000
43.39572525 18.44721413 5.78976870 29 25 6837 47.50800000 3176568902 3176568902 7.00000000
42.81999969 15.77166462 3.72519112 31 26 6838 45.78400000 3176568904 3176568904 4.66700000
20.70826149 10.01968384 -0.93724442 27 27 6838 23.02400000 3176568904 3176568904 -2.33300000
20.70852661 6.49362850 -0.75787747 17 28 6839 21.71600000 3176568907 3176568907 -2.00000000
49.39190292 18.18247032 9.59623432 17 30 6839 53.50000000 3176568909 3176568909 10.33300000
34.66898727 14.72325325 -0.87646204 4 31 6839 37.67600000 3176568909 3176568909 -1.33300000
5.50051022 2.01616716 -2.73180437 6 0 6847 6.46400000 3176568930 3176568930 -25.00000000
38.62976456 18.61616707 -0.74849880 9 1 6847 42.88800000 3176568930 3176568930 -1.00000000
20.86643982 7.64429283 -0.64674073 5 2 6848 22.23200000 3176568932 3176568932 -1.66700000
8.17059803 3.45475745 -2.48332834 3 3 6848 9.21200000 3176568932 3176568932 -15.63900000
10.80649281 3.95675349 -2.30163264 4 4 6849 11.73600000 3176568935 3176568935 -11.31000000
40.40389633 17.07558441 0.00000000 22 5 6849 43.86400000 3176568935 3176568935 0.00000000
40.36617661 12.58039284 -0.49223155 21 6 6849 42.28400000 3176568937 3176568937 -0.66700000
12.57488728 5.31442690 -2.12389851 2 7 6849 13.81600000 3176568937 3176568937 -8.84300000
14.87916183 5.44500017 -2.01675606 4 8 6850 15.97200000 3176568939 3176568939 -7.25400000
40.76043320 19.61667061 0.26290771 9 9 6850 45.23600000 3176568939 3176568939 0.33300000
40.34162903 14.75495625 -0.24965656 16 10 6851 42.95600000 3176568942 3176568942 -0.33300000
15.88632011 6.70737696 -1.85749125 2 11 6851 17.34400000 3176568942 3176568942 -6.14800000
18.29587173 5.69152451 -1.78861570 4 12 6852 19.24400000 3176568944 3176568944 -5.33300000
40.34663010 17.02648926 1.01901865 14 13 6852 43.80400000 3176568944 3176568944 1.33300000
40.27182388 12.52014828 0.49097434 20 14 6853 42.17600000 3176568946 3176568946 0.66700000
20.18809128 8.51532936 -1.53213120 6 15 6853 21.96400000 3176568946 3176568946 -4.00000000
19.14007187 6.98912382 -1.66341531 5 16 6854 20.44400000 3176568948 3176568948 -4.66700000
40.57014084 19.49021912 1.30988860 9 17 6854 45.02800000 3176568948 3176568948 1.66700000
40.29129028 14.71263027 0.74870825 20 18 6854 42.90000000 3176568951 3176568951 1.00000000
20.53096581 9.86323929 -1.45976686 8 19 6854 22.82400000 3176568951 3176568951 -3.66700000
20.63930130 6.40867329 -1.25859356 16 20 6855 21.64800000 3176568953 3176568953 -3.33300000
39.98907471 16.85093880 2.52718687 20 21 6855 43.46800000 3176568953 3176568953 3.33300000
40.60332108 14.81051064 1.76083410 18 22 6856 43.25600000 3176568955 3176568955 2.33300000
20.67286301 8.70705891 -1.04490292 24 23 6856 22.45600000 3176568955 3176568955 -2.66700000
20.64847374 7.52767611 -1.15180969 30 24 6857 22.00800000 3176568958 3176568958 -3.00000000
43.33909988 18.24478912 5.77368212 29 25 6857 47.37600000 3176568958 3176568958 7.00000000
42.04321671 15.31910133 3.65293932 30 26 6858 44.89600000 3176568960 3176568960 4.66700000
20.70707321 9.93005562 -0.93561614 27 27 6858 22.98400000 3176568960 3176568960 -2.33300000
20.70051956 6.41184044 -0.75676066 17 28 6859 21.68400000 3176568962 3176568962 -2.00000000
49.36263275 17.97628593 9.57829762 17 30 6859 53.40000000 3176568965 3176568965 10.33300000
34.68330765 14.58664322 -0.87553155 14 31 6859 37.63600000 3176568965 3176568965 -1.33300000
5.50751400 1.99695456 -2.73180437 5 0 6867 6.46400000 3176568985 3176568985 -25.00000000
38.64398575 18.45707893 -0.74752146 9 1 6867 42.83200000 3176568985 3176568985 -1.00000000
20.92306900 7.58230686 -0.64767164 5 2 6868 22.26400000 3176568988 3176568988 -1.66700000
8.18260765 3.42621565 -2.48332834 2 3 6868 9.21200000 3176568988 3176568988 -15.63900000
10.82761383 3.92167926 -2.30320144 4 4 6869 11.74400000 3176568990 3176568990 -11.31000000
40.38208008 16.90047073 0.00000000 15 5 6869 43.77600000 3176568990 3176568990 0.00000000
40.38308334 12.43117428 -0.49190560 21 6 6869 42.25600000 3176568992 3176568992 -0.66700000
12.58971500 5.26897383 -2.12328362 2 7 6869 13.81200000 3176568992 3176568992 -8.84300000
14.90180874 5.39437962 -2.01726103 4 8 6870 15.97600000 3176568995 3176568995 -7.25400000
40.80338669 19.46221733 0.26274499 18 9 6870 45.20800000 3176568995 3176568995 0.33300000
40.34022903 14.59499550 -0.24933110 16 10 6871 42.90000000 3176568997 3176568997 -0.33300000
15.90963650 6.65188265 -1.85749125 2 11 6871 17.34400000 3176568997 3176568997 -6.14800000
18.33466339 5.63347387 -1.79047453 4 12 6872 19.26400000 3176568999 3176568999 -5.33300000
40.35416412 16.86396408 1.01771581 14 13 6872 43.74800000 3176568999 3176568999 1.33300000
40.29998779 12.37480068 0.49078807 20 14 6873 42.16000000 3176569001 3176569001 0.66700000
20.21032906 8.44173241 -1.53157318 6 15 6873 21.95600000 3176569001 3176569001 -4.00000000
19.16810036 6.92362404 -1.66374075 5 16 6874 20.44800000 3176569004 3176569004 -4.66700000
40.68846893 19.37254715 1.31151760 18 17 6874 45.08400000 3176569004 3176569004 1.66700000
40.27469254 14.54744148 0.74745166 20 18 6874 42.82800000 3176569006 3176569006 1.00000000
20.55806160 9.78808117 -1.45925522 8 19 6874 22.81600000 3176569006 3176569006 -3.66700000
20.63482094 6.32839394 -1.25696564 10 20 6875 21.62000000 3176569008 3176569008 -3.33300000
39.95920563 16.67434120 2.52160573 20 21 6875 43.37200000 3176569008 3176569008 3.33300000
40.53446960 14.62528133 1.75562358 9 22 6876 43.12800000 3176569011 3176569011 2.33300000
20.68469048 8.62715340 -1.04397225 27 23 6876 22.43600000 3176569011 3176569011 -2.66700000
20.65959358 7.45013332 -1.15097237 30 24 6877 21.99200000 3176569013 3176569013 -3.00000000
42.18956757 17.58774567 5.61232710 28 25 6877 46.05200000 3176569013 3176569013 7.00000000
42.14144135 15.18847084 3.65684485 30 26 6878 44.94400000 3176569015 3176569015 4.66700000
20.70551109 9.84055805 -0.93398786 27 27 6878 22.94400000 3176569015 3176569015 -2.33300000
20.69219208 6.33018732 -0.75564390 17 28 6879 21.65200000 3176569018 3176569018 -2.00000000
49.44729233 17.81187057 9.58260250 17 30 6879 53.42400000 3176569020 3176569020 10.33300000
34.58634949 14.40399075 -0.87180942 9 31 6879 37.47600000 3176569020 3176569020 -1.33300000
5.50762653 1.97526991 -2.72842360 7 0 6887 6.45600000 3176569041 3176569041 -25.00000000
38.60334778 18.27245331 -0.74549699 9 1 6887 42.71600000 3176569041 3176569041 -1.00000000
20.93811798 7.50517845 -0.64732254 5 2 6888 22.25200000 3176569043 3176569043 -1.66700000
8.18384361 3.39320612 -2.48009324 4 3 6888 9.20000000 3176569043 3176569043 -15.63900000
10.84492970 3.88518262 -2.30398583 4 4 6889 11.74800000 3176569045 3176569045 -11.31000000
40.40387344 16.74409485 0.00000000 15 5 6889 43.73600000 3176569045 3176569045 0.00000000
40.47215271 12.30409622 -0.49246439 10 6 6889 42.30400000 3176569048 3176569048 -0.66700000
12.62993813 5.23407459 -2.12697291 2 7 6889 13.83600000 3176569048 3176569048 -8.84300000
14.92054749 5.34232950 -2.01726103 4 8 6890 15.97600000 3176569050 3176569050 -7.25400000
40.72642136 19.25129128 0.26181510 18 9 6890 45.04800000 3176569050 3176569050 0.33300000
40.32313919 14.42983437 -0.24891263 24 10 6891 42.82800000 3176569052 3176569052 -0.33300000
15.92540932 6.59326458 -1.85663438 2 11 6891 17.33600000 3176569052 3176569052 -6.14800000
18.36183739 5.57175255 -1.79121804 4 12 6892 19.27200000 3176569054 3176569054 -5.33300000
40.34996796 16.69700432 1.01613390 14 13 6892 43.68000000 3176569054 3176569054 1.33300000
40.48455811 12.27699947 0.49251094 20 14 6893 42.30800000 3176569057 3176569057 0.66700000
20.24704742 8.37418365 -1.53213120 6 15 6893 21.96400000 3176569057 3176569057 -4.00000000
19.18839836 6.85533142 -1.66341531 5 16 6894 20.44400000 3176569059 3176569059 -4.66700000
40.73776245 19.22186852 1.31093585 18 17 6894 45.06400000 3176569059 3176569059 1.66700000
40.29760742 14.38897038 0.74689317 30 18 6895 42.79600000 3176569061 3176569061 1.00000000
20.59018898 9.71096325 -1.45899940 8 19 6895 22.81200000 3176569061 3176569061 -3.66700000
20.62621117 6.24706602 -1.25510514 10 20 6895 21.58800000 3176569064 3176569064 -3.33300000
39.92121124 16.49510765 2.51555920 20 21 6895 43.26800000 3176569064 3176569064 3.33300000
40.57021713 14.47832775 1.75497222 18 22 6896 43.11200000 3176569066 3176569066 2.33300000
20.68144035 8.54117107 -1.04229712 24 23 6896 22.40000000 3176569066 3176569066 -2.66700000
20.66290092 7.36992073 -1.14971626 30 24 6897 21.96800000 3176569068 3176569068 -3.00000000
42.23235321 17.43279648 5.60988951 28 25 6897 46.03200000 3176569068 3176569068 7.00000000
42.14913940 15.02521324 3.65293932 10 26 6898 44.89600000 3176569071 3176569071 4.66700000
20.70719337 9.75289631 -0.93252236 25 27 6898 22.90800000 3176569071 3176569071 -2.33300000
20.69120216 6.25098324 -0.75480634 17 28 6899 21.62800000 3176569073 3176569073 -2.00000000
49.61666489 17.67745781 9.60340881 17 30 6899 53.54000000 3176569075 3176569075 10.33300000
34.61053848 14.27250290 -0.87115806 9 31 6899 37.44800000 3176569075 3176569075 -1.33300000
5.51107121 1.95482075 -2.72673297 8 0 6907 6.45200000 3176569096 3176569096 -25.00000000
38.66327286 18.13589287 -0.74542719 9 1 6907 42.71200000 3176569096 3176569096 -1.00000000
20.96418762 7.43204498 -0.64732254 5 2 6908 22.25200000 3176569098 3176569098 -1.66700000
8.19920158 3.36608148 -2.48117161 2 3 6908 9.20400000 3176569098 3176569098 -15.63900000
10.85472870 3.84599328 -2.30320144 2 4 6909 11.74400000 3176569100 3176569100 -11.31000000
40.39176559 16.57410622 0.00000000 22 5 6909 43.66000000 3176569100 3176569100 0.00000000
40.68171310 12.20509815 -0.49446666 10 6 6910 42.47600000 3176569103 3176569103 -0.66700000
12.63806725 5.18324900 -2.12512827 1 7 6910 13.82400000 3176569103 3176569103 -8.84300000
14.93910503 5.29021454 -2.01726103 2 8 6910 15.97600000 3176569105 3176569105 -7.25400000
40.72817612 19.07847023 0.26139662 18 9 6910 44.97600000 3176569105 3176569105 0.33300000
40.33555603 14.27564716 -0.24868016 24 10 6911 42.78800000 3176569107 3176569107 -0.33300000
15.95200729 6.53914261 -1.85706282 2 11 6911 17.34000000 3176569107 3176569107 -6.14800000
18.44221687 5.52591419 -1.79716647 4 12 6912 19.33600000 3176569110 3176569110 -5.33300000
40.33029938 16.52421761 1.01417983 14 13 6912 43.59600000 3176569110 3176569110 1.33300000
40.51184082 12.13101768 0.49232468 20 14 6913 42.29200000 3176569112 3176569112 0.66700000
20.26507759 8.29892063 -1.53129411 6 15 6913 21.95200000 3176569112 3176569112 -4.00000000
19.22348785 6.79229403 -1.66439164 5 16 6914 20.45600000 3176569114 3176569114 -4.66700000
40.78287888 19.06938934 1.31023765 18 17 6914 45.04000000 3176569114 3176569114 1.66700000
40.25837326 14.22461510 0.74528754 20 18 6914 42.70400000 3176569117 3176569117 1.00000000
20.60058212 9.63248539 -1.45746446 8 19 6914 22.78800000 3176569117 3176569117 -3.66700000
20.62493706 6.16816425 -1.25370979 20 20 6915 21.56400000 3176569119 3176569119 -3.33300000
40.01181030 16.36926460 2.51765227 20 21 6915 43.30400000 3176569119 3176569119 3.33300000
40.58658981 14.32465172 1.75350678 18 22 6916 43.07600000 3176569121 3176569121 2.33300000
20.68154144 8.45682907 -1.04080820 24 23 6916 22.36800000 3176569121 3176569121 -2.66700000
20.65836334 7.28711891 -1.14804149 30 24 6917 21.93600000 3176569124 3176569124 -3.00000000
42.28559875 17.28226662 5.60891485 18 25 6917 46.02400000 3176569124 3176569124 7.00000000
42.88939285 15.12057018 3.71249819 31 26 6918 45.62800000 3176569126 3176569126 4.66700000
20.70851707 9.66534233 -0.93105692 25 27 6918 22.87200000 3176569126 3176569126 -2.33300000
20.68608093 6.17072010 -0.75382912 17 28 6919 21.60000000 3176569128 3176569128 -2.00000000
49.59946823 17.46673012 9.58762455 17 30 6920 53.45200000 3176569130 3176569130 10.33300000
34.63299942 14.13346481 -0.87041366 9 31 6920 37.41600000 3176569130 3176569130 -1.33300000
5.52470303 1.93797159 -2.73011398 7 0 6927 6.46000000 3176569151 3176569151 -25.00000000
38.69733047 17.98733521 -0.74486870 9 1 6927 42.68000000 3176569151 3176569151 -1.00000000
20.97113800 7.35220671 -0.64674073 2 2 6928 22.23200000 3176569153 3176569153 -1.66700000
8.21446896 3.33889079 -2.48224998 3 3 6928 9.20800000 3176569153 3176569153 -15.63900000
10.87178898 3.80937672 -2.30398583 2 4 6929 11.74800000 3176569156 3176569156 -11.31000000
40.39007950 16.40892220 0.00000000 22 5 6929 43.59600000 3176569156 3176569156 0.00000000
40.73173904 12.06529045 -0.49455976 10 6 6930 42.48400000 3176569158 3176569158 -0.66700000
12.65608311 5.13910246 -2.12512827 2 7 6930 13.82400000 3176569158 3176569158 -8.84300000
14.95748043 5.23803520 -2.01726103 4 8 6930 15.97600000 3176569160 3176569160 -7.25400000
40.61674500 18.85366440 0.26025748 9 9 6930 44.78000000 3176569160 3176569160 0.33300000
40.33983612 14.11890602 -0.24840119 24 10 6931 42.74000000 3176569163 3176569163 -0.33300000
15.98579121 6.48790693 -1.85834801 2 11 6931 17.35200000 3176569163 3176569163 -6.14800000
18.45375633 5.45924520 -1.79642296 4 12 6932 19.32800000 3176569165 3176569165 -5.33300000
40.34326553 16.36529922 1.01306319 14 13 6932 43.54800000 3176569165 3176569165 1.33300000
40.50407791 11.97478867 0.49171937 31 14 6933 42.24000000 3176569167 3176569167 0.66700000
20.29762077 8.22963142 -1.53157318 6 15 6933 21.95600000 3176569167 3176569167 -4.00000000
19.24331665 6.72383547 -1.66406620 5 16 6934 20.45200000 3176569170 3176569170 -4.66700000
40.70408249 18.85967827 1.30558312 18 17 6934 44.88000000 3176569170 3176569170 1.66700000
40.26624680 14.06948853 0.74451965 19 18 6934 42.66000000 3176569172 3176569172 1.00000000
20.60872650 9.54876995 -1.45567358 8 19 6934 22.76000000 3176569172 3176569172 -3.66700000
20.61953545 6.08821678 -1.25208199 19 20 6935 21.53600000 3176569174 3176569174 -3.33300000
39.93546677 16.17552948 2.50928020 20 21 6935 43.16000000 3176569174 3176569174 3.33300000
40.60615921 14.17235470 1.75220418 18 22 6936 43.04400000 3176569177 3176569177 2.33300000
20.67389870 8.36959171 -1.03894699 24 23 6936 22.32800000 3176569177 3176569177 -2.66700000
20.65350151 7.20443821 -1.14636683 30 24 6937 21.90400000 3176569179 3176569179 -3.00000000
43.76258850 17.70789337 5.79659367 29 25 6937 47.56400000 3176569179 3176569179 7.00000000
20.70585442 9.57622051 -0.92942864 25 27 6938 22.83200000 3176569181 3176569181 -2.33300000
20.69599152 6.09508657 -0.75341034 16 28 6939 21.58800000 3176569183 3176569183 -2.00000000
49.61995697 17.28920746 9.58045006 17 30 6939 53.41200000 3176569186 3176569186 10.33300000
34.94290543 14.12494564 -0.87702036 4 31 6939 37.70000000 3176569186 3176569186 -1.33300000
5.53485918 1.91986299 -2.73180437 7 0 6947 6.46400000 3176569206 3176569206 -25.00000000
38.78894043 17.86553192 -0.74542719 9 1 6947 42.71200000 3176569206 3176569206 -1.00000000
21.14778328 7.33134460 -0.65139526 2 2 6948 22.39200000 3176569209 3176569209 -1.66700000
8.21892738 3.30732059 -2.48009324 3 3 6948 9.20000000 3176569209 3176569209 -15.63900000
10.87390137 3.76755166 -2.30163264 4 4 6949 11.73600000 3176569211 3176569211 -11.31000000
40.38773346 16.24395370 0.00000000 15 5 6949 43.53200000 3176569211 3176569211 0.00000000
40.70242691 11.90993404 -0.49372163 21 6 6949 42.41200000 3176569213 3176569213 -0.66700000
12.67672253 5.09857988 -2.12574315 1 7 6949 13.82800000 3176569213 3176569213 -8.84300000
14.97567368 5.18579197 -2.01726103 4 8 6950 15.97600000 3176569216 3176569216 -7.25400000
40.75498962 18.74520111 0.26072246 18 9 6950 44.86000000 3176569216 3176569216 0.33300000
40.35107422 13.96492577 -0.24816872 16 10 6951 42.70000000 3176569218 3176569218 -0.33300000
16.00834084 6.43206644 -1.85834801 2 11 6951 17.35200000 3176569218 3176569218 -6.14800000
18.48416901 5.39814568 -1.79753828 4 12 6952 19.34000000 3176569220 3176569220 -5.33300000
40.34077072 16.20053101 1.01157439 14 13 6952 43.48400000 3176569220 3176569220 1.33300000
40.50723267 11.82212448 0.49125370 20 14 6953 42.20000000 3176569223 3176569223 0.66700000
20.31881714 8.15575695 -1.53101504 6 15 6953 21.94800000 3176569223 3176569223 -4.00000000
19.26667023 6.65662289 -1.66406620 5 16 6954 20.45200000 3176569225 3176569225 -4.66700000
40.73332977 18.70079613 1.30441952 18 17 6954 44.84000000 3176569225 3176569225 1.66700000
40.27353287 13.91448116 0.74375176 19 18 6954 42.61600000 3176569227 3176569227 1.00000000
20.60928154 9.46178436 -1.45337117 13 19 6954 22.72400000 3176569227 3176569227 -3.66700000
20.62532616 6.01173449 -1.25115168 19 20 6955 21.52000000 3176569230 3176569230 -3.33300000
40.24001312 16.13560486 2.52486134 6 21 6955 43.42800000 3176569230 3176569230 3.33300000
40.52315140 13.98489189 1.74650514 18 22 6956 42.90400000 3176569232 3176569232 2.33300000
20.66960907 8.28399658 -1.03727186 24 23 6956 22.29200000 3176569232 3176569232 -2.66700000
20.64831352 7.12188005 -1.14469206 29 24 6957 21.87200000 3176569234 3176569234 -3.00000000
43.62143326 17.47382736 5.76978207 29 25 6957 47.34400000 3176569234 3176569234 7.00000000
42.62453842 14.69345093 3.68060327 20 26 6958 45.23600000 3176569236 3176569236 4.66700000
20.69918823 9.48556995 -0.92763752 27 27 6958 22.78800000 3176569236 3176569236 -2.33300000
20.68643188 6.01387930 -0.75229353 16 28 6959 21.55600000 3176569239 3176569239 -2.00000000
49.69043350 17.10978699 9.58188438 17 30 6960 53.42000000 3176569241 3176569241 10.33300000
35.25806046 14.10221863 -0.88362712 4 31 6960 37.98400000 3176569241 3176569241 -1.33300000
5.53743458 1.90128803 -2.73011398 7 0 6965 6.46000000 3176569262 3176569262 -25.00000000
38.81941223 17.73195267 -0.74493849 18 1 6965 42.68400000 3176569262 3176569262 -1.00000000
34.48276901 11.83299255 -1.06098998 7 2 6966 36.47200000 3176569264 3176569264 -1.66700000
8.23285484 3.28291059 -2.48117161 2 3 6966 9.20400000 3176569264 3176569264 -15.63900000
10.89681435 3.73718905 -2.30398583 4 4 6967 11.74800000 3176569266 3176569266 -11.31000000
40.38282776 16.09477806 0.00000000 22 5 6967 43.47200000 3176569266 3176569266 0.00000000
40.52062988 11.71866703 -0.49106744 21 6 6967 42.18400000 3176569269 3176569269 -0.66700000
12.69634914 5.06019306 -2.12635803 1 7 6967 13.83200000 3176569269 3176569269 -8.84300000
15.00690556 5.14386559 -2.01928139 4 8 6968 15.99200000 3176569271 3176569271 -7.25400000
40.56621170 18.50419235 0.25914159 27 9 6968 44.58800000 3176569271 3176569271 0.33300000
40.31906509 13.81216431 -0.24770376 24 10 6969 42.62000000 3176569273 3176569273 -0.33300000
16.02107811 6.37880087 -1.85749125 2 11 6969 17.34400000 3176569273 3176569273 -6.14800000
18.50486183 5.34115410 -1.79791009 4 12 6970 19.34400000 3176569276 3176569276 -5.33300000
40.32830429 16.04858017 1.00999248 14 13 6970 43.41600000 3176569276 3176569276 1.33300000
40.48268509 11.67707348 0.49050868 20 14 6971 42.13600000 3176569278 3176569278 0.66700000
20.34433937 8.09188271 -1.53101504 6 15 6971 21.94800000 3176569278 3176569278 -4.00000000
19.29503059 6.59864187 -1.66471708 5 16 6972 20.46000000 3176569280 3176569280 -4.66700000
40.48257446 18.43190956 1.29452872 17 17 6972 44.50000000 3176569280 3176569280 1.66700000
40.26406860 13.76977158 0.74277443 19 18 6972 42.56000000 3176569283 3176569283 1.00000000
20.59894371 9.37879658 -1.45055699 11 19 6972 22.68000000 3176569283 3176569283 -3.66700000
20.62492371 5.94138145 -1.24998891 19 20 6973 21.50000000 3176569285 3176569285 -3.33300000
40.13835144 15.94865131 2.51532650 20 21 6973 43.26400000 3176569285 3176569285 3.33300000
40.52906418 13.84459686 1.74487686 9 22 6974 42.86400000 3176569287 3176569287 2.33300000
20.66210938 8.20574760 -1.03559673 22 23 6974 22.25600000 3176569287 3176569287 -2.66700000
20.64790535 7.04923296 -1.14343596 25 24 6975 21.84800000 3176569289 3176569289 -3.00000000
43.74622345 17.36453056 5.77904415 19 25 6975 47.42000000 3176569289 3176569289 7.00000000
42.68558121 14.56461906 3.68190503 20 26 6976 45.25200000 3176569292 3176569292 4.66700000
20.69613838 9.40561199 -0.92617202 27 27 6976 22.75200000 3176569292 3176569292 -2.33300000
20.68985367 5.94444561 -0.75173515 16 28 6977 21.54000000 3176569294 3176569294 -2.00000000
49.70669174 16.94090271 9.57470989 17 30 6978 53.38000000 3176569296 3176569296 10.33300000
35.36539078 14.01642990 -0.88520902 4 31 6978 38.05200000 3176569296 3176569296 -1.33300000
5.54060459 1.88078189 -2.72842360 7 0 6985 6.45600000 3176569317 3176569317 -25.00000000
38.87014008 17.59139442 -0.74472910 9 1 6985 42.67200000 3176569317 3176569317 -1.00000000
34.63366699 11.74980545 -1.06436443 7 2 6986 36.58800000 3176569319 3176569319 -1.66700000
8.24784756 3.25556684 -2.48224998 2 3 6986 9.20800000 3176569319 3176569319 -15.63900000
10.93579578 3.70794582 -2.30947733 4 4 6987 11.77600000 3176569322 3176569322 -11.31000000
40.36806870 15.92582607 0.00000000 22 5 6987 43.39600000 3176569322 3176569322 0.00000000
40.51513672 11.56397915 -0.49050868 21 6 6987 42.13600000 3176569324 3176569324 -0.66700000
12.71393490 5.01584339 -2.12635803 1 7 6987 13.83200000 3176569324 3176569324 -8.84300000
15.01349545 5.08762980 -2.01776624 2 8 6988 15.98000000 3176569326 3176569326 -7.25400000
40.35718155 18.23892784 0.25739804 18 9 6988 44.28800000 3176569326 3176569326 0.33300000
40.33293915 13.65979290 -0.24749453 24 10 6989 42.58400000 3176569329 3176569329 -0.33300000
16.04694748 6.32429600 -1.85791957 2 11 6989 17.34800000 3176569329 3176569329 -6.14800000
18.51956367 5.27543640 -1.79753828 4 12 6990 19.34000000 3176569331 3176569331 -5.33300000
40.30966568 15.87839890 1.00813138 14 13 6990 43.33600000 3176569331 3176569331 1.33300000
40.48472977 11.52474022 0.49004304 20 14 6991 42.09600000 3176569333 3176569333 0.66700000
20.36874771 8.01935673 -1.53073609 6 15 6991 21.94400000 3176569333 3176569333 -4.00000000
19.30661774 6.52741909 -1.66374075 5 16 6992 20.44800000 3176569336 3176569336 -4.66700000
40.49564362 18.26746941 1.29289973 26 17 6992 44.44400000 3176569336 3176569336 1.66700000
40.28157806 13.61889267 0.74221593 19 18 6992 42.52800000 3176569338 3176569338 1.00000000
20.60608482 9.29534626 -1.44876623 8 19 6992 22.65200000 3176569338 3176569338 -3.66700000
20.62249184 5.86279917 -1.24859357 19 20 6993 21.47600000 3176569340 3176569340 -3.33300000
40.24580383 15.82890701 2.51858234 13 21 6993 43.32000000 3176569340 3176569340 3.33300000
40.56957245 13.70048141 1.74455118 18 22 6994 42.85600000 3176569342 3176569342 2.33300000
20.66459656 8.12334061 -1.03429377 24 23 6994 22.22800000 3176569342 3176569342 -2.66700000
20.64210701 6.96689653 -1.14176118 29 24 6995 21.81600000 3176569345 3176569345 -3.00000000
43.85461044 17.23059654 5.78538132 9 25 6995 47.47200000 3176569345 3176569345 7.00000000
42.83815765 14.44993496 3.69069242 20 26 6996 45.36000000 3176569347 3176569347 4.66700000
20.69604492 9.31854439 -0.92470658 26 27 6996 22.71600000 3176569347 3176569347 -2.33300000
20.69124794 5.86673641 -0.75103718 16 28 6997 21.52000000 3176569349 3176569349 -2.00000000
49.58279419 16.70572472 9.53955364 17 30 6998 53.18400000 3176569352 3176569352 10.33300000
35.55184174 13.94693184 -0.88865197 5 31 6998 38.20000000 3176569352 3176569352 -1.33300000
5.55057287 1.86258340 -2.73011398 7 0 7005 6.46000000 3176569372 3176569372 -25.00000000
38.94225693 17.46051216 -0.74493849 9 1 7005 42.68400000 3176569372 3176569372 -1.00000000
34.56832886 11.59324265 -1.06110632 14 2 7006 36.47600000 3176569375 3176569375 -1.66700000
8.25557327 3.22535491 -2.48117161 2 3 7006 9.20400000 3176569375 3176569375 -15.63900000
10.95239162 3.67099667 -2.31026173 4 4 7007 11.78000000 3176569377 3176569377 -11.31000000
40.37870026 15.76735878 0.00000000 22 5 7007 43.34800000 3176569377 3176569377 0.00000000
40.51290512 11.41055584 -0.48999646 21 6 7007 42.09200000 3176569379 3176569379 -0.66700000
12.73504734 4.97287083 -2.12697291 2 7 7007 13.83600000 3176569379 3176569379 -8.84300000
15.03492546 5.03645229 -2.01827121 4 8 7008 15.98400000 3176569382 3176569382 -7.25400000
40.34028625 18.06198311 0.25688657 18 9 7008 44.20000000 3176569382 3176569382 0.33300000
40.32727051 13.50114346 -0.24716906 24 10 7009 42.52800000 3176569384 3176569384 -0.33300000
16.06151581 6.26535273 -1.85706282 2 11 7009 17.34000000 3176569384 3176569384 -6.14800000
18.54169846 5.21183681 -1.79791009 6 12 7010 19.34400000 3176569386 3176569386 -5.33300000
40.31641006 15.71871090 1.00692177 14 13 7010 43.28400000 3176569386 3176569386 1.33300000
40.48620605 11.37253475 0.48957738 20 14 7011 42.05600000 3176569388 3176569388 0.66700000
20.39289856 7.94675922 -1.53045702 6 15 7011 21.94000000 3176569388 3176569388 -4.00000000
19.34062767 6.46377754 -1.66471708 5 16 7012 20.46000000 3176569391 3176569391 -4.66700000
40.30363464 18.01180649 1.28475440 17 17 7012 44.16400000 3176569391 3176569391 1.66700000
40.26059723 13.45538235 0.74095935 19 18 7012 42.45600000 3176569393 3176569393 1.00000000
20.60925102 9.21033096 -1.44671953 8 19 7012 22.62000000 3176569393 3176569393 -3.66700000
20.62745285 5.78646326 -1.24766338 16 20 7013 21.46000000 3176569395 3176569395 -3.33300000
40.27476501 15.67818642 2.51695442 20 21 7013 43.29200000 3176569395 3176569395 3.33300000
40.48825073 13.51575661 1.73901498 18 22 7014 42.72000000 3176569398 3176569398 2.33300000
20.67048454 8.04246521 -1.03317702 24 23 7014 22.20400000 3176569398 3176569398 -2.66700000
20.64735413 6.88847876 -1.14071453 29 24 7015 21.79600000 3176569400 3176569400 -3.00000000
44.19940567 17.18820953 5.82291746 9 25 7015 47.78000000 3176569400 3176569400 7.00000000
42.74083710 14.25113297 3.67799973 30 26 7016 45.20400000 3176569402 3176569402 4.66700000
20.70289803 9.23484802 -0.92356676 26 27 7016 22.68800000 3176569402 3176569402 -2.33300000
20.68850327 5.78801250 -0.75019956 14 28 7017 21.49600000 3176569405 3176569405 -2.00000000
49.64080811 16.53254700 9.53955364 17 30 7018 53.18400000 3176569407 3176569407 10.33300000
35.67113495 13.85024834 -0.89041996 5 31 7018 38.27600000 3176569407 3176569407 -1.33300000
5.56080341 1.84336770 -2.73180437 7 0 7026 6.46400000 3176569428 3176569428 -25.00000000
39.01330185 17.32091141 -0.74507815 18 1 7026 42.69200000 3176569428 3176569428 -1.00000000
34.49672318 11.42874241 -1.05761540 7 2 7027 36.35600000 3176569430 3176569430 -1.66700000
8.26733971 3.19507504 -2.48117161 2 3 7027 9.20400000 3176569430 3176569430 -15.63900000
10.93598461 3.62096643 -2.30398583 2 4 7028 11.74800000 3176569432 3176569432 -11.31000000
40.33174515 15.57890129 0.00000000 22 5 7028 43.23600000 3176569432 3176569432 0.00000000
40.49664688 11.24593925 -0.48929802 21 6 7028 42.03200000 3176569435 3176569435 -0.66700000
12.74950123 4.92473698 -2.12635803 1 7 7028 13.83200000 3176569435 3176569435 -8.84300000
15.06081867 4.98380566 -2.01928139 2 8 7029 15.99200000 3176569437 3176569437 -7.25400000
40.35502243 17.89131165 0.25656113 18 9 7029 44.14400000 3176569437 3176569437 0.33300000
40.28154373 13.32184696 -0.24658787 16 10 7030 42.42800000 3176569439 3176569439 -0.33300000
16.08437157 6.20644236 -1.85706282 2 11 7030 17.34000000 3176569439 3176569439 -6.14800000
18.57219124 5.14703369 -1.79902542 6 12 7031 19.35600000 3176569441 3176569441 -5.33300000
40.31405258 15.54781532 1.00543296 14 13 7031 43.22000000 3176569441 3176569441 1.33300000
40.48136139 11.21125889 0.48901862 20 14 7032 42.00800000 3176569444 3176569444 0.66700000
20.42561150 7.87339687 -1.53073609 6 15 7032 21.94400000 3176569444 3176569444 -4.00000000
19.36040306 6.39159727 -1.66439164 5 16 7033 20.45600000 3176569446 3176569446 -4.66700000
40.29625702 17.83160591 1.28242707 17 17 7033 44.08400000 3176569446 3176569446 1.66700000
40.27925873 13.29769897 0.74040091 19 18 7033 42.42400000 3176569448 3176569448 1.00000000
20.60636520 9.11857891 -1.44416130 8 19 7033 22.58000000 3176569448 3176569448 -3.66700000
20.62542915 5.70443392 -1.24626803 16 20 7034 21.43600000 3176569451 3176569451 -3.33300000
40.27606201 15.50894260 2.51346612 6 21 7034 43.23200000 3176569451 3176569451 3.33300000
40.52992630 13.36476517 1.73868942 18 22 7035 42.71200000 3176569453 3176569453 2.33300000
20.67371941 7.95660400 -1.03187418 24 23 7035 22.17600000 3176569453 3176569453 -2.66700000
20.65728760 6.80775499 -1.13987708 25 24 7036 21.78000000 3176569455 3176569455 -3.00000000
42.53529358 14.00957584 3.65586853 30 26 7037 44.93200000 3176569458 3176569458 4.66700000
20.69639015 9.14114285 -0.92177564 26 27 7037 22.64400000 3176569458 3176569458 -2.33300000
20.69416237 5.70789480 -0.74964118 14 28 7038 21.48000000 3176569460 3176569460 -2.00000000
49.54496384 16.30872154 9.51013756 16 30 7038 53.02000000 3176569462 3176569462 10.33300000
35.84991455 13.77585220 -0.89367682 5 31 7038 38.41600000 3176569462 3176569462 -1.33300000
5.56344080 1.82378805 -2.73011398 8 0 7045 6.46000000 3176569483 3176569483 -25.00000000
39.03757858 17.17694664 -0.74444985 18 1 7045 42.65600000 3176569483 3176569483 -1.00000000
34.55343246 11.32050896 -1.05819726 21 2 7046 36.37600000 3176569485 3176569485 -1.66700000
8.27788925 3.16764188 -2.48117161 3 3 7046 9.20400000 3176569485 3176569485 -15.63900000
10.91065598 3.57247615 -2.29614115 15 4 7047 11.70800000 3176569488 3176569488 -11.31000000
40.29351807 15.41077709 0.00000000 22 5 7047 43.14000000 3176569488 3176569488 0.00000000
40.53565598 11.10451126 -0.48929802 10 6 7048 42.03200000 3176569490 3176569490 -0.66700000
12.76292229 4.87879181 -2.12574315 1 7 7048 13.82800000 3176569490 3176569490 -8.84300000
15.08103371 4.93506908 -2.01978660 2 8 7048 15.99600000 3176569492 3176569492 -7.25400000
40.32990265 17.72038269 0.25602642 18 9 7048 44.05200000 3176569492 3176569492 0.33300000
40.15061569 13.13100147 -0.24551848 16 10 7049 42.24400000 3176569494 3176569494 -0.33300000
16.10857964 6.15448999 -1.85749125 2 11 7049 17.34400000 3176569494 3176569494 -6.14800000
18.58915710 5.08541775 -1.79902542 6 12 7050 19.35600000 3176569497 3176569497 -5.33300000
40.31682587 15.39549828 1.00422323 14 13 7050 43.16800000 3176569497 3176569497 1.33300000
40.37170792 11.03687572 0.48724917 30 14 7051 41.85600000 3176569499 3176569499 0.66700000
20.45533562 7.80704308 -1.53101504 6 15 7051 21.94800000 3176569499 3176569499 -4.00000000
19.38149261 6.32736063 -1.66439164 5 16 7052 20.45600000 3176569501 3176569501 -4.66700000
40.29291916 17.67058182 1.28044891 17 17 7052 44.01600000 3176569501 3176569501 1.66700000
40.27220154 13.13964939 0.73942357 19 18 7053 42.36800000 3176569504 3176569504 1.00000000
20.59419823 9.02736282 -1.44109130 8 19 7053 22.53200000 3176569504 3176569504 -3.66700000
20.62497139 5.63074780 -1.24510527 9 20 7053 21.41600000 3176569506 3176569506 -3.33300000
40.40189362 15.40374851 2.51811719 13 21 7053 43.31200000 3176569506 3176569506 3.33300000
40.54742432 13.22161674 1.73754954 18 22 7054 42.68400000 3176569508 3176569508 2.33300000
20.66638756 7.87519836 -1.03019905 22 23 7054 22.14000000 3176569508 3176569508 -2.66700000
20.65316391 6.73055172 -1.13841176 29 24 7055 21.75200000 3176569511 3176569511 -3.00000000
42.59667969 13.87338448 3.65717030 20 26 7056 44.94800000 3176569513 3176569513 4.66700000
20.68997574 9.05643463 -0.92014736 26 27 7056 22.60400000 3176569513 3176569513 -2.33300000
20.68597794 5.63188791 -0.74866402 14 28 7057 21.45200000 3176569515 3176569515 -2.00000000
49.61748123 16.15042496 9.51372433 16 30 7057 53.04000000 3176569518 3176569518 10.33300000
36.05611420 13.71803951 -0.89767808 5 31 7057 38.58800000 3176569518 3176569518 -1.33300000
5.56977320 1.80435681 -2.73011398 7 0 7065 6.46000000 3176569538 3176569538 -25.00000000
38.85532761 16.93511009 -0.73984241 18 1 7065 42.39200000 3176569538 3176569538 -1.00000000
34.56991577 11.19243622 -1.05749905 7 2 7066 36.35200000 3176569541 3176569541 -1.66700000
8.29610062 3.14145565 -2.48332834 5 3 7066 9.21200000 3176569541 3176569541 -15.63900000
10.91932774 3.53316164 -2.29535675 5 4 7067 11.70400000 3176569543 3176569543 -11.31000000
40.35080719 15.27144814 0.00000000 14 5 7067 43.14400000 3176569543 3176569543 0.00000000
40.76337433 11.01406860 -0.49157965 21 6 7068 42.22800000 3176569545 3176569545 -0.66700000
12.79096508 4.83840609 -2.12758780 1 7 7068 13.84000000 3176569545 3176569545 -8.84300000
15.09816837 4.88239622 -2.01978660 2 8 7068 15.99600000 3176569547 3176569547 -7.25400000
40.30715942 17.54278374 0.25549173 18 9 7068 43.96000000 3176569547 3176569547 0.33300000
40.27233124 13.01537037 -0.24598344 24 10 7069 42.32400000 3176569550 3176569550 -0.33300000
16.12252426 6.09540987 -1.85663438 2 11 7069 17.33600000 3176569550 3176569550 -6.14800000
18.61064148 5.02153635 -1.79939711 6 12 7070 19.36000000 3176569552 3176569552 -5.33300000
40.31046677 15.23205662 1.00273442 14 13 7070 43.10400000 3176569552 3176569552 1.33300000
40.36750793 10.88443089 0.48673698 30 14 7071 41.81200000 3176569554 3176569554 0.66700000
20.48246384 7.73559284 -1.53101504 6 15 7071 21.94800000 3176569554 3176569554 -4.00000000
19.41863823 6.26456451 -1.66569352 5 16 7072 20.47200000 3176569557 3176569557 -4.66700000
40.29567719 17.50433731 1.27858710 17 17 7072 43.95200000 3176569557 3176569557 1.66700000
40.27368546 12.99252319 0.73865563 19 18 7072 42.32400000 3176569559 3176569559 1.00000000
20.59106827 8.94470596 -1.43878877 7 19 7072 22.49600000 3176569559 3176569559 -3.66700000
20.61365318 5.55041313 -1.24324477 13 20 7073 21.38400000 3176569561 3176569561 -3.33300000
40.44420624 15.25839710 2.51741958 13 21 7073 43.30000000 3176569561 3176569561 3.33300000
40.55909348 13.06896782 1.73608410 18 22 7074 42.64800000 3176569564 3176569564 2.33300000
20.66010284 7.79032326 -1.02852392 24 23 7074 22.10400000 3176569564 3176569564 -2.66700000
20.65371895 6.65107107 -1.13715565 29 24 7075 21.72800000 3176569566 3176569566 -3.00000000
43.34417343 16.33518600 5.68739843 19 25 7075 46.66800000 3176569566 3176569566 7.00000000
42.65243530 13.72705269 3.65782118 20 26 7076 44.95600000 3176569568 3176569568 4.66700000
20.68479538 8.96825981 -0.91851908 26 27 7076 22.56400000 3176569568 3176569568 -2.33300000
20.67462349 5.55135250 -0.74754721 14 28 7077 21.42000000 3176569571 3176569571 -2.00000000
49.67355347 15.97712803 9.51372433 16 30 7077 53.04000000 3176569573 3176569573 10.33300000
36.13371658 13.60336876 -0.89842248 5 31 7077 38.62000000 3176569573 3176569573 -1.33300000
5.57603788 1.78490376 -2.73011398 7 0 7085 6.46000000 3176569593 3176569593 -25.00000000
38.89584351 16.79145050 -0.73949337 17 1 7085 42.37200000 3176569593 3176569593 -1.00000000
34.66208649 11.08875275 -1.05912817 7 2 7086 36.40800000 3176569595 3176569595 -1.66700000
8.30340862 3.11112618 -2.48224998 3 3 7086 9.20800000 3176569595 3176569595 -15.63900000
10.98016262 3.51055264 -2.30555487 2 4 7087 11.75600000 3176569598 3176569598 -11.31000000
40.34393311 15.10805988 0.00000000 22 5 7087 43.08000000 3176569598 3176569598 0.00000000
40.80740356 10.88089275 -0.49167278 10 6 7087 42.23600000 3176569600 3176569600 -0.66700000
12.80694008 4.79596329 -2.12758780 1 7 7087 13.84000000 3176569600 3176569600 -8.84300000
15.11511898 4.82966423 -2.01978660 2 8 7088 15.99600000 3176569602 3176569602 -7.25400000
40.33876419 17.38931084 0.25530574 18 9 7088 43.92800000 3176569602 3176569602 0.33300000
40.27941513 12.86254692 -0.24575096 24 10 7089 42.28400000 3176569605 3176569605 -0.33300000
16.14742851 6.04048824 -1.85706282 2 11 7089 17.34000000 3176569605 3176569605 -6.14800000
18.62420654 4.95551825 -1.79902542 4 12 7090 19.35600000 3176569607 3176569607 -5.33300000
40.29597092 15.06604576 1.00105941 14 13 7090 43.03200000 3176569607 3176569607 1.33300000
40.35886765 10.73112297 0.48617819 30 14 7091 41.76400000 3176569609 3176569609 0.66700000
20.50560379 7.66265202 -1.53073609 6 15 7091 21.94400000 3176569609 3176569609 -4.00000000
19.44038582 6.19674253 -1.66569352 5 16 7092 20.47200000 3176569611 3176569611 -4.66700000
40.27940750 17.33038712 1.27614355 17 17 7092 43.86800000 3176569611 3176569611 1.66700000
40.26544571 12.83485794 0.73767829 19 18 7092 42.26800000 3176569614 3176569614 1.00000000
20.59649849 8.86173248 -1.43699801 7 19 7092 22.46800000 3176569614 3176569614 -3.66700000
20.60974503 5.47227573 -1.24184954 13 20 7093 21.36000000 3176569616 3176569616 -3.33300000
40.47103500 15.10735226 2.51579165 13 21 7093 43.27200000 3176569616 3176569616 3.33300000
40.47498322 12.88608646 1.73054790 18 22 7094 42.51200000 3176569618 3176569618 2.33300000
20.66845131 7.71117544 -1.02759337 24 23 7094 22.08400000 3176569618 3176569618 -2.66700000
20.65016365 6.57045746 -1.13569021 25 24 7095 21.70000000 3176569621 3176569621 -3.00000000
43.27445221 16.13662529 5.67082405 19 25 7095 46.53200000 3176569621 3176569621 7.00000000
42.81027222 13.61312008 3.66725945 20 26 7096 45.07200000 3176569623 3176569623 4.66700000
20.69026756 8.88496304 -0.91737926 28 27 7096 22.53600000 3176569623 3176569623 -2.33300000
20.66296005 5.47096539 -0.74643046 14 28 7097 21.38800000 3176569625 3176569625 -2.00000000
49.73652267 15.80602169 9.51515961 16 30 7097 53.04800000 3176569628 3176569628 10.33300000
36.38708878 13.55392838 -0.90354037 5 31 7097 38.84000000 3176569628 3176569628 -1.33300000
5.57532120 1.76324260 -2.72673297 8 0 7105 6.45200000 3176569648 3176569648 -25.00000000
38.99099350 16.67129898 -0.74019146 18 1 7105 42.41200000 3176569648 3176569648 -1.00000000
34.95982742 11.04963017 -1.06704080 7 2 7106 36.68000000 3176569651 3176569651 -1.66700000
8.30338287 3.07810616 -2.47901511 4 3 7106 9.19600000 3176569651 3176569651 -15.63900000
11.01853085 3.48047328 -2.31104612 2 4 7107 11.78400000 3176569653 3176569653 -11.31000000
40.33641052 14.94490623 0.00000000 21 5 7107 43.01600000 3176569653 3176569653 0.00000000
40.68653488 10.69668579 -0.48976365 21 6 7107 42.07200000 3176569655 3176569655 -0.66700000
12.83101559 4.75397587 -2.12881780 1 7 7107 13.84800000 3176569655 3176569655 -8.84300000
15.13566971 4.77806759 -2.02029157 2 8 7108 16.00000000 3176569658 3176569658 -7.25400000
40.33300018 17.22012520 0.25488728 18 9 7108 43.85600000 3176569658 3176569658 0.33300000
40.29354858 12.71223927 -0.24556498 16 10 7109 42.25200000 3176569660 3176569660 -0.33300000
16.16841507 5.98408651 -1.85706282 2 11 7109 17.34000000 3176569660 3176569660 -6.14800000
18.66065216 4.89553070 -1.80088425 6 12 7110 19.37600000 3176569662 3176569662 -5.33300000
40.27330399 14.89754772 0.99919838 14 13 7110 42.95200000 3176569662 3176569662 1.33300000
40.39995193 10.59119225 0.48622477 30 14 7111 41.76800000 3176569664 3176569664 0.66700000
20.43865967 7.55643463 -1.52376044 34 15 7111 21.84400000 3176569664 3176569664 -4.00000000
19.46570206 6.13004255 -1.66601896 5 16 7112 20.47600000 3176569667 3176569667 -4.66700000
40.29919434 17.17243958 1.27486360 17 17 7112 43.82400000 3176569667 3176569667 1.66700000
40.27566910 12.68341541 0.73705006 19 18 7112 42.23200000 3176569669 3176569669 1.00000000
20.59058380 8.77413464 -1.43443966 7 19 7112 22.42800000 3176569669 3176569669 -3.66700000
20.60554314 5.39423323 -1.24045420 16 20 7113 21.33600000 3176569671 3176569671 -3.33300000
40.36619568 14.90788555 2.50602436 13 21 7113 43.10400000 3176569671 3176569671 3.33300000
40.48921585 12.73513031 1.72924531 18 22 7114 42.48000000 3176569674 3176569674 2.33300000
20.66525459 7.62791300 -1.02610433 22 23 7114 22.05200000 3176569674 3176569674 -2.66700000
20.64248848 6.48875237 -1.13401544 29 24 7115 21.66800000 3176569676 3176569676 -3.00000000
43.35658646 15.99508953 5.67423677 19 25 7115 46.56000000 3176569676 3176569676 7.00000000
43.33296204 13.61295795 3.70794177 10 26 7116 45.57200000 3176569678 3176569678 4.66700000
20.69173241 8.80017281 -0.91607666 26 27 7116 22.50400000 3176569678 3176569678 -2.33300000
20.67806435 5.39779520 -0.74629086 16 28 7117 21.38400000 3176569681 3176569681 -2.00000000
49.77262115 15.62641907 9.51157188 16 30 7117 53.02800000 3176569683 3176569683 10.33300000
36.55800247 13.47246361 -0.90661108 5 31 7117 38.97200000 3176569683 3176569683 -1.33300000
5.58490229 1.74485135 -2.72842360 8 0 7125 6.45600000 3176569704 3176569704 -25.00000000
39.01948929 16.52261925 -0.73963296 18 1 7125 42.38000000 3176569704 3176569704 -1.00000000
35.17374802 10.98234653 -1.07239342 7 2 7126 36.86400000 3176569706 3176569706 -1.66700000
8.31769276 3.05042958 -2.48009324 2 3 7126 9.20000000 3176569706 3176569706 -15.63900000
11.01189137 3.43614841 -2.30712390 4 4 7127 11.76400000 3176569708 3176569708 -11.31000000
40.34701920 14.78887177 0.00000000 21 5 7127 42.97200000 3176569708 3176569708 0.00000000
40.65393448 10.53653526 -0.48892549 31 6 7127 42.00000000 3176569711 3176569711 -0.66700000
12.84010983 4.70643759 -2.12758780 1 7 7127 13.84000000 3176569711 3176569711 -8.84300000
15.14846802 4.72402382 -2.01978660 2 8 7128 15.99600000 3176569713 3176569713 -7.25400000
40.33760452 17.05586624 0.25453857 18 9 7128 43.79600000 3176569713 3176569713 0.33300000
40.27657700 12.55246925 -0.24519302 16 10 7129 42.18800000 3176569715 3176569715 -0.33300000
16.18920517 5.92761183 -1.85706282 2 11 7129 17.34000000 3176569715 3176569715 -6.14800000
18.65834808 4.82537699 -1.79902542 6 12 7130 19.35600000 3176569717 3176569717 -5.33300000
40.29501724 14.74588203 0.99845397 14 13 7130 42.92000000 3176569717 3176569717 1.33300000
40.30501175 10.41607952 0.48464158 19 14 7131 41.63200000 3176569720 3176569720 0.66700000
20.45741653 7.48230314 -1.52320242 26 15 7131 21.83600000 3176569720 3176569720 -4.00000000
19.49459457 6.06442595 -1.66666985 5 16 7132 20.48400000 3176569722 3176569722 -4.66700000
40.28890228 17.00212669 1.27265263 17 17 7132 43.74800000 3176569722 3176569722 1.66700000
40.28751373 12.52502632 0.73642176 19 18 7133 42.19600000 3176569724 3176569724 1.00000000
20.60789299 8.69240189 -1.43341637 7 19 7133 22.41200000 3176569724 3176569724 -3.66700000
20.60878181 5.31828213 -1.23952389 19 20 7133 21.32000000 3176569727 3176569727 -3.33300000
40.39923096 14.76003838 2.50486159 13 21 7133 43.08400000 3176569727 3176569727 3.33300000
40.22045135 12.49647999 1.71589327 17 22 7134 42.15200000 3176569729 3176569729 2.33300000
20.66923523 7.54750824 -1.02498758 22 23 7134 22.02800000 3176569729 3176569729 -2.66700000
20.62686348 6.40481138 -1.13192201 29 24 7135 21.62800000 3176569731 3176569731 -3.00000000
42.32550812 13.13432026 3.61778998 30 26 7136 44.46400000 3176569734 3176569734 4.66700000
20.68549156 8.71237755 -0.91444832 28 27 7136 22.46400000 3176569734 3176569734 -2.33300000
20.68129349 5.32159758 -0.74573243 16 28 7137 21.36800000 3176569736 3176569736 -2.00000000
49.58631897 15.37798500 9.46565342 16 30 7137 52.77200000 3176569738 3176569738 10.33300000
36.64237976 13.35846710 -0.90754163 5 31 7137 39.01200000 3176569738 3176569738 -1.33300000
5.59095907 1.72534585 -2.72842360 8 0 7145 6.45600000 3176569759 3176569759 -25.00000000
38.91095352 16.31671715 -0.73649156 26 1 7145 42.20000000 3176569759 3176569759 -1.00000000
35.25771713 10.87364006 -1.07378983 7 2 7146 36.91200000 3176569761 3176569761 -1.66700000
8.33191109 3.02269053 -2.48117161 3 3 7146 9.20400000 3176569761 3176569761 -15.63900000
11.02007103 3.39653373 -2.30633926 2 4 7147 11.76000000 3176569763 3176569763 -11.31000000
40.33446884 14.62476540 0.00000000 21 5 7147 42.90400000 3176569763 3176569763 0.00000000
40.47525406 10.33206081 -0.48631790 20 6 7148 41.77600000 3176569766 3176569766 -0.66700000
12.85727310 4.65934467 -2.12758780 1 7 7148 13.84000000 3176569766 3176569766 -8.84300000
15.16486549 4.67111683 -2.01978660 2 8 7148 15.99600000 3176569768 3176569768 -7.25400000
40.33048248 16.88714981 0.25412011 18 9 7148 43.72400000 3176569768 3176569768 0.33300000
40.34690857 12.42003918 -0.24535576 24 10 7149 42.21600000 3176569770 3176569770 -0.33300000
16.20979691 5.87106466 -1.85706282 2 11 7149 17.34000000 3176569770 3176569770 -6.14800000
18.68279648 4.76218557 -1.79976892 6 12 7150 19.36400000 3176569773 3176569773 -5.33300000
40.28984451 14.58471966 0.99705821 14 13 7150 42.86000000 3176569773 3176569773 1.33300000
