# .PCD v0.7 - Point Cloud Data file format
VERSION 0.7
FIELDS x y z intensity laser_id azimuth distance_m adjustedtime timestamp vertical_angle
SIZE 4 4 4 1 1 2 8 8 4 8
TYPE F F F U U U F U U F
COUNT 1 1 1 1 1 1 1 1 1 1
WIDTH 523
HEIGHT 1
VIEWPOINT 0 0 0 1 0 0 0
POINTS 523
DATA ascii
40.06384659 14.31338596 2.47765255 13 21 7174 42.61600000 3184469756 3184469756 3.33300000
40.40829849 12.23847198 1.72012687 18 22 7175 42.25600000 3184469758 3184469758 2.33300000
20.67755890 7.38328648 -1.02275407 24 23 7175 21.98000000 3184469758 3184469758 -2.66700000
20.64540482 6.24894571 -1.13045669 32 24 7176 21.60000000 3184469761 3184469761 -3.00000000
43.09067154 15.37780380 5.61768913 28 25 7176 46.09600000 3184469761 3184469761 7.00000000
41.91469955 12.67874527 3.57482958 29 26 7177 43.93600000 3184469763 3184469763 4.66700000
20.68450165 8.53820992 -0.91168028 26 27 7177 22.39600000 3184469763 3184469763 -2.33300000
20.68005943 5.16378593 -0.74433649 14 28 7178 21.32800000 3184469765 3184469765 -2.00000000
49.60730362 14.98677635 9.44843388 16 30 7179 52.67600000 3184469768 3184469768 10.33300000
37.11224747 13.22237587 -0.91675383 5 31 7179 39.40800000 3184469768 3184469768 -1.33300000
5.61357689 1.68842649 -2.73349500 6 0 7186 6.46800000 3184469788 3184469788 -25.00000000
39.25606918 16.13211250 -0.74081975 9 1 7186 42.44800000 3184469788 3184469788 -1.00000000
35.61797714 10.70623589 -1.08240056 7 2 7187 37.20800000 3184469791 3184469791 -1.66700000
8.35332775 2.96299171 -2.48117161 2 3 7187 9.20400000 3184469791 3184469791 -15.63900000
11.04409313 3.31758928 -2.30633926 4 4 7188 11.76000000 3184469793 3184469793 -11.31000000
40.24958420 14.26893902 0.00000000 14 5 7188 42.70400000 3184469793 3184469793 0.00000000
39.38171768 9.76058006 -0.47234860 29 6 7188 40.57600000 3184469795 3184469795 -0.66700000
12.90438938 4.57475376 -2.13004756 1 7 7188 13.85600000 3184469795 3184469795 -8.84300000
15.20930386 4.56590366 -2.02130175 2 8 7189 16.00800000 3184469798 3184469798 -7.25400000
40.32077408 16.54497528 0.25330645 18 9 7189 43.58400000 3184469798 3184469798 0.33300000
40.51137543 12.15399551 -0.24582070 24 10 7190 42.29600000 3184469800 3184469800 -0.33300000
16.26638985 5.76023054 -1.85877633 2 11 7190 17.35600000 3184469800 3184469800 -6.14800000
18.72799492 4.63124132 -1.80088425 4 12 7191 19.37600000 3184469802 3184469802 -5.33300000
40.26500320 14.25067711 0.99389440 21 13 7191 42.72400000 3184469802 3184469802 1.33300000
40.39031982 9.98063278 0.48436219 19 14 7192 41.60800000 3184469804 3184469804 0.66700000
20.60363007 7.28803492 -1.52822483 12 15 7192 21.90800000 3184469804 3184469804 -4.00000000
19.56187248 5.85768032 -1.66699529 5 16 7193 20.48800000 3184469807 3184469807 -4.66700000
40.33442307 16.51768684 1.26846361 17 17 7193 43.60400000 3184469807 3184469807 1.66700000
40.50841522 12.12999153 0.73809719 29 18 7193 42.29200000 3184469809 3184469809 1.00000000
20.59804726 8.43527889 -1.42650890 13 19 7193 22.30400000 3184469809 3184469809 -3.66700000
20.62546349 5.08900785 -1.23719835 19 20 7194 21.28000000 3184469811 3184469811 -3.33300000
39.99684525 14.13220882 2.47044325 19 21 7194 42.49200000 3184469811 3184469811 3.33300000
40.65371323 12.15803909 1.72875679 18 22 7195 42.46800000 3184469814 3184469814 2.33300000
20.66929626 7.29908895 -1.02107894 25 23 7195 21.94400000 3184469814 3184469814 -2.66700000
20.64412880 6.16997862 -1.12920058 29 24 7196 21.57600000 3184469816 3184469816 -3.00000000
43.15157318 15.22993851 5.61866426 28 25 7196 46.10400000 3184469816 3184469816 7.00000000
42.20700073 12.60652065 3.59598422 80 26 7197 44.19600000 3184469818 3184469818 4.66700000
20.68458366 8.45385838 -0.91037762 26 27 7197 22.36400000 3184469818 3184469818 -2.33300000
20.67466736 5.08583832 -0.74349886 16 28 7198 21.30400000 3184469821 3184469821 -2.00000000
49.49339294 14.76402855 9.41686535 15 30 7199 52.50000000 3184469823 3184469823 10.33300000
37.17703247 13.09939384 -0.91721910 5 31 7199 39.42800000 3184469823 3184469823 -1.33300000
5.61943626 1.66882110 -2.73349500 7 0 7206 6.46800000 3184469844 3184469844 -25.00000000
39.31584549 15.99649143 -0.74088955 9 1 7206 42.45200000 3184469844 3184469844 -1.00000000
35.72412491 10.60231781 -1.08449507 7 2 7207 37.28000000 3184469846 3184469846 -1.66700000
8.35998440 2.93253994 -2.48009324 2 3 7207 9.20000000 3184469846 3184469846 -15.63900000
11.04808617 3.27678752 -2.30477047 4 4 7208 11.75200000 3184469848 3184469848 -11.31000000
40.34066772 14.14291191 0.00000000 21 5 7208 42.74800000 3184469848 3184469848 0.00000000
40.48020554 9.88298130 -0.48510721 20 6 7208 41.67200000 3184469851 3184469851 -0.66700000
12.92027950 4.52968121 -2.13004756 1 7 7208 13.85600000 3184469851 3184469851 -8.84300000
15.22895336 4.51391315 -2.02180672 4 8 7209 16.01200000 3184469853 3184469853 -7.25400000
40.32269287 16.38154602 0.25295773 18 9 7209 43.52400000 3184469853 3184469853 0.33300000
40.50369644 11.99774170 -0.24551848 24 10 7210 42.24400000 3184469855 3184469855 -0.33300000
16.32393265 5.71655989 -1.86306024 2 11 7210 17.39600000 3184469855 3184469855 -6.14800000
18.72856903 4.56206989 -1.79939711 6 12 7211 19.36000000 3184469857 3184469857 -5.33300000
40.23524094 14.08229733 0.99194032 14 13 7211 42.64000000 3184469857 3184469857 1.33300000
40.40548325 9.83485413 0.48412937 19 14 7212 41.58800000 3184469860 3184469860 0.66700000
20.59881210 7.20553017 -1.52599263 16 15 7212 21.87600000 3184469860 3184469860 -4.00000000
19.59366989 5.79275179 -1.66797173 5 16 7213 20.50000000 3184469862 3184469862 -4.66700000
40.30661392 16.34223938 1.26578736 17 17 7213 43.51200000 3184469862 3184469862 1.66700000
40.46997070 11.96470547 0.73663116 19 18 7213 42.20800000 3184469864 3184469864 1.00000000
20.60517120 8.35432720 -1.42497396 21 19 7213 22.28000000 3184469864 3184469864 -3.66700000
20.61594009 5.01037884 -1.23557043 19 20 7214 21.25200000 3184469867 3184469867 -3.33300000
40.01200485 13.98065281 2.46835017 19 21 7214 42.45600000 3184469867 3184469867 3.33300000
40.43525696 11.93909645 1.71768439 17 22 7215 42.19600000 3184469869 3184469869 2.33300000
20.66447067 7.21635628 -1.01959002 25 23 7215 21.91200000 3184469869 3184469869 -2.66700000
20.63105965 6.08770514 -1.12731647 32 24 7216 21.54000000 3184469871 3184469871 -3.00000000
43.74799728 15.26891899 5.68934822 38 25 7216 46.68400000 3184469871 3184469871 7.00000000
42.44959259 12.51775074 3.61290812 20 26 7217 44.40400000 3184469874 3184469874 4.66700000
20.68803215 8.37111092 -0.90923780 28 27 7217 22.33600000 3184469874 3184469874 -2.33300000
20.68063927 5.01081514 -0.74308008 16 28 7218 21.29200000 3184469876 3184469876 -2.00000000
37.31466675 13.00894928 -0.91954541 5 31 7218 39.52800000 3184469878 3184469878 -1.33300000
5.61798239 1.64813614 -2.73011398 8 0 7225 6.46000000 3184469899 3184469899 -25.00000000
39.36125565 15.86303711 -0.74074996 18 1 7225 42.44400000 3184469899 3184469899 -1.00000000
35.90488815 10.52653885 -1.08891690 7 2 7226 37.43200000 3184469901 3184469901 -1.66700000
8.37330246 2.90606427 -2.48117161 2 3 7226 9.20400000 3184469901 3184469901 -15.63900000
11.07018375 3.24344110 -2.30712390 2 4 7227 11.76400000 3184469904 3184469904 -11.31000000
40.34577560 13.99464035 0.00000000 21 5 7227 42.70400000 3184469904 3184469904 0.00000000
39.71334457 9.54899311 -0.47551498 20 6 7228 40.84800000 3184469906 3184469906 -0.66700000
12.92107487 4.47937489 -2.12758780 1 7 7228 13.84000000 3184469906 3184469906 -8.84300000
15.23622227 4.46115685 -2.02079654 2 8 7228 16.00400000 3184469908 3184469908 -7.25400000
40.32113266 16.22534370 0.25260901 18 9 7228 43.46400000 3184469908 3184469908 0.33300000
40.50102997 11.85100365 -0.24526276 24 10 7229 42.20000000 3184469910 3184469910 -0.33300000
16.35031509 5.66500044 -1.86391699 2 11 7229 17.40400000 3184469910 3184469910 -6.14800000
18.75133896 4.50179815 -1.80014074 6 12 7230 19.36800000 3184469913 3184469913 -5.33300000
40.25904465 13.94094467 0.99138200 14 13 7230 42.61600000 3184469913 3184469913 1.33300000
40.35619736 9.68121624 0.48315153 19 14 7231 41.50400000 3184469915 3184469915 0.66700000
20.59619713 7.12804747 -1.52403939 14 15 7231 21.84800000 3184469915 3184469915 -4.00000000
19.60511780 5.72550964 -1.66732073 5 16 7232 20.49200000 3184469917 3184469917 -4.66700000
40.29751205 16.18315697 1.26380920 17 17 7232 43.44400000 3184469917 3184469917 1.66700000
40.46157837 11.80879974 0.73572367 19 18 7233 42.15600000 3184469920 3184469920 1.00000000
20.60827637 8.27194214 -1.42318320 23 19 7233 22.25200000 3184469920 3184469920 -3.66700000
20.61302376 4.93733597 -1.23440766 19 20 7233 21.23200000 3184469922 3184469922 -3.33300000
40.04304886 13.84267330 2.46742010 19 21 7233 42.44000000 3184469922 3184469922 3.33300000
40.50148392 11.81277561 1.71882427 26 22 7234 42.22400000 3184469924 3184469924 2.33300000
20.65807533 7.13735247 -1.01810098 24 23 7234 21.88000000 3184469924 3184469924 -2.66700000
20.64346313 6.01702070 -1.12689781 32 24 7235 21.53200000 3184469927 3184469927 -3.00000000
44.29375458 15.29481220 5.75369549 19 25 7235 47.21200000 3184469927 3184469927 7.00000000
42.54063034 12.39140797 3.61713910 20 26 7236 44.45600000 3184469929 3184469929 4.66700000
20.68228912 8.28907967 -0.90777236 23 27 7236 22.30000000 3184469929 3184469929 -2.33300000
20.67381287 4.93663740 -0.74224252 14 28 7237 21.26800000 3184469931 3184469931 -2.00000000
37.57686234 12.96076393 -0.92494243 5 31 7237 39.76000000 3184469934 3184469934 -1.33300000
5.63066530 1.63053250 -2.73349500 7 0 7245 6.46800000 3184469954 3184469954 -25.00000000
39.42010498 15.72702599 -0.74081975 18 1 7245 42.44800000 3184469954 3184469954 -1.00000000
35.99902344 10.41781521 -1.09066236 7 2 7246 37.49200000 3184469957 3184469957 -1.66700000
8.38703918 2.87806845 -2.48224998 4 3 7246 9.20800000 3184469957 3184469957 -15.63900000
11.07767010 3.20368958 -2.30633926 4 4 7247 11.76000000 3184469959 3184469959 -11.31000000
40.33005905 13.83166218 0.00000000 21 5 7247 42.63600000 3184469959 3184469959 0.00000000
12.95158768 4.43937111 -2.13004756 1 7 7248 13.85600000 3184469961 3184469961 -8.84300000
15.25551414 4.40904713 -2.02130175 4 8 7248 16.00800000 3184469963 3184469963 -7.25400000
40.31435394 16.05933189 0.25221381 27 9 7248 43.39600000 3184469963 3184469963 0.33300000
40.49988174 11.69734764 -0.24500704 15 10 7249 42.15600000 3184469966 3184469966 -0.33300000
16.37375259 5.60918140 -1.86434543 2 11 7249 17.40800000 3184469966 3184469966 -6.14800000
18.77856636 4.43906498 -1.80125606 6 12 7250 19.38000000 3184469968 3184469968 -5.33300000
40.28854752 13.79385281 0.99091673 13 13 7250 42.59600000 3184469968 3184469968 1.33300000
40.17954254 9.49063778 0.48063704 19 14 7251 41.28800000 3184469970 3184469970 0.66700000
20.60207748 7.04965067 -1.52264428 16 15 7251 21.82800000 3184469970 3184469970 -4.00000000
19.63647652 5.66035318 -1.66829717 5 16 7252 20.50400000 3184469973 3184469973 -4.66700000
40.31288528 16.02614784 1.26252913 17 17 7252 43.40000000 3184469973 3184469973 1.66700000
40.46208572 11.66348171 0.73502553 19 18 7252 42.11600000 3184469975 3184469975 1.00000000
20.60220909 8.19028473 -1.42088068 26 19 7252 22.21600000 3184469975 3184469975 -3.66700000
20.61070061 4.86076975 -1.23324490 13 20 7253 21.21200000 3184469977 3184469977 -3.33300000
40.00043869 13.67181587 2.46183872 19 21 7253 42.34400000 3184469977 3184469977 3.33300000
40.51942825 11.66469288 1.71784723 17 22 7254 42.20000000 3184469980 3184469980 2.33300000
20.66395760 7.05874062 -1.01717031 22 23 7254 21.86000000 3184469980 3184469980 -2.66700000
20.63363075 5.93608999 -1.12522304 25 24 7255 21.50000000 3184469982 3184469982 -3.00000000
42.48783875 12.21529865 3.60900259 30 26 7256 44.35600000 3184469984 3184469984 4.66700000
20.68137741 8.20504284 -0.90646970 24 27 7256 22.26800000 3184469984 3184469984 -2.33300000
20.66757011 4.85895300 -0.74140489 14 28 7257 21.24400000 3184469987 3184469987 -2.00000000
37.73542404 12.86823750 -0.92773402 5 31 7257 39.88000000 3184469989 3184469989 -1.33300000
5.62238026 1.60688305 -2.72673297 7 0 7265 6.45200000 3184470010 3184470010 -25.00000000
39.25529099 15.50265598 -0.73670095 26 1 7265 42.21200000 3184470010 3184470010 -1.00000000
36.20048523 10.33930874 -1.09566593 7 2 7266 37.66400000 3184470012 3184470012 -1.66700000
8.39338684 2.84753704 -2.48117161 3 3 7266 9.20400000 3184470012 3184470012 -15.63900000
11.09632874 3.16715479 -2.30790830 2 4 7267 11.76800000 3184470015 3184470015 -11.31000000
40.33642578 13.67667007 0.00000000 21 5 7267 42.59200000 3184470015 3184470015 0.00000000
39.59434891 9.23575020 -0.47332644 19 6 7267 40.66000000 3184470017 3184470017 -0.66700000
12.96998119 4.39766693 -2.13066244 1 7 7267 13.86000000 3184470017 3184470017 -8.84300000
15.27081108 4.35576868 -2.02130175 2 8 7268 16.00800000 3184470019 3184470019 -7.25400000
40.30690765 15.89356804 0.25181860 18 9 7268 43.32800000 3184470019 3184470019 0.33300000
40.49815369 11.54384422 -0.24475130 15 10 7269 42.11200000 3184470022 3184470022 -0.33300000
16.38946533 5.55071640 -1.86391699 2 11 7269 17.40400000 3184470022 3184470022 -6.14800000
18.79006958 4.37258577 -1.80088425 4 12 7270 19.37600000 3184470024 3184470024 -5.33300000
40.28720856 13.63646793 0.98970705 13 13 7270 42.54400000 3184470024 3184470024 1.33300000
40.26307297 9.36210346 0.48124239 28 14 7271 41.34000000 3184470026 3184470026 0.66700000
20.60387993 6.97002077 -1.52097011 16 15 7271 21.80400000 3184470026 3184470026 -4.00000000
19.65995026 5.59286547 -1.66862261 5 16 7272 20.50800000 3184470028 3184470028 -4.66700000
40.27184296 15.84726524 1.25950372 17 17 7272 43.29600000 3184470028 3184470028 1.66700000
40.46792984 11.51232243 0.73439729 19 18 7272 42.08000000 3184470031 3184470031 1.00000000
20.59724045 8.10516453 -1.41857827 23 19 7272 22.18000000 3184470031 3184470031 -3.66700000
20.60809326 4.78428030 -1.23208213 19 20 7273 21.19200000 3184470033 3184470033 -3.33300000
40.08953476 13.54616642 2.46439672 19 21 7273 42.38800000 3184470033 3184470033 3.33300000
40.54451752 11.51881409 1.71719587 17 22 7274 42.18400000 3184470035 3184470035 2.33300000
20.66575813 6.97889662 -1.01605356 22 23 7274 21.83600000 3184470035 3184470035 -2.66700000
20.63501167 5.85857391 -1.12417638 29 24 7275 21.48000000 3184470038 3184470038 -3.00000000
43.44021606 14.66146278 5.62938881 28 25 7275 46.19200000 3184470038 3184470038 7.00000000
42.62610245 12.09411907 3.61713910 30 26 7276 44.45600000 3184470040 3184470040 4.66700000
20.67269135 8.11819267 -0.90484142 24 27 7276 22.22800000 3184470040 3184470040 -2.33300000
20.66882515 4.78317499 -0.74084651 14 28 7277 21.22800000 3184470042 3184470042 -2.00000000
38.12494659 12.85268879 -0.93620181 5 31 7277 40.24400000 3184470045 3184470045 -1.33300000
5.62795496 1.58724749 -2.72673297 8 0 7285 6.45200000 3184470065 3184470065 -25.00000000
39.16389465 15.30875015 -0.73397839 17 1 7285 42.05600000 3184470065 3184470065 -1.00000000
36.29023361 10.22806644 -1.09729493 7 2 7286 37.72000000 3184470068 3184470068 -1.66700000
8.39962292 2.81699657 -2.48009324 3 3 7286 9.20000000 3184470068 3184470068 -15.63900000
11.10731697 3.12840223 -2.30790830 2 4 7287 11.76800000 3184470070 3184470070 -11.31000000
40.34220123 13.52180386 0.00000000 21 5 7287 42.54800000 3184470070 3184470070 0.00000000
40.42549896 9.28095531 -0.48287213 20 6 7287 41.48000000 3184470072 3184470072 -0.66700000
12.98525238 4.35236645 -2.13066244 2 7 7287 13.86000000 3184470072 3184470072 -8.84300000
15.29356194 4.30458736 -2.02231193 2 8 7288 16.01600000 3184470075 3184470075 -7.25400000
40.29133987 15.72514248 0.25137690 18 9 7288 43.25200000 3184470075 3184470075 0.33300000
40.46504211 11.38183117 -0.24430960 15 10 7289 42.03600000 3184470077 3184470077 -0.33300000
16.41251183 5.49473524 -1.86434543 2 11 7289 17.40800000 3184470077 3184470077 -6.14800000
18.80133438 4.30608082 -1.80051243 6 12 7290 19.37200000 3184470079 3184470079 -5.33300000
40.28526306 13.47926044 0.98849738 20 13 7290 42.49200000 3184470079 3184470079 1.33300000
40.20583344 9.20098019 0.48017141 19 14 7291 41.24800000 3184470081 3184470081 0.66700000
20.60916328 6.89173031 -1.51957500 16 15 7291 21.78400000 3184470081 3184470081 -4.00000000
19.68319130 5.52528238 -1.66894805 7 16 7292 20.51200000 3184470084 3184470084 -4.66700000
40.31201553 15.70078945 1.25903833 17 17 7292 43.28000000 3184470084 3184470084 1.66700000
40.46166229 11.35802269 0.73355955 19 18 7292 42.03200000 3184470086 3184470086 1.00000000
20.59937096 8.02307606 -1.41678739 23 19 7292 22.15200000 3184470086 3184470086 -3.66700000
20.60520363 4.70786810 -1.23091936 19 20 7293 21.17200000 3184470088 3184470088 -3.33300000
40.19338608 13.42512226 2.46788526 6 21 7293 42.44800000 3184470088 3184470088 3.33300000
40.47287750 11.34593105 1.71247387 17 22 7294 42.06800000 3184470091 3184470091 2.33300000
20.65967178 6.89659548 -1.01456463 22 23 7294 21.80400000 3184470091 3184470091 -2.66700000
20.62071991 5.77681065 -1.12229228 29 24 7295 21.44400000 3184470093 3184470093 -3.00000000
43.33295059 14.45696640 5.60891485 28 25 7295 46.02400000 3184470093 3184470093 7.00000000
42.72948456 11.96244907 3.62234640 30 26 7296 44.52000000 3184470095 3184470095 4.66700000
20.67110252 8.03439903 -0.90353882 24 27 7296 22.19600000 3184470095 3184470095 -2.33300000
20.66590691 4.70655966 -0.74014854 16 28 7297 21.20800000 3184470098 3184470098 -2.00000000
38.27580261 12.75492859 -0.93880731 5 31 7297 40.35600000 3184470100 3184470100 -1.33300000
5.64044619 1.56953621 -2.73011398 7 0 7305 6.46000000 3184470121 3184470121 -25.00000000
39.24693298 15.18349361 -0.73453689 17 1 7305 42.08800000 3184470121 3184470121 -1.00000000
36.49135590 10.14738941 -1.10229850 7 2 7306 37.89200000 3184470123 3184470123 -1.66700000
8.41306114 2.78887129 -2.48117161 3 3 7306 9.20400000 3184470123 3184470123 -15.63900000
11.10683155 3.08646083 -2.30555487 4 4 7307 11.75600000 3184470125 3184470125 -11.31000000
40.32840347 13.36077309 0.00000000 21 5 7307 42.48400000 3184470125 3184470125 0.00000000
13.00036621 4.30701303 -2.13066244 1 7 7307 13.86000000 3184470128 3184470128 -8.84300000
15.31614113 4.25330019 -2.02332211 2 8 7308 16.02400000 3184470130 3184470130 -7.25400000
40.31613541 15.57287312 0.25119090 27 9 7308 43.22000000 3184470130 3184470130 0.33300000
40.49296188 11.23730373 -0.24423987 7 10 7309 42.02400000 3184470132 3184470132 -0.33300000
16.42781639 5.43616199 -1.86391699 2 11 7309 17.40400000 3184470132 3184470132 -6.14800000
18.82013702 4.24130106 -1.80088425 6 12 7310 19.37600000 3184470134 3184470134 -5.33300000
40.27132416 13.31846619 0.98700851 13 13 7310 42.42800000 3184470134 3184470134 1.33300000
40.14015198 9.03861332 0.47900730 18 14 7311 41.14800000 3184470137 3184470137 0.66700000
20.59899521 6.80847836 -1.51706374 16 15 7311 21.74800000 3184470137 3184470137 -4.00000000
19.70235825 5.45654202 -1.66894805 5 16 7312 20.51200000 3184470139 3184470139 -4.66700000
40.30688095 15.53696918 1.25717652 17 17 7312 43.21600000 3184470139 3184470139 1.66700000
40.41436768 11.18511105 0.73195392 28 18 7313 41.94000000 3184470141 3184470141 1.00000000
20.59138870 7.93317127 -1.41422915 26 19 7313 22.11200000 3184470141 3184470141 -3.66700000
20.60203171 4.63153458 -1.22975659 19 20 7313 21.15200000 3184470144 3184470144 -3.33300000
40.19829178 13.27096844 2.46532702 19 21 7313 42.40400000 3184470144 3184470144 3.33300000
40.46601105 11.19180107 1.71051991 17 22 7314 42.02000000 3184470146 3184470146 2.33300000
20.66464806 6.81817770 -1.01363397 22 23 7314 21.78400000 3184470146 3184470146 -2.66700000
20.62150764 5.69947529 -1.12124550 29 24 7315 21.42400000 3184470148 3184470148 -3.00000000
43.21725082 14.25091267 5.58746576 27 25 7315 45.84800000 3184470148 3184470148 7.00000000
42.91316605 11.85249329 3.63438821 20 26 7316 44.66800000 3184470151 3184470151 4.66700000
20.68037033 7.95501995 -0.90272462 24 27 7316 22.17600000 3184470151 3184470151 -2.33300000
20.66660690 4.63089705 -0.73959011 16 28 7317 21.19200000 3184470153 3184470153 -2.00000000
38.39605713 12.64626312 -0.94066834 5 31 7317 40.43600000 3184470155 3184470155 -1.33300000
5.64938641 1.55079746 -2.73180437 7 0 7325 6.46400000 3184470176 3184470176 -25.00000000
39.49765015 15.12219334 -0.73823678 17 1 7325 42.30000000 3184470176 3184470176 -1.00000000
36.67307663 10.06014252 -1.10672033 7 2 7326 38.04400000 3184470178 3184470178 -1.66700000
8.42274475 2.75948739 -2.48117161 3 3 7326 9.20400000 3184470178 3184470178 -15.63900000
11.12510300 3.04974580 -2.30712390 4 4 7327 11.76400000 3184470180 3184470180 -11.31000000
40.32917786 13.20498276 0.00000000 21 5 7327 42.43600000 3184470180 3184470180 0.00000000
40.18631744 8.92381001 -0.47924012 20 6 7328 41.16800000 3184470183 3184470183 -0.66700000
13.01982117 4.26056433 -2.13127732 2 7 7328 13.86400000 3184470183 3184470183 -8.84300000
15.31941414 4.19666576 -2.02180672 2 8 7328 16.01200000 3184470185 3184470185 -7.25400000
40.28431702 15.39919949 0.25065622 18 9 7328 43.12800000 3184470185 3184470185 0.33300000
40.53965759 11.09800053 -0.24428636 23 10 7329 42.03200000 3184470187 3184470187 -0.33300000
16.45425224 5.38125753 -1.86477375 2 11 7329 17.41200000 3184470187 3184470187 -6.14800000
18.84649277 4.17816687 -1.80199957 6 12 7330 19.38800000 3184470190 3184470190 -5.33300000
40.27575684 13.16414642 0.98598492 20 13 7330 42.38400000 3184470190 3184470190 1.33300000
39.95668030 8.85086632 0.47644624 27 14 7331 40.92800000 3184470192 3184470192 0.66700000
20.60746384 6.73157692 -1.51594770 16 15 7331 21.73200000 3184470192 3184470192 -4.00000000
19.72513008 5.38878536 -1.66927350 7 16 7332 20.51600000 3184470194 3184470194 -4.66700000
40.28615570 15.36767578 1.25484931 17 17 7332 43.13600000 3184470194 3184470194 1.66700000
40.42423248 11.04365253 0.73146528 28 18 7332 41.91200000 3184470197 3184470197 1.00000000
20.60266495 7.85915327 -1.41320574 23 19 7332 22.09600000 3184470197 3184470197 -3.66700000
20.60637474 4.55700493 -1.22905886 19 20 7333 21.14000000 3184470199 3184470199 -3.33300000
40.12668610 13.09217262 2.45811772 19 21 7333 42.28000000 3184470199 3184470199 3.33300000
40.48169708 11.04416847 1.70954299 17 22 7334 41.99600000 3184470201 3184470201 2.33300000
20.66552925 6.73857117 -1.01251721 24 23 7334 21.76000000 3184470201 3184470201 -2.66700000
20.62200737 5.62220430 -1.12019885 29 24 7335 21.40400000 3184470204 3184470204 -3.00000000
43.12706757 14.05445385 5.56942892 18 25 7335 45.70000000 3184470204 3184470204 7.00000000
43.41201401 11.82733440 3.67311788 41 26 7336 45.14400000 3184470206 3184470206 4.66700000
20.67439651 7.86998653 -0.90125918 24 27 7336 22.14000000 3184470206 3184470206 -2.33300000
20.67093468 4.55614758 -0.73917133 14 28 7337 21.18000000 3184470208 3184470208 -2.00000000
38.42313766 12.49926376 -0.94020307 5 31 7338 40.41600000 3184470210 3184470210 -1.33300000
5.65476513 1.53106797 -2.73180437 7 0 7345 6.46400000 3184470231 3184470231 -25.00000000
39.50905609 14.96864223 -0.73746890 17 1 7345 42.25600000 3184470231 3184470231 -1.00000000
36.72726822 9.93729019 -1.10730207 7 2 7346 38.06400000 3184470233 3184470233 -1.66700000
8.43232632 2.73006964 -2.48117161 3 3 7346 9.20400000 3184470233 3184470233 -15.63900000
11.13568115 3.01089334 -2.30712390 4 4 7347 11.76400000 3184470236 3184470236 -11.31000000
40.31793976 13.04565620 0.00000000 21 5 7347 42.37600000 3184470236 3184470236 0.00000000
40.09999466 8.75787640 -0.47784320 30 6 7348 41.04800000 3184470238 3184470238 -0.66700000
13.03461361 4.21509075 -2.13127732 2 7 7348 13.86400000 3184470238 3184470238 -8.84300000
15.33013916 4.14213037 -2.02130175 2 8 7348 16.00800000 3184470240 3184470240 -7.25400000
40.28544617 15.23867416 0.25033075 18 9 7348 43.07200000 3184470240 3184470240 0.33300000
40.48546982 10.93139839 -0.24372841 23 10 7349 41.93600000 3184470243 3184470243 -0.33300000
16.48050499 5.32623482 -1.86563063 2 11 7349 17.42000000 3184470243 3184470243 -6.14800000
18.86874390 4.11405182 -1.80274320 6 12 7350 19.39600000 3184470245 3184470245 -5.33300000
40.28340912 13.01118660 0.98505443 20 13 7350 42.34400000 3184470245 3184470245 1.33300000
40.04595184 8.72410870 0.47714472 18 14 7351 40.98800000 3184470247 3184470247 0.66700000
20.60425568 6.65102196 -1.51399446 16 15 7351 21.70400000 3184470247 3184470247 -4.00000000
19.75921822 5.32404757 -1.67057538 7 16 7352 20.53200000 3184470250 3184470250 -4.66700000
40.29092407 15.20860195 1.25333655 25 17 7352 43.08400000 3184470250 3184470250 1.66700000
40.33896255 10.86918259 0.72923136 18 18 7352 41.78400000 3184470252 3184470252 1.00000000
20.59636116 7.77450132 -1.41090333 23 19 7352 22.06000000 3184470252 3184470252 -3.66700000
20.59874535 4.47995567 -1.22766352 16 20 7353 21.11600000 3184470254 3184470254 -3.33300000
40.16834259 12.95079899 2.45788527 12 21 7353 42.27600000 3184470254 3184470254 3.33300000
40.09546661 10.78856277 1.69163179 26 22 7354 41.55600000 3184470257 3184470257 2.33300000
20.66230202 6.65781593 -1.01121438 22 23 7354 21.73200000 3184470257 3184470257 -2.66700000
20.62607765 5.54603720 -1.11936140 29 24 7355 21.38800000 3184470259 3184470259 -3.00000000
42.69214249 13.74805450 5.50703192 18 25 7355 45.18800000 3184470259 3184470259 7.00000000
43.24512863 11.61986160 3.65554309 30 26 7356 44.92800000 3184470261 3184470261 4.66700000
20.68304062 7.79072762 -0.90044504 24 27 7356 22.12000000 3184470261 3184470261 -2.33300000
20.66717911 4.47973061 -0.73847336 14 28 7357 21.16000000 3184470263 3184470263 -2.00000000
38.47579575 12.37545300 -0.94048226 16 31 7357 40.42800000 3184470266 3184470266 -1.33300000
5.65981150 1.51230776 -2.73180437 7 0 7364 6.46400000 3184470286 3184470286 -25.00000000
39.30758286 14.74343872 -0.73279166 17 1 7364 41.98800000 3184470286 3184470286 -1.00000000
36.94157791 9.86392212 -1.11277115 7 2 7365 38.25200000 3184470289 3184470289 -1.66700000
8.44133282 2.70209193 -2.48117161 3 3 7365 9.20400000 3184470289 3184470289 -15.63900000
11.14939404 2.97496080 -2.30790830 4 4 7366 11.76800000 3184470291 3184470291 -11.31000000
40.29621124 12.89116573 0.00000000 21 5 7366 42.30800000 3184470291 3184470291 0.00000000
40.15077209 8.63690281 -0.47812256 30 6 7366 41.07200000 3184470293 3184470293 -0.66700000
13.05532074 4.17652941 -2.13250709 2 7 7366 13.87200000 3184470293 3184470293 -8.84300000
15.35912704 4.09536028 -2.02332211 2 8 7367 16.02400000 3184470296 3184470296 -7.25400000
40.28706360 15.08676338 0.25002852 27 9 7367 43.02000000 3184470296 3184470296 0.33300000
40.42486954 10.77133751 -0.24314722 15 10 7368 41.83600000 3184470298 3184470298 -0.33300000
16.48671150 5.26792288 -1.86434543 2 11 7368 17.40800000 3184470298 3184470298 -6.14800000
18.88228416 4.05145788 -1.80274320 6 12 7369 19.39600000 3184470300 3184470300 -5.33300000
40.26919174 12.85928345 0.98365861 20 13 7369 42.28400000 3184470300 3184470300 1.33300000
40.09030533 8.59461689 0.47733098 27 14 7370 41.00400000 3184470303 3184470303 0.66700000
20.60719109 6.57659340 -1.51259935 18 15 7370 21.68400000 3184470303 3184470303 -4.00000000
19.77291298 5.25747013 -1.67024994 5 16 7371 20.52800000 3184470305 3184470305 -4.66700000
40.28870392 15.05531406 1.25170755 17 17 7371 43.02800000 3184470305 3184470305 1.66700000
40.15833664 10.67780209 0.72532201 18 18 7371 41.56000000 3184470307 3184470307 1.00000000
20.60333252 7.69917202 -1.40962422 23 19 7371 22.04000000 3184470307 3184470307 -3.66700000
20.60177422 4.40911627 -1.22696590 19 20 7372 21.10400000 3184470310 3184470310 -3.33300000
40.20346069 12.81509972 2.45742011 12 21 7372 42.26800000 3184470310 3184470310 3.33300000
39.93788147 10.60425949 1.68349028 17 22 7373 41.35600000 3184470312 3184470312 2.33300000
20.65381050 6.57955790 -1.00972533 22 23 7373 21.70000000 3184470312 3184470312 -2.66700000
20.62891197 5.47351027 -1.11852407 29 24 7374 21.37200000 3184470314 3184470314 -3.00000000
66.12359619 17.53235435 5.58453178 28 26 7375 68.63600000 3184470316 3184470316 4.66700000
20.68254852 7.71232271 -0.89930522 27 27 7375 22.09200000 3184470316 3184470316 -2.33300000
20.67019081 4.40866947 -0.73805457 14 28 7376 21.14800000 3184470319 3184470319 -2.00000000
38.37012863 12.19383717 -0.93685317 15 31 7377 40.27200000 3184470321 3184470321 -1.33300000
5.66531610 1.49155331 -2.73180437 7 0 7385 6.46400000 3184470342 3184470342 -25.00000000
39.36510849 14.60066128 -0.73286146 17 1 7385 41.99200000 3184470342 3184470342 -1.00000000
37.13988495 9.77118492 -1.11765838 7 2 7386 38.42000000 3184470344 3184470344 -1.66700000
8.44750690 2.66997385 -2.48009324 2 3 7386 9.20000000 3184470344 3184470344 -15.63900000
11.16401672 2.93507361 -2.30869269 4 4 7387 11.77200000 3184470346 3184470346 -11.31000000
40.27834702 12.72290421 0.00000000 14 5 7387 42.24000000 3184470346 3184470346 0.00000000
40.16650391 8.48637772 -0.47793630 20 6 7387 41.05600000 3184470349 3184470349 -0.66700000
13.06677151 4.12746048 -2.13189220 1 7 7387 13.86800000 3184470349 3184470349 -8.84300000
15.37019634 4.03803062 -2.02281690 2 8 7388 16.02000000 3184470351 3184470351 -7.25400000
40.30082703 14.92372322 0.24977280 27 9 7388 42.97600000 3184470351 3184470351 0.33300000
40.41765213 10.61091232 -0.24286824 23 10 7389 41.78800000 3184470353 3184470353 -0.33300000
16.50590897 5.20746040 -1.86434543 2 11 7389 17.40800000 3184470353 3184470353 -6.14800000
18.88921165 3.98058128 -1.80199957 6 12 7390 19.38800000 3184470356 3184470356 -5.33300000
40.25884628 12.69356537 0.98226285 20 13 7390 42.22400000 3184470356 3184470356 1.33300000
39.48357010 8.31329632 0.46974099 26 14 7391 40.35200000 3184470358 3184470358 0.66700000
20.60070992 6.49142647 -1.51036716 16 15 7391 21.65200000 3184470358 3184470358 -4.00000000
19.79204941 5.18496323 -1.67024994 5 16 7392 20.52800000 3184470360 3184470360 -4.66700000
40.26110077 14.87705898 1.24914753 16 17 7392 42.94000000 3184470360 3184470360 1.66700000
40.15464783 10.51939392 0.72455412 18 18 7392 41.51600000 3184470363 3184470363 1.00000000
20.60145760 7.61253643 -1.40757751 20 19 7392 22.00800000 3184470363 3184470363 -3.66700000
20.60607147 4.33111334 -1.22626817 19 20 7393 21.09200000 3184470365 3184470365 -3.33300000
40.23492432 12.66286469 2.45648980 12 21 7393 42.25200000 3184470365 3184470365 3.33300000
40.02287674 10.46994686 1.68544424 17 22 7394 41.40400000 3184470367 3184470367 2.33300000
20.66254044 6.49901819 -1.00898087 24 23 7394 21.68400000 3184470367 3184470367 -2.66700000
20.63337517 5.39382362 -1.11768663 25 24 7395 21.35600000 3184470369 3184470369 -3.00000000
43.34383774 13.62468624 5.57869101 18 25 7395 45.77600000 3184470369 3184470369 7.00000000
43.18247604 11.28039074 3.64350104 20 26 7396 44.78000000 3184470372 3184470372 4.66700000
20.68442726 7.62678671 -0.89816546 27 27 7396 22.06400000 3184470372 3184470372 -2.33300000
20.67056084 4.32960176 -0.73749614 14 28 7397 21.13200000 3184470374 3184470374 -2.00000000
38.41074753 12.05192471 -0.93676013 15 31 7398 40.26800000 3184470376 3184470376 -1.33300000
5.67023134 1.47275829 -2.73180437 8 0 7404 6.46400000 3184470397 3184470397 -25.00000000
39.34948349 14.44660950 -0.73167467 17 1 7404 41.92400000 3184470397 3184470397 -1.00000000
37.23787689 9.66504669 -1.11963642 7 2 7405 38.48800000 3184470399 3184470399 -1.66700000
8.45999146 2.64309502 -2.48117161 3 3 7405 9.20400000 3184470399 3184470399 -15.63900000
11.16609478 2.89606667 -2.30712390 4 4 7406 11.76400000 3184470402 3184470402 -11.31000000
40.28595352 12.57853699 0.00000000 14 5 7406 42.20400000 3184470402 3184470402 0.00000000
39.95946121 8.30430412 -0.47514245 20 6 7406 40.81600000 3184470404 3184470404 -0.66700000
13.08415985 4.08528471 -2.13250709 2 7 7406 13.87200000 3184470404 3184470404 -8.84300000
15.38734341 3.98803425 -2.02332211 2 8 7407 16.02400000 3184470406 3184470406 -7.25400000
40.29376221 14.76935005 0.24942409 26 9 7407 42.91600000 3184470406 3184470406 0.33300000
40.42551041 10.46980381 -0.24270551 23 10 7408 41.76000000 3184470409 3184470409 -0.33300000
16.53447723 5.15624809 -1.86563063 2 11 7408 17.42000000 3184470409 3184470409 -6.14800000
18.91790771 3.92115378 -1.80348670 6 12 7409 19.40400000 3184470411 3184470411 -5.33300000
40.24726868 12.54333496 0.98096007 13 13 7409 42.16800000 3184470411 3184470411 1.33300000
39.65975189 8.21314049 0.47151044 26 14 7410 40.50400000 3184470413 3184470413 0.66700000
20.59545517 6.41477013 -1.50841403 14 15 7410 21.62400000 3184470413 3184470413 -4.00000000
19.81299400 5.12029934 -1.67057538 5 16 7411 20.53200000 3184470416 3184470416 -4.66700000
40.26139832 14.72561264 1.24763477 25 17 7411 42.88800000 3184470416 3184470416 1.66700000
40.25126266 10.40219021 0.72567105 18 18 7411 41.58000000 3184470418 3184470418 1.00000000
20.58535004 7.52909470 -1.40476334 10 19 7411 21.96400000 3184470418 3184470418 -3.66700000
20.60076904 4.25871515 -1.22510540 19 20 7412 21.07200000 3184470420 3184470420 -3.33300000
40.22712326 12.51395130 2.45346665 12 21 7412 42.20000000 3184470420 3184470420 3.33300000
40.15412521 10.36213493 1.68951499 26 22 7413 41.50400000 3184470422 3184470422 2.33300000
20.65727043 6.42215967 -1.00767803 24 23 7413 21.65600000 3184470422 3184470422 -2.66700000
20.62407303 5.31838942 -1.11622131 25 24 7414 21.32800000 3184470425 3184470425 -3.00000000
43.36603165 13.47381020 5.57576609 18 25 7414 45.75200000 3184470425 3184470425 7.00000000
20.67956924 7.54719114 -0.89686280 24 27 7415 22.03200000 3184470427 3184470427 -2.33300000
20.67305756 4.25861216 -0.73707736 16 28 7416 21.12000000 3184470429 3184470429 -2.00000000
38.46195984 11.92803669 -0.93703932 10 31 7417 40.28000000 3184470432 3184470432 -1.33300000
5.68236160 1.45475471 -2.73518538 7 0 7424 6.47200000 3184470452 3184470452 -25.00000000
39.50868988 14.34875774 -0.73369914 17 1 7424 42.04000000 3184470452 3184470452 -1.00000000
37.41858292 9.57266045 -1.12405825 7 2 7425 38.64000000 3184470455 3184470455 -1.66700000
8.47284603 2.61468387 -2.48224998 3 3 7425 9.20800000 3184470455 3184470455 -15.63900000
11.18373585 2.85901499 -2.30869269 4 4 7426 11.77200000 3184470457 3184470457 -11.31000000
40.30668259 12.43076324 0.00000000 14 5 7426 42.18000000 3184470457 3184470457 0.00000000
39.90199280 8.14716625 -0.47411802 29 6 7426 40.72800000 3184470459 3184470459 -0.66700000
13.10211754 4.04075241 -2.13312221 2 7 7426 13.87600000 3184470459 3184470459 -8.84300000
15.40116978 3.93429828 -2.02332211 2 8 7427 16.02400000 3184470462 3184470462 -7.25400000
40.28490448 14.60679340 0.24905212 26 9 7427 42.85200000 3184470462 3184470462 0.33300000
40.36491776 10.30389595 -0.24212432 23 10 7428 41.66000000 3184470464 3184470464 -0.33300000
16.54857445 5.09733009 -1.86520219 2 11 7428 17.41600000 3184470464 3184470464 -6.14800000
18.93538094 3.85588861 -1.80385852 6 12 7429 19.40800000 3184470466 3184470466 -5.33300000
40.26787567 12.39570999 0.98040175 13 13 7429 42.14400000 3184470466 3184470466 1.33300000
39.90766907 8.11930656 0.47411802 27 14 7430 40.72800000 3184470468 3184470468 0.66700000
20.59865189 6.33697271 -1.50701880 12 15 7430 21.60400000 3184470468 3184470468 -4.00000000
19.83847427 5.05307627 -1.67122626 5 16 7431 20.54000000 3184470471 3184470471 -4.66700000
40.24488068 14.56049919 1.24554026 16 17 7431 42.81600000 3184470471 3184470471 1.66700000
40.31833267 10.26952076 0.72622955 18 18 7431 41.61200000 3184470473 3184470473 1.00000000
20.58898544 7.44904423 -1.40322840 10 19 7431 21.94000000 3184470473 3184470473 -3.66700000
20.60768127 4.18518972 -1.22464037 26 20 7432 21.06400000 3184470475 3184470475 -3.33300000
40.23620605 12.36290073 2.45137358 12 21 7432 42.16400000 3184470475 3184470475 3.33300000
40.07772446 10.19333839 1.68479288 26 22 7433 41.38800000 3184470478 3184470478 2.33300000
20.65664291 6.34297562 -1.00656128 25 23 7433 21.63200000 3184470478 3184470478 -2.66700000
20.62702560 5.24242973 -1.11538386 29 24 7434 21.31200000 3184470480 3184470480 -3.00000000
43.36346054 13.30721092 5.56942892 27 25 7434 45.70000000 3184470480 3184470480 7.00000000
42.85639191 10.88413715 3.60965347 30 26 7435 44.36400000 3184470482 3184470482 4.66700000
20.67571449 7.46410322 -0.89556015 27 27 7435 22.00000000 3184470482 3184470482 -2.33300000
20.67212486 4.18325233 -0.73651898 16 28 7436 21.10400000 3184470485 3184470485 -2.00000000
38.48424530 11.78785133 -0.93657404 10 31 7437 40.26000000 3184470487 3184470487 -1.33300000
5.68037510 1.43313694 -2.73180437 8 0 7444 6.46400000 3184470508 3184470508 -25.00000000
39.75801849 14.28242207 -0.73739910 17 1 7444 42.25200000 3184470508 3184470508 -1.00000000
37.62235641 9.48499393 -1.12917817 8 2 7445 38.81600000 3184470510 3184470510 -1.66700000
8.48560619 2.58621502 -2.48332834 3 3 7445 9.21200000 3184470510 3184470510 -15.63900000
11.19364738 2.81995916 -2.30869269 2 4 7446 11.77200000 3184470512 3184470512 -11.31000000
40.33069611 12.28416348 0.00000000 14 5 7446 42.16000000 3184470512 3184470512 0.00000000
39.89881516 8.00154018 -0.47374552 29 6 7446 40.69600000 3184470515 3184470515 -0.66700000
13.11992359 3.99614453 -2.13373709 2 7 7446 13.88000000 3184470515 3184470515 -8.84300000
15.41865730 3.88148284 -2.02382708 2 8 7447 16.02800000 3184470517 3184470517 -7.25400000
40.25281143 14.43637657 0.24854067 17 9 7447 42.76400000 3184470517 3184470517 0.33300000
40.32305908 10.14341736 -0.24165937 15 10 7448 41.58000000 3184470519 3184470519 -0.33300000
16.57007027 5.04069138 -1.86563063 2 11 7448 17.42000000 3184470519 3184470519 -6.14800000
18.95653725 3.79133058 -1.80460203 6 12 7449 19.41600000 3184470521 3184470521 -5.33300000
40.39124680 12.27950001 0.98235589 13 13 7449 42.22800000 3184470521 3184470521 1.33300000
40.05343246 8.00346565 0.47551498 18 14 7450 40.84800000 3184470524 3184470524 0.66700000
20.60919380 6.26155186 -1.50618184 14 15 7450 21.59200000 3184470524 3184470524 -4.00000000
19.85985756 4.98476696 -1.67155170 5 16 7451 20.54400000 3184470526 3184470526 -4.66700000
40.23522949 14.39837551 1.24367857 16 17 7451 42.75200000 3184470526 3184470526 1.66700000
40.31514359 10.11898422 0.72553146 18 18 7451 41.57200000 3184470528 3184470528 1.00000000
20.58855247 7.36771536 -1.40143764 20 19 7451 21.91200000 3184470528 3184470528 -3.66700000
20.61041641 4.11088657 -1.22394264 22 20 7452 21.05200000 3184470531 3184470531 -3.33300000
40.29822159 12.22817230 2.45253634 12 21 7452 42.18400000 3184470531 3184470531 3.33300000
39.98125076 10.02034378 1.67925668 26 22 7453 41.25200000 3184470533 3184470533 2.33300000
20.65954018 6.26503420 -1.00563061 27 23 7453 21.61200000 3184470533 3184470533 -2.66700000
20.62582588 5.16554403 -1.11433721 29 24 7454 21.29200000 3184470535 3184470535 -3.00000000
42.51675797 12.88516235 5.45487165 27 25 7454 44.76000000 3184470535 3184470535 7.00000000
41.23111343 10.31829643 3.46970654 9 26 7455 42.64400000 3184470538 3184470538 4.66700000
20.67905807 7.38382196 -0.89458323 27 27 7455 21.97600000 3184470538 3184470538 -2.33300000
20.66699791 4.10717154 -0.73582101 16 28 7456 21.08400000 3184470540 3184470540 -2.00000000
110.04151154 27.51804352 20.68123055 28 30 7456 115.30000000 3184470542 3184470542 10.33300000
38.53460312 11.66364384 -0.93685317 15 31 7456 40.27200000 3184470542 3184470542 -1.33300000
5.68182468 1.41242552 -2.73011398 8 0 7464 6.46000000 3184470563 3184470563 -25.00000000
39.51368332 14.03911400 -0.73195392 17 1 7464 41.94000000 3184470563 3184470563 -1.00000000
37.86089706 9.40469551 -1.13534534 8 2 7465 39.02800000 3184470565 3184470565 -1.66700000
8.48720551 2.55435896 -2.48117161 2 3 7465 9.20400000 3184470565 3184470565 -15.63900000
11.22245693 2.78559351 -2.31261516 4 4 7466 11.79200000 3184470568 3184470568 -11.31000000
40.51888657 12.18708897 0.00000000 21 5 7466 42.31200000 3184470568 3184470568 0.00000000
39.73164749 7.81664562 -0.47141731 19 6 7467 40.49600000 3184470570 3184470570 -0.66700000
13.12691212 3.94575524 -2.13250709 2 7 7467 13.87200000 3184470570 3184470570 -8.84300000
15.43981552 3.82954836 -2.02483726 2 8 7467 16.03600000 3184470572 3184470572 -7.25400000
40.27280045 14.28508282 0.24835470 17 9 7467 42.73200000 3184470572 3184470572 0.33300000
40.45528030 10.02665806 -0.24224056 23 10 7468 41.68000000 3184470574 3184470574 -0.33300000
16.58375740 4.98167610 -1.86520219 2 11 7468 17.41600000 3184470574 3184470574 -6.14800000
18.96965599 3.72513676 -1.80460203 6 12 7469 19.41600000 3184470577 3184470577 -5.33300000
40.44535446 12.14188290 0.98263502 13 13 7469 42.24000000 3184470577 3184470577 1.33300000
39.89665604 7.82741261 0.47332644 27 14 7470 40.66000000 3184470579 3184470579 0.66700000
20.60799217 6.18269396 -1.50450766 16 15 7470 21.56800000 3184470579 3184470579 -4.00000000
19.88100624 4.91636944 -1.67187715 7 16 7471 20.54800000 3184470581 3184470581 -4.66700000
40.25131989 14.24583435 1.24263120 16 17 7471 42.71600000 3184470581 3184470581 1.66700000
40.24713135 9.94525051 0.72364658 18 18 7472 41.46400000 3184470584 3184470584 1.00000000
20.59283829 7.28421783 -1.39990258 30 19 7472 21.88800000 3184470584 3184470584 -3.66700000
20.60504723 4.03508043 -1.22277987 19 20 7472 21.03200000 3184470586 3184470586 -3.33300000
40.26033020 12.06336117 2.44765282 19 21 7472 42.10000000 3184470586 3184470586 3.33300000
39.98494339 9.87305737 1.67795408 17 22 7473 41.22000000 3184470588 3184470588 2.33300000
20.66214371 6.18715000 -1.00470006 24 23 7473 21.59200000 3184470588 3184470588 -2.66700000
20.63597488 5.09160089 -1.11391854 25 24 7474 21.28400000 3184470591 3184470591 -3.00000000
42.68318939 12.77309608 5.47047091 18 25 7474 44.88800000 3184470591 3184470591 7.00000000
41.28236389 10.17812824 3.47100854 28 26 7475 42.66000000 3184470593 3184470593 4.66700000
20.68209457 7.30360842 -0.89360625 29 27 7475 21.95200000 3184470593 3184470593 -2.33300000
20.66551399 4.03194332 -0.73526257 14 28 7476 21.06800000 3184470595 3184470595 -2.00000000
109.79301453 27.04903984 20.61665726 28 30 7476 114.94000000 3184470598 3184470598 10.33300000
38.65937424 11.55425453 -0.93890035 15 31 7476 40.36000000 3184470598 3184470598 -1.33300000
5.68696356 1.39159107 -2.73011398 6 0 7485 6.46000000 3184470618 3184470618 -25.00000000
39.56864548 13.89551926 -0.73202372 17 1 7485 41.94400000 3184470618 3184470618 -1.00000000
38.06600189 9.30765057 -1.14046526 8 2 7486 39.20400000 3184470621 3184470621 -1.66700000
8.49281788 2.52213788 -2.48009324 2 3 7486 9.20000000 3184470621 3184470621 -15.63900000
11.22116089 2.74164939 -2.31026173 2 4 7487 11.78000000 3184470623 3184470623 -11.31000000
40.51343155 12.02370262 0.00000000 21 5 7487 42.26000000 3184470623 3184470623 0.00000000
39.67755508 7.65505791 -0.47043946 19 6 7488 40.41200000 3184470625 3184470625 -0.66700000
13.14507484 3.89874005 -2.13312221 1 7 7488 13.87600000 3184470625 3184470625 -8.84300000
15.45760250 3.77387404 -2.02534223 2 8 7488 16.04000000 3184470627 3184470627 -7.25400000
40.29091644 14.12546921 0.24814546 26 9 7488 42.69600000 3184470627 3184470627 0.33300000
40.34798050 9.84323788 -0.24138039 23 10 7489 41.53200000 3184470630 3184470630 -0.33300000
16.60190392 4.92085981 -1.86520219 2 11 7489 17.41600000 3184470630 3184470630 -6.14800000
19.08095169 3.67441225 -1.81389642 6 12 7490 19.51600000 3184470632 3184470632 -5.33300000
40.46274567 11.98561096 0.98198366 20 13 7490 42.21200000 3184470632 3184470632 1.33300000
39.85437775 7.66753006 0.47248828 27 14 7491 40.58800000 3184470634 3184470634 0.66700000
20.60373306 6.09919214 -1.50255442 18 15 7491 21.54000000 3184470634 3184470634 -4.00000000
19.91438675 4.84724045 -1.67317903 7 16 7492 20.56400000 3184470637 3184470637 -4.66700000
40.19004059 14.05860424 1.23914039 16 17 7492 42.59600000 3184470637 3184470637 1.66700000
40.26217270 9.79997158 0.72329754 18 18 7492 41.44400000 3184470639 3184470639 1.00000000
20.59176445 7.20306492 -1.39811182 30 19 7492 21.86000000 3184470639 3184470639 -3.66700000
20.60401154 3.95652008 -1.22184968 19 20 7493 21.01600000 3184470641 3184470641 -3.33300000
40.20854187 11.88741589 2.44183898 25 21 7493 42.00000000 3184470641 3184470641 3.33300000
40.07911301 9.74059677 1.68039656 17 22 7494 41.28000000 3184470644 3184470644 2.33300000
20.65785980 6.10345268 -1.00339711 25 23 7494 21.56400000 3184470644 3184470644 -2.66700000
20.61956215 5.00744820 -1.11203444 24 24 7495 21.24800000 3184470646 3184470646 -3.00000000
42.95056152 12.68177605 5.49874496 27 25 7495 45.12000000 3184470646 3184470646 7.00000000
41.95864868 10.18187809 3.52470899 19 26 7496 43.32000000 3184470648 3184470648 4.66700000
20.68608475 7.21985388 -0.89262927 27 27 7496 21.92800000 3184470648 3184470648 -2.33300000
20.66444778 3.95316887 -0.73470420 13 28 7497 21.05200000 3184470651 3184470651 -2.00000000
110.75188446 26.85509300 20.77808952 28 30 7497 115.84000000 3184470653 3184470653 10.33300000
38.68228531 11.40682793 -0.93843508 15 31 7497 40.34000000 3184470653 3184470653 -1.33300000
5.69178629 1.37173140 -2.73011398 6 0 7505 6.46000000 3184470673 3184470673 -25.00000000
39.56779480 13.74025917 -0.73111624 17 1 7505 41.89200000 3184470673 3184470673 -1.00000000
38.14490891 9.18595219 -1.14186168 8 2 7506 39.25200000 3184470675 3184470675 -1.66700000
8.50526619 2.49356079 -2.48117161 2 3 7506 9.20400000 3184470675 3184470675 -15.63900000
11.23447609 2.70338130 -2.31104612 4 4 7507 11.78400000 3184470678 3184470678 -11.31000000
40.50525284 11.86759090 0.00000000 21 5 7507 42.20800000 3184470678 3184470678 0.00000000
39.56125259 7.49663210 -0.46876314 19 6 7507 40.26800000 3184470680 3184470680 -0.66700000
13.16172409 3.85623932 -2.13373709 2 7 7507 13.88000000 3184470680 3184470680 -8.84300000
15.48225498 3.72267699 -2.02685761 2 8 7508 16.05200000 3184470682 3184470682 -7.25400000
40.27573013 13.96246910 0.24775025 26 9 7508 42.62800000 3184470682 3184470682 0.33300000
40.29652786 9.68177986 -0.24086896 23 10 7509 41.44400000 3184470685 3184470685 -0.33300000
16.61898041 4.86287832 -1.86520219 2 11 7509 17.41600000 3184470685 3184470685 -6.14800000
19.09366226 3.60778475 -1.81389642 6 12 7510 19.51600000 3184470687 3184470687 -5.33300000
40.45827866 11.83082867 0.98086703 13 13 7510 42.16400000 3184470687 3184470687 1.33300000
39.87696838 7.52762365 0.47244173 26 14 7511 40.58400000 3184470689 3184470689 0.66700000
20.59425735 6.01828051 -1.50032222 20 15 7511 21.50800000 3184470689 3184470689 -4.00000000
19.93118668 4.77769661 -1.67317903 7 16 7512 20.56400000 3184470691 3184470691 -4.66700000
40.21619797 13.91038799 1.23844218 16 17 7512 42.57200000 3184470691 3184470691 1.66700000
39.92277145 9.56987190 0.71659583 27 18 7512 41.06000000 3184470694 3184470694 1.00000000
20.59414673 7.12331295 -1.39657688 37 19 7512 21.83600000 3184470694 3184470694 -3.66700000
20.59807587 3.88087773 -1.22068691 19 20 7513 20.99600000 3184470696 3184470696 -3.33300000
40.30345917 11.76265144 2.44509459 12 21 7513 42.05600000 3184470696 3184470696 3.33300000
39.93796158 9.55877209 1.67306924 25 22 7514 41.10000000 3184470698 3184470698 2.33300000
20.64451599 6.02123690 -1.00172198 25 23 7514 21.52800000 3184470698 3184470698 -2.66700000
20.61749077 4.93079662 -1.11098766 28 24 7515 21.22800000 3184470701 3184470701 -3.00000000
42.92977142 12.51288700 5.49045753 27 25 7515 45.05200000 3184470701 3184470701 7.00000000
41.25719833 9.85929394 3.46287203 28 26 7516 42.56000000 3184470703 3184470703 4.66700000
20.68471527 7.13847494 -0.89148945 27 27 7516 21.90000000 3184470703 3184470703 -2.33300000
20.65847588 3.87732530 -0.73400623 13 28 7517 21.03200000 3184470705 3184470705 -2.00000000
98.91457367 23.61951447 18.54171753 28 30 7517 103.37200000 3184470708 3184470708 10.33300000
38.59132385 11.23373127 -0.93527126 21 31 7517 40.20400000 3184470708 3184470708 -1.33300000
5.70688534 1.35536230 -2.73518538 6 0 7524 6.47200000 3184470728 3184470728 -25.00000000
39.52614594 13.57908535 -0.72951061 17 1 7524 41.80000000 3184470728 3184470728 -1.00000000
38.18294144 9.06125450 -1.14209437 16 2 7525 39.26000000 3184470731 3184470731 -1.66700000
