# .PCD v0.7 - Point Cloud Data file format
VERSION 0.7
FIELDS x y z intensity laser_id azimuth distance_m adjustedtime timestamp vertical_angle
SIZE 4 4 4 1 1 2 8 8 4 8
TYPE F F F U U U F U U F
COUNT 1 1 1 1 1 1 1 1 1 1
WIDTH 522
HEIGHT 1
VIEWPOINT 0 0 0 1 0 0 0
POINTS 522
DATA ascii
3.79629278 27.67768669 -1.13817561 3 27 1201 27.96000000 3186953107 3186953107 -2.33300000
10.57778454 36.36159134 -1.32241178 7 28 1202 37.89200000 3186953109 3186953109 -2.00000000
8.95303154 47.70195007 -1.12937891 8 31 1203 48.54800000 3186953111 3186953111 -1.33300000
1.27290368 5.29795170 -2.54078102 15 0 1211 6.01200000 3186953132 3186953132 -25.00000000
7.70760345 55.47458267 -0.97761399 21 1 1211 56.01600000 3186953132 3186953132 -1.00000000
10.31956577 42.91808319 -1.28463793 10 2 1212 44.16000000 3186953134 3186953134 -1.66700000
1.53401279 8.10302830 -2.30864334 18 3 1212 8.56400000 3186953134 3186953134 -15.63900000
2.90067482 12.05437183 -2.47970700 9 4 1213 12.64400000 3186953137 3186953137 -11.31000000
12.68191051 66.92502594 0.00000000 24 5 1213 68.11600000 3186953137 3186953137 0.00000000
15.02241611 51.27298355 -0.62200636 19 6 1213 53.43200000 3186953139 3186953139 -0.66700000
2.82133341 14.88875008 -2.35756421 14 7 1213 15.33600000 3186953139 3186953139 -8.84300000
3.82841325 15.89758682 -2.08140540 17 8 1214 16.48400000 3186953141 3186953141 -7.25400000
14.78181648 61.33485031 -0.36668527 28 10 1215 63.09200000 3186953144 3186953144 -0.33300000
3.52950835 18.59045601 -2.03827095 13 11 1215 19.03200000 3186953144 3186953144 -6.14800000
6.37300014 21.70954323 -2.11206102 5 12 1216 22.72400000 3186953146 3186953146 -5.33300000
12.65378284 66.58597565 1.57714784 21 13 1216 67.79600000 3186953146 3186953146 1.33300000
21.86697960 74.44150543 0.90325493 28 14 1217 77.59200000 3186953148 3186953148 0.66700000
4.23229265 22.24974251 -1.58375096 4 15 1217 22.70400000 3186953148 3186953148 -4.00000000
5.88243532 24.35226250 -2.04517746 3 16 1218 25.13600000 3186953151 3186953151 -4.66700000
14.32642460 59.30891800 1.06501567 28 18 1218 61.02400000 3186953153 3186953153 1.00000000
3.53008056 25.18160439 -1.62963808 23 19 1218 25.48000000 3186953153 3186953153 -3.66700000
8.35174465 28.39509010 -1.72370565 4 20 1219 29.64800000 3186953155 3186953155 -3.33300000
32.87601089 172.50564575 10.22711849 42 21 1219 175.90800000 3186953155 3186953155 3.33300000
6.52952957 34.22899246 -1.62319171 3 23 1220 34.88400000 3186953157 3186953157 -2.66700000
7.72268724 31.89740372 -1.71996891 6 24 1221 32.86400000 3186953160 3186953160 -3.00000000
10.66349602 36.16153717 -1.31654859 6 28 1223 37.72400000 3186953164 3186953164 -2.00000000
9.09922886 47.51956940 -1.12584293 7 31 1224 48.39600000 3186953167 3186953167 -1.33300000
1.30084050 5.33221769 -2.55937624 14 0 1231 6.05600000 3186953187 3186953187 -25.00000000
7.87298822 55.24937057 -0.97412354 20 1 1231 55.81600000 3186953187 3186953187 -1.00000000
10.41905499 42.67593765 -1.27847075 9 2 1232 43.94800000 3186953190 3186953190 -1.66700000
1.54258633 7.99550581 -2.27952933 17 3 1232 8.45600000 3186953190 3186953190 -15.63900000
2.93435621 12.00988102 -2.47264671 10 4 1233 12.60800000 3186953192 3186953192 -11.31000000
12.87828159 66.68790436 0.00000000 23 5 1233 67.92000000 3186953192 3186953192 0.00000000
15.08750153 50.83678818 -0.61734992 18 6 1233 53.03200000 3186953194 3186953194 -0.66700000
2.87778401 14.90209484 -2.36125374 13 7 1233 15.36000000 3186953194 3186953194 -8.84300000
3.68785071 15.08240318 -1.97635019 5 8 1234 15.65200000 3186953197 3186953197 -7.25400000
14.68683815 60.02015686 -0.35912976 28 10 1235 61.79200000 3186953199 3186953199 -0.33300000
3.61024380 18.66001892 -2.04726720 17 11 1235 19.11600000 3186953199 3186953199 -6.14800000
6.44533634 21.67571259 -2.11094570 5 12 1236 22.71200000 3186953201 3186953201 -5.33300000
12.63219833 65.23012543 1.54606831 20 13 1236 66.46000000 3186953201 3186953201 1.33300000
21.85521698 73.45231628 0.89217263 28 14 1237 76.64000000 3186953203 3186953203 0.66700000
4.17325449 21.52971268 -1.53352630 2 15 1237 21.98400000 3186953203 3186953203 -4.00000000
5.93891573 24.21542168 -2.03541374 7 16 1238 25.01600000 3186953206 3186953206 -4.66700000
14.62767506 59.64309311 1.07192683 28 18 1238 61.42000000 3186953208 3186953208 1.00000000
3.57308960 24.85698509 -1.60942757 13 19 1238 25.16400000 3186953208 3186953208 -3.66700000
8.43256855 28.30453110 -1.71998477 4 20 1239 29.58400000 3186953210 3186953210 -3.33300000
33.47948837 172.39767456 10.22758389 42 21 1239 175.91600000 3186953210 3186953210 3.33300000
6.63524771 34.13539124 -1.61984146 3 23 1240 34.81200000 3186953213 3186953213 -2.66700000
3.82453847 26.47499275 -1.08981526 10 27 1242 26.77200000 3186953217 3186953217 -2.33300000
10.77593040 36.07812881 -1.31487346 6 28 1243 37.67600000 3186953220 3186953220 -2.00000000
9.22675896 47.29127121 -1.12119031 7 31 1244 48.19600000 3186953222 3186953222 -1.33300000
1.34384739 5.42617416 -2.60670948 14 0 1251 6.16800000 3186953243 3186953243 -25.00000000
8.02244473 54.92474747 -0.96888781 20 1 1251 55.51600000 3186953243 3186953243 -1.00000000
10.52948380 42.48406982 -1.27381635 9 2 1252 43.78800000 3186953245 3186953245 -1.66700000
1.59871662 8.13369656 -2.32050467 22 3 1252 8.60800000 3186953245 3186953245 -15.63900000
2.91771746 11.76353264 -2.42400980 16 4 1253 12.36000000 3186953247 3186953247 -11.31000000
12.57125950 63.89913177 0.00000000 23 5 1253 65.12400000 3186953247 3186953247 0.00000000
15.35466957 51.08258820 -0.62098193 19 6 1253 53.34400000 3186953250 3186953250 -0.66700000
2.92978454 14.89195919 -2.36125374 15 7 1253 15.36000000 3186953250 3186953250 -8.84300000
3.71275449 14.95775604 -1.96170318 15 8 1254 15.53600000 3186953252 3186953252 -7.25400000
14.82393742 59.67737579 -0.35738620 28 10 1255 61.49200000 3186953254 3186953254 -0.33300000
3.69304585 18.73704720 -2.05712008 13 11 1255 19.20800000 3186953254 3186953254 -6.14800000
6.49454498 21.56537056 -2.10239482 5 12 1256 22.62000000 3186953256 3186953256 -5.33300000
12.55873489 63.65946579 1.50987089 19 13 1256 64.90400000 3186953256 3186953256 1.33300000
21.86682320 72.56370544 0.88230097 28 14 1257 75.79200000 3186953259 3186953259 0.66700000
5.45038939 27.60232162 -1.96741164 7 15 1257 28.20400000 3186953259 3186953259 -4.00000000
6.01859188 24.17519951 -2.03378630 7 16 1258 24.99600000 3186953261 3186953261 -4.66700000
22.02033424 88.45025635 1.59103119 28 18 1258 91.16400000 3186953263 3186953263 1.00000000
3.67321539 24.93519211 -1.61531162 10 19 1258 25.25600000 3186953263 3186953263 -3.66700000
8.54400730 28.31697655 -1.72254288 4 20 1259 29.62800000 3186953266 3186953266 -3.33300000
34.12988663 172.52655029 10.24223518 42 21 1259 176.16800000 3186953266 3186953266 3.33300000
6.72875118 33.98267746 -1.61369932 3 23 1260 34.68000000 3186953268 3186953268 -2.66700000
7.86878681 31.53653145 -1.70343065 12 24 1261 32.54800000 3186953270 3186953270 -3.00000000
5.68431854 38.40136719 -1.58155930 7 27 1262 38.85200000 3186953273 3186953273 -2.33300000
10.85666084 35.89106750 -1.30942917 6 28 1263 37.52000000 3186953275 3186953275 -2.00000000
9.34459305 47.06429672 -1.11653769 7 31 1263 47.99600000 3186953277 3186953277 -1.33300000
1.36536646 5.43575191 -2.61347127 17 0 1270 6.18400000 3186953298 3186953298 -25.00000000
8.19034958 54.80290985 -0.96721238 20 1 1270 55.42000000 3186953298 3186953298 -1.00000000
10.63229370 42.29769135 -1.26927817 9 2 1271 43.63200000 3186953300 3186953300 -1.66700000
1.64078867 8.20389271 -2.34207082 26 3 1271 8.68800000 3186953300 3186953300 -15.63900000
2.95288324 11.73857689 -2.42087173 22 4 1272 12.34400000 3186953303 3186953303 -11.31000000
12.79957581 63.93945694 0.00000000 23 5 1272 65.20800000 3186953303 3186953303 0.00000000
15.39428425 50.57333755 -0.61544079 18 6 1273 52.86800000 3186953305 3186953305 -0.66700000
2.97320795 14.83901215 -2.35448956 13 7 1273 15.31600000 3186953305 3186953305 -8.84300000
3.76524162 14.95690632 -1.96321833 12 8 1273 15.54800000 3186953307 3186953307 -7.25400000
15.75363922 62.53306580 -0.37479869 28 10 1274 64.48800000 3186953309 3186953309 -0.33300000
3.77236390 18.81048393 -2.06654453 11 11 1274 19.29600000 3186953309 3186953309 -6.14800000
6.55673361 21.51323891 -2.09942055 5 12 1275 22.58800000 3186953312 3186953312 -5.33300000
12.26058292 61.08076859 1.44966578 18 13 1275 62.31600000 3186953312 3186953312 1.33300000
21.82381439 71.56112671 0.87098587 28 14 1276 74.82000000 3186953314 3186953314 0.66700000
5.54110575 27.58018303 -1.96713257 7 15 1276 28.20000000 3186953314 3186953314 -4.00000000
6.09287071 24.13191605 -2.03183365 3 16 1277 24.97200000 3186953316 3186953316 -4.66700000
21.99290276 87.04286194 1.56708646 28 18 1278 89.79200000 3186953319 3186953319 1.00000000
3.69412827 24.48408508 -1.58691442 6 19 1278 24.81200000 3186953319 3186953319 -3.66700000
8.57488918 28.08225441 -1.70998490 4 20 1278 29.41200000 3186953321 3186953321 -3.33300000
34.68920898 172.34979248 10.23851395 42 21 1278 176.10400000 3186953321 3186953321 3.33300000
6.83114672 33.90925598 -1.61127973 3 23 1279 34.62800000 3186953323 3186953323 -2.66700000
7.96744347 31.48703003 -1.70217466 6 24 1280 32.52400000 3186953326 3186953326 -3.00000000
5.83137560 38.51271057 -1.58693266 7 27 1281 38.98400000 3186953328 3186953328 -2.33300000
10.96391869 35.81664276 -1.30803311 6 28 1282 37.48000000 3186953330 3186953330 -2.00000000
9.44122887 46.73906708 -1.10955870 7 31 1282 47.69600000 3186953333 3186953333 -1.33300000
1.37716901 5.40284967 -2.59994745 13 0 1290 6.15200000 3186953353 3186953353 -25.00000000
8.32896709 54.43004227 -0.96113890 19 1 1290 55.07200000 3186953353 3186953353 -1.00000000
10.75813389 42.17508698 -1.26671827 9 2 1291 43.54400000 3186953356 3186953356 -1.66700000
1.66864705 8.19434166 -2.34099245 27 3 1291 8.68400000 3186953356 3186953356 -15.63900000
2.97346759 11.64838886 -2.40439796 12 4 1292 12.26000000 3186953358 3186953358 -11.31000000
12.77744484 62.69112778 0.00000000 22 5 1292 63.98000000 3186953358 3186953358 0.00000000
15.45291615 50.13706589 -0.61078435 18 6 1293 52.46800000 3186953360 3186953360 -0.66700000
3.04947829 14.94859600 -2.37355185 17 7 1293 15.44000000 3186953360 3186953360 -8.84300000
3.82135653 14.95904922 -1.96523869 12 8 1293 15.56400000 3186953362 3186953362 -7.25400000
15.92229080 62.28393173 -0.37363631 28 10 1294 64.28800000 3186953365 3186953365 -0.33300000
3.83402371 18.77771759 -2.06440282 17 11 1294 19.27600000 3186953365 3186953365 -6.14800000
6.62591696 21.47119141 -2.09756184 5 12 1295 22.56800000 3186953367 3186953367 -5.33300000
12.62985134 61.80159760 1.46781111 18 13 1295 63.09600000 3186953367 3186953367 1.33300000
21.83156013 70.70106506 0.86144018 28 14 1296 74.00000000 3186953369 3186953369 0.66700000
5.60695934 27.41211891 -1.95652962 7 15 1296 28.04800000 3186953369 3186953369 -4.00000000
6.17113304 24.08732796 -2.02988076 7 16 1297 24.94800000 3186953372 3186953372 -4.66700000
21.98365402 85.80717468 1.54614353 28 18 1297 88.59200000 3186953374 3186953374 1.00000000
3.77225709 24.45197487 -1.58563530 29 19 1297 24.79200000 3186953374 3186953374 -3.66700000
8.68229771 28.08267212 -1.71184528 4 20 1298 29.44400000 3186953376 3186953376 -3.33300000
35.30343628 172.29023743 10.24223518 42 21 1298 176.16800000 3186953376 3186953376 3.33300000
6.92538738 33.76777649 -1.60569596 3 23 1299 34.50800000 3186953379 3186953379 -2.66700000
8.09617996 31.53253746 -1.70615220 6 24 1300 32.60000000 3186953381 3186953381 -3.00000000
5.93700457 38.30649567 -1.57927966 7 27 1301 38.79600000 3186953383 3186953383 -2.33300000
11.03798771 35.61396408 -1.30203044 6 28 1302 37.30800000 3186953386 3186953386 -2.00000000
9.58982277 46.63532257 -1.10788381 7 31 1302 47.62400000 3186953388 3186953388 -1.33300000
1.41412652 5.47196102 -2.63544750 14 0 1309 6.23600000 3186953409 3186953409 -25.00000000
8.51683426 54.44954300 -0.96197665 19 1 1309 55.12000000 3186953409 3186953409 -1.00000000
10.86189365 41.99982452 -1.26252913 9 2 1310 43.40000000 3186953411 3186953411 -1.66700000
1.69190562 8.16990376 -2.33560085 27 3 1310 8.66400000 3186953411 3186953411 -15.63900000
2.96883845 11.47138691 -2.36988139 12 4 1311 12.08400000 3186953414 3186953414 -11.31000000
12.75145817 61.52038574 0.00000000 22 5 1311 62.82800000 3186953414 3186953414 0.00000000
15.58059788 49.99280548 -0.60962027 17 6 1311 52.36800000 3186953416 3186953416 -0.66700000
3.06433821 14.78413486 -2.34895539 14 7 1311 15.28000000 3186953416 3186953416 -8.84300000
3.87492085 14.96166039 -1.96725893 11 8 1312 15.58000000 3186953418 3186953418 -7.25400000
16.07856750 62.03718948 -0.37247393 28 10 1313 64.08800000 3186953421 3186953421 -0.33300000
3.72001386 17.91602135 -1.97101402 15 11 1313 18.40400000 3186953421 3186953421 -6.14800000
6.69352055 21.43769646 -2.09644651 5 12 1314 22.55600000 3186953423 3186953423 -5.33300000
12.62073040 60.72966385 1.44333827 18 13 1314 62.04400000 3186953423 3186953423 1.33300000
21.82614899 69.86091614 0.85208070 28 14 1315 73.19600000 3186953425 3186953425 0.66700000
5.69051695 27.35821533 -1.95401835 3 15 1315 28.01200000 3186953425 3186953425 -4.00000000
6.22391510 23.96254730 -2.02109361 7 16 1316 24.84000000 3186953427 3186953427 -4.66700000
21.96745872 84.57638550 1.52527046 28 18 1316 87.39600000 3186953430 3186953430 1.00000000
3.85456538 24.44721794 -1.58614695 9 19 1316 24.80000000 3186953430 3186953430 -3.66700000
8.75391674 27.98512459 -1.70765936 4 20 1317 29.37200000 3186953432 3186953432 -3.33300000
49.67576981 190.98149109 8.03968811 28 22 1318 197.50000000 3186953434 3186953434 2.33300000
7.02264452 33.67422104 -1.60234582 3 23 1318 34.43600000 3186953434 3186953434 -2.66700000
8.17051411 31.38954544 -1.69987190 6 24 1319 32.48000000 3186953437 3186953437 -3.00000000
6.04149294 38.14448547 -1.57341778 7 27 1320 38.65200000 3186953439 3186953439 -2.33300000
11.11894798 35.45891571 -1.29770291 6 28 1321 37.18400000 3186953441 3186953441 -2.00000000
9.67812443 46.28620911 -1.10034657 7 31 1321 47.30000000 3186953444 3186953444 -1.33300000
1.44884706 5.52660608 -2.66418552 12 0 1329 6.30400000 3186953464 3186953464 -25.00000000
8.64366245 54.02456284 -0.95499569 18 1 1329 54.72000000 3186953464 3186953464 -1.00000000
10.96277714 41.78762054 -1.25729287 9 2 1330 43.22000000 3186953467 3186953467 -1.66700000
1.70452797 8.08856487 -2.31403494 16 3 1330 8.58400000 3186953467 3186953467 -15.63900000
3.01683092 11.49130344 -2.37615705 13 4 1331 12.11600000 3186953469 3186953469 -11.31000000
12.65326214 59.99213409 0.00000000 21 5 1331 61.31200000 3186953469 3186953469 0.00000000
15.71409416 49.80842590 -0.60803705 17 6 1331 52.23200000 3186953471 3186953471 -0.66700000
3.03027868 14.36727428 -2.28438997 16 7 1331 14.86000000 3186953471 3186953471 -8.84300000
3.93014789 14.95955658 -1.96877420 12 8 1332 15.59200000 3186953474 3186953474 -7.25400000
16.34587097 62.17411041 -0.37363631 28 10 1333 64.28800000 3186953476 3186953476 -0.33300000
3.80308247 18.00020409 -1.98172379 12 11 1333 18.50400000 3186953476 3186953476 -6.14800000
6.75870943 21.38382149 -2.09347224 5 12 1334 22.52400000 3186953478 3186953478 -5.33300000
12.84753132 60.75566101 1.44501317 18 13 1334 62.11600000 3186953478 3186953478 1.33300000
21.78524399 68.88430023 0.84109151 28 14 1335 72.25200000 3186953480 3186953480 0.66700000
5.78432798 27.33037758 -1.95346034 3 15 1335 28.00400000 3186953480 3186953480 -4.00000000
6.29838085 23.90597916 -2.01816440 7 16 1336 24.80400000 3186953483 3186953483 -4.66700000
21.95177841 83.31962585 1.50397861 28 18 1336 86.17600000 3186953485 3186953485 1.00000000
3.94559765 24.46908188 -1.58844948 6 19 1336 24.83600000 3186953485 3186953485 -3.66700000
8.85757732 27.97343254 -1.70882213 4 20 1337 29.39200000 3186953487 3186953487 -3.33300000
36.66169739 172.92489624 10.29456043 42 21 1337 177.06800000 3186953487 3186953487 3.33300000
7.11360645 33.52442551 -1.59638977 3 23 1338 34.30800000 3186953490 3186953490 -2.66700000
8.26983738 31.32221222 -1.69777846 6 24 1339 32.44000000 3186953492 3186953492 -3.00000000
6.16629839 38.07187653 -1.57130098 7 27 1340 38.60000000 3186953494 3186953494 -2.33300000
11.22814178 35.37416458 -1.29602766 6 28 1341 37.13600000 3186953497 3186953497 -2.00000000
9.82465649 46.18173981 -1.09867156 7 31 1341 47.22800000 3186953499 3186953499 -1.33300000
1.45140135 5.45093870 -2.63037610 15 0 1351 6.22400000 3186953520 3186953520 -25.00000000
8.81868744 53.79364014 -0.95150518 18 1 1351 54.52000000 3186953520 3186953520 -1.00000000
11.10667706 41.68340302 -1.25543106 9 2 1352 43.15600000 3186953522 3186953522 -1.66700000
1.72263324 8.02170372 -2.29678202 18 3 1352 8.52000000 3186953522 3186953522 -15.63900000
3.07811117 11.54406357 -2.38949299 10 4 1353 12.18400000 3186953524 3186953524 -11.31000000
12.74735641 59.30957413 0.00000000 42 5 1353 60.66400000 3186953524 3186953524 0.00000000
15.84919834 49.57247162 -0.60589510 17 6 1353 52.04800000 3186953527 3186953527 -0.66700000
3.14688182 14.64148426 -2.32989335 13 7 1353 15.15600000 3186953527 3186953527 -8.84300000
3.98960543 14.95202351 -1.96978426 12 8 1354 15.60000000 3186953529 3186953529 -7.25400000
12.69951630 77.21327972 0.45479387 28 9 1354 78.25200000 3186953529 3186953529 0.33300000
16.48129272 61.72443390 -0.37131155 28 10 1355 63.88800000 3186953531 3186953531 -0.33300000
3.89560747 18.09432983 -1.99371862 12 11 1355 18.61600000 3186953531 3186953531 -6.14800000
6.83590794 21.34254074 -2.09198499 5 12 1356 22.50800000 3186953533 3186953533 -5.33300000
21.80055618 68.02313232 0.83159244 28 14 1357 71.43600000 3186953536 3186953536 0.66700000
5.85810184 27.16364479 -1.94313633 6 15 1357 27.85600000 3186953536 3186953536 -4.00000000
6.38188267 23.85080910 -2.01556063 3 16 1358 24.77200000 3186953538 3186953538 -4.66700000
12.67720699 76.74304199 2.26370907 28 17 1358 77.81600000 3186953538 3186953538 1.66700000
21.98814774 82.11820984 1.48387337 28 18 1359 85.02400000 3186953540 3186953540 1.00000000
4.04444218 24.45698547 -1.58870530 19 19 1359 24.84000000 3186953540 3186953540 -3.66700000
8.91489983 27.78332138 -1.69928730 4 20 1359 29.22800000 3186953543 3186953543 -3.33300000
37.22507095 172.31837463 10.26688576 42 21 1359 176.59200000 3186953543 3186953543 3.33300000
7.23214531 33.44999695 -1.59415627 3 23 1360 34.26000000 3186953545 3186953545 -2.66700000
8.38383770 31.26707840 -1.69652236 6 24 1361 32.41600000 3186953547 3186953547 -3.00000000
6.28954315 37.90991974 -1.56560206 7 27 1362 38.46000000 3186953550 3186953550 -2.33300000
11.35409355 35.30034637 -1.29491091 6 28 1363 37.10400000 3186953552 3186953552 -2.00000000
9.99597931 46.11631775 -1.09802020 7 31 1363 47.20000000 3186953554 3186953554 -1.33300000
1.46474373 5.43235111 -2.62361407 14 0 1369 6.20800000 3186953575 3186953575 -25.00000000
8.93422985 53.44615173 -0.94585061 17 1 1369 54.19600000 3186953575 3186953575 -1.00000000
11.19174480 41.47845078 -1.25031114 9 2 1370 42.98000000 3186953577 3186953577 -1.66700000
1.75439024 8.04636002 -2.30540848 23 3 1370 8.55200000 3186953577 3186953577 -15.63900000
3.07959962 11.40558815 -2.36282110 15 4 1371 12.04800000 3186953579 3186953579 -11.31000000
12.92423916 59.22624969 0.00000000 42 5 1371 60.62000000 3186953579 3186953579 0.00000000
15.96919537 49.38263702 -0.60421878 17 6 1372 51.90400000 3186953582 3186953582 -0.66700000
3.15156364 14.43017387 -2.29791784 17 7 1372 14.94800000 3186953582 3186953582 -8.84300000
4.03759384 14.94324684 -1.97028935 12 8 1372 15.60400000 3186953584 3186953584 -7.25400000
12.72900486 75.90276337 0.44730812 28 9 1372 76.96400000 3186953584 3186953584 0.33300000
16.62396812 61.48314667 -0.37017241 28 10 1373 63.69200000 3186953586 3186953586 -0.33300000
3.70529985 16.95139122 -1.86905766 4 11 1373 17.45200000 3186953586 3186953586 -6.14800000
6.87716198 21.24139023 -2.08417773 5 12 1374 22.42400000 3186953589 3186953589 -5.33300000
21.77131462 67.20471191 0.82241923 28 14 1375 70.64800000 3186953591 3186953591 0.66700000
5.94340992 27.14510727 -1.94313633 6 15 1375 27.85600000 3186953591 3186953591 -4.00000000
6.45156765 23.81140137 -2.01393342 3 16 1376 24.75200000 3186953593 3186953593 -4.66700000
12.59617996 74.79058838 2.20727324 28 17 1376 75.87600000 3186953593 3186953593 1.66700000
21.91165352 80.87138367 1.46251166 28 18 1376 83.80000000 3186953596 3186953596 1.00000000
3.46728754 20.58723068 -1.33799171 2 19 1376 20.92000000 3186953596 3186953596 -3.66700000
8.99105167 27.72099113 -1.69719434 4 20 1377 29.19200000 3186953598 3186953598 -3.33300000
43.57273483 160.59585571 6.77939034 28 22 1378 166.54000000 3186953600 3186953600 2.33300000
7.31577969 33.32954407 -1.58950317 3 23 1378 34.16000000 3186953600 3186953600 -2.66700000
8.44853115 31.11722565 -1.68982339 6 24 1379 32.28800000 3186953603 3186953603 -3.00000000
6.39594555 37.81510162 -1.56250823 7 27 1380 38.38400000 3186953605 3186953605 -2.33300000
11.41920567 35.12384033 -1.28974581 6 28 1381 36.95600000 3186953607 3186953607 -2.00000000
10.10068703 45.86421585 -1.09280932 7 31 1382 46.97600000 3186953609 3186953609 -1.33300000
1.48178530 5.42021132 -2.62023330 15 0 1389 6.20000000 3186953630 3186953630 -25.00000000
9.10794735 53.33973694 -0.94452423 17 1 1389 54.12000000 3186953630 3186953630 -1.00000000
11.29637241 41.29258347 -1.24588943 9 2 1390 42.82800000 3186953632 3186953632 -1.66700000
1.78830254 8.06651115 -2.31295657 27 3 1390 8.58000000 3186953632 3186953632 -15.63900000
3.11835814 11.39098644 -2.36203671 12 4 1391 12.04400000 3186953635 3186953635 -11.31000000
13.08151150 58.95818710 0.00000000 64 5 1391 60.39200000 3186953635 3186953635 0.00000000
16.06186295 49.08330536 -0.60123867 16 6 1392 51.64800000 3186953637 3186953637 -0.66700000
3.21391058 14.47310352 -2.30652666 15 7 1392 15.00400000 3186953637 3186953637 -8.84300000
4.08763409 14.92140770 -1.96927917 3 8 1392 15.59600000 3186953639 3186953639 -7.25400000
12.82572269 74.87618256 0.44151947 28 9 1392 75.96800000 3186953639 3186953639 0.33300000
16.73273277 61.03898239 -0.36784765 28 10 1393 63.29200000 3186953642 3186953642 -0.33300000
3.74805522 16.86459160 -1.86091828 19 11 1393 17.37600000 3186953642 3186953642 -6.14800000
6.94134665 21.18697548 -2.08120346 2 12 1394 22.39200000 3186953644 3186953644 -5.33300000
21.76655006 66.39856720 0.81347889 28 14 1395 69.88000000 3186953646 3186953646 0.66700000
6.03205872 27.09693146 -1.94118321 6 15 1395 27.82800000 3186953646 3186953646 -4.00000000
6.52830935 23.76567078 -2.01198077 3 16 1396 24.72800000 3186953649 3186953649 -4.66700000
12.61926270 73.36306763 2.16643023 28 17 1396 74.47200000 3186953649 3186953649 1.66700000
21.98617744 80.03852081 1.44882894 28 18 1396 83.01600000 3186953651 3186953651 1.00000000
3.53574586 20.55533218 -1.33671260 6 19 1396 20.90000000 3186953651 3186953651 -3.66700000
9.10021400 27.72737885 -1.69951987 4 20 1397 29.23200000 3186953653 3186953653 -3.33300000
14.56451607 65.31852722 3.89740729 25 21 1397 67.03600000 3186953653 3186953653 3.33300000
44.25601578 160.88978577 6.79827881 28 22 1398 167.00400000 3186953656 3186953656 2.33300000
7.41467142 33.22580719 -1.58578074 3 23 1398 34.08000000 3186953656 3186953656 -2.66700000
8.54861832 31.05673599 -1.68814862 6 24 1399 32.25600000 3186953658 3186953658 -3.00000000
39.93320084 144.97657776 12.27594662 28 26 1400 150.87600000 3186953660 3186953660 4.66700000
6.50205564 37.64288712 -1.55632079 7 27 1400 38.23200000 3186953660 3186953660 -2.33300000
11.49801731 34.95085907 -1.28485990 6 28 1401 36.81600000 3186953662 3186953662 -2.00000000
10.25185013 45.82656860 -1.09271622 7 31 1401 46.97200000 3186953665 3186953665 -1.33300000
1.50454772 5.42522383 -2.62530470 14 0 1410 6.21200000 3186953685 3186953685 -25.00000000
9.26900482 53.10900497 -0.94103378 17 1 1410 53.92000000 3186953685 3186953685 -1.00000000
11.42518806 41.16999435 -1.24344575 9 2 1411 42.74400000 3186953688 3186953688 -1.66700000
1.82972050 8.11250782 -2.32805276 25 3 1411 8.63600000 3186953688 3186953688 -15.63900000
3.17268133 11.42483139 -2.37145019 12 4 1412 12.09200000 3186953690 3186953690 -11.31000000
13.30368137 58.93715668 0.00000000 21 5 1412 60.42000000 3186953690 3186953690 0.00000000
16.25070000 49.08009720 -0.60189056 16 6 1412 51.70400000 3186953692 3186953692 -0.66700000
3.27920628 14.52733994 -2.31698012 14 7 1412 15.07200000 3186953692 3186953692 -8.84300000
4.08598900 14.70370007 -1.94251037 2 8 1413 15.38400000 3186953695 3186953695 -7.25400000
13.13387012 75.02173615 0.44265860 28 9 1413 76.16400000 3186953695 3186953695 0.33300000
16.90275955 60.78456116 -0.36668527 28 10 1414 63.09200000 3186953697 3186953697 -0.33300000
3.81510401 16.87401581 -1.86348867 20 11 1414 17.40000000 3186953697 3186953697 -6.14800000
7.01268482 21.14249229 -2.07934475 5 12 1415 22.37200000 3186953699 3186953699 -5.33300000
21.75779343 65.55912018 0.80416602 28 14 1416 69.08000000 3186953702 3186953702 0.66700000
6.09696198 26.92286301 -1.93030119 6 15 1416 27.67200000 3186953702 3186953702 -4.00000000
6.58647823 23.63789177 -2.00319338 3 16 1417 24.62000000 3186953704 3186953704 -4.66700000
12.60840416 71.72540283 2.11942005 28 17 1417 72.85600000 3186953704 3186953704 1.66700000
21.95304108 78.78620148 1.42760682 28 18 1417 81.80000000 3186953706 3186953706 1.00000000
3.98633504 22.67705536 -1.47562838 5 19 1417 23.07200000 3186953706 3186953706 -3.66700000
9.19548321 27.67489243 -1.69835711 4 20 1418 29.21200000 3186953709 3186953709 -3.33300000
14.80735588 65.28028870 3.89833760 25 21 1418 67.05200000 3186953709 3186953709 3.33300000
40.70039749 145.87072754 6.16992092 28 22 1419 151.56800000 3186953711 3186953711 2.33300000
7.52313232 33.13996124 -1.58298886 3 23 1419 34.02000000 3186953711 3186953711 -2.66700000
8.65379620 30.99441528 -1.68647385 6 24 1420 32.22400000 3186953713 3186953713 -3.00000000
6.62886477 37.55582809 -1.55371547 7 27 1421 38.16800000 3186953715 3186953715 -2.33300000
11.60456848 34.84400558 -1.28248668 6 28 1422 36.74800000 3186953718 3186953718 -2.00000000
10.38955116 45.61920547 -1.08871496 7 31 1423 46.80000000 3186953720 3186953720 -1.33300000
1.50189435 5.34315968 -2.58811426 14 0 1430 6.12400000 3186953741 3186953741 -25.00000000
9.39471817 52.74164581 -0.93509996 16 1 1430 53.58000000 3186953741 3186953741 -1.00000000
11.54068089 41.02978897 -1.24042034 9 2 1431 42.64000000 3186953743 3186953743 -1.66700000
1.88556647 8.22621727 -2.36255836 27 3 1431 8.76400000 3186953743 3186953743 -15.63900000
3.18916273 11.33062363 -2.35419202 13 4 1432 12.00400000 3186953745 3186953745 -11.31000000
13.54063225 59.02681351 0.00000000 21 5 1432 60.56000000 3186953745 3186953745 0.00000000
16.32790756 48.74242401 -0.59844482 16 6 1432 51.40800000 3186953748 3186953748 -0.66700000
3.29277945 14.35400391 -2.29115391 14 7 1432 14.90400000 3186953748 3186953748 -8.84300000
4.08888149 14.51747608 -1.91978204 3 8 1433 15.20400000 3186953750 3186953750 -7.25400000
13.43435764 75.19199371 0.44393721 28 9 1433 76.38400000 3186953750 3186953750 0.33300000
17.00632668 60.34019470 -0.36436048 28 10 1434 62.69200000 3186953752 3186953752 -0.33300000
3.87665391 16.87222290 -1.86477375 22 11 1434 17.41200000 3186953752 3186953752 -6.14800000
7.08137512 21.10278130 -2.07785749 2 12 1435 22.35600000 3186953755 3186953755 -5.33300000
21.73315811 64.72821808 0.79489970 28 14 1436 68.28400000 3186953757 3186953757 0.66700000
6.18732357 26.88586235 -1.92918503 3 15 1436 27.65600000 3186953757 3186953757 -4.00000000
6.66461563 23.59940910 -2.00189161 3 16 1437 24.60400000 3186953759 3186953759 -4.66700000
12.56147861 70.02410889 2.07043147 28 17 1437 71.17200000 3186953759 3186953759 1.66700000
22.01705742 77.96241760 1.41406381 28 18 1437 81.02400000 3186953762 3186953762 1.00000000
4.05701017 22.61585236 -1.47255838 8 19 1437 23.02400000 3186953762 3186953762 -3.66700000
9.21314430 27.40794754 -1.68393862 4 20 1438 28.96400000 3186953764 3186953764 -3.33300000
14.97324848 64.95970917 3.88229132 25 21 1438 66.77600000 3186953764 3186953764 3.33300000
41.16365433 145.56623840 6.16308212 117 22 1439 151.40000000 3186953766 3186953766 2.33300000
7.61272001 33.00059128 -1.57759118 3 23 1439 33.90400000 3186953766 3186953766 -2.66700000
8.73474312 30.86792946 -1.68124020 6 24 1440 32.12400000 3186953768 3186953768 -3.00000000
40.56336975 143.25247192 12.15422535 28 26 1441 149.38000000 3186953771 3186953771 4.66700000
6.72874737 37.35939407 -1.54655099 7 27 1441 37.99200000 3186953771 3186953771 -2.33300000
11.71719074 34.77676773 -1.28150952 6 28 1442 36.72000000 3186953773 3186953773 -2.00000000
10.49914074 45.36838531 -1.08359706 7 31 1443 46.58000000 3186953775 3186953775 -1.33300000
1.52450907 5.35183048 -2.59487605 14 0 1450 6.14000000 3186953796 3186953796 -25.00000000
9.51869488 52.37799454 -0.92923594 16 1 1450 53.24400000 3186953796 3186953796 -1.00000000
1.91426980 8.21958542 -2.36255836 18 3 1451 8.76400000 3186953798 3186953798 -15.63900000
3.22977042 11.32319450 -2.35497642 12 4 1452 12.00800000 3186953801 3186953801 -11.31000000
16.49795151 48.68513107 -0.59844482 16 6 1452 51.40800000 3186953803 3186953803 -0.66700000
3.31864071 14.23849201 -2.27455139 14 7 1452 14.79600000 3186953803 3186953803 -8.84300000
4.11339474 14.41154003 -1.90766037 3 8 1453 15.10800000 3186953805 3186953805 -7.25400000
17.21684837 60.28046417 -0.36436048 28 10 1454 62.69200000 3186953808 3186953808 -0.33300000
3.93823767 16.87020683 -1.86605895 22 11 1454 17.42400000 3186953808 3186953808 -6.14800000
7.14603329 21.05153465 -2.07525516 2 12 1455 22.32800000 3186953810 3186953810 -5.33300000
14.10489464 60.37346268 1.44268692 18 13 1455 62.01600000 3186953810 3186953810 1.33300000
21.75058365 64.03842926 0.78735632 28 14 1456 67.63600000 3186953812 3186953812 0.66700000
6.27477551 26.83690262 -1.92723191 3 15 1456 27.62800000 3186953812 3186953812 -4.00000000
6.74037123 23.55300522 -1.99993873 3 16 1457 24.58000000 3186953815 3186953815 -4.66700000
12.43014240 67.92681122 2.00969052 28 17 1457 69.08400000 3186953815 3186953815 1.66700000
22.03597832 77.00072479 1.39800751 28 18 1457 80.10400000 3186953817 3186953817 1.00000000
5.32583570 29.10401535 -1.89621317 4 19 1457 29.64800000 3186953817 3186953817 -3.66700000
9.32418633 27.42098808 -1.68672931 4 20 1458 29.01200000 3186953819 3186953819 -3.33300000
41.69904709 145.51771545 6.16715288 124 22 1459 151.50000000 3186953821 3186953821 2.33300000
7.70963240 32.89601135 -1.57386875 3 23 1459 33.82400000 3186953821 3186953821 -2.66700000
8.82702541 30.78349495 -1.67830944 6 24 1460 32.06800000 3186953824 3186953824 -3.00000000
40.22969818 140.20527649 11.90752792 28 26 1461 146.34800000 3186953826 3186953826 4.66700000
6.83889437 37.22561264 -1.54199183 7 27 1461 37.88000000 3186953826 3186953826 -2.33300000
11.82948589 34.70916748 -1.28053236 6 28 1462 36.69200000 3186953828 3186953828 -2.00000000
10.62083435 45.17574692 -1.07987499 7 31 1463 46.42000000 3186953831 3186953831 -1.33300000
1.54224801 5.34674549 -2.59487605 14 0 1469 6.14000000 3186953851 3186953851 -25.00000000
9.66976166 52.22423553 -0.92707181 16 1 1469 53.12000000 3186953851 3186953851 -1.00000000
1.89012074 7.99577332 -2.30001688 15 3 1470 8.53200000 3186953854 3186953854 -15.63900000
3.28689265 11.38025093 -2.36909676 12 4 1471 12.08000000 3186953856 3186953856 -11.31000000
13.91078854 58.80093384 0.00000000 102 5 1471 60.42400000 3186953856 3186953856 0.00000000
16.60745621 48.47879791 -0.59658223 16 6 1471 51.24800000 3186953858 3186953858 -0.66700000
3.39586663 14.35433578 -2.29484344 12 7 1471 14.92800000 3186953858 3186953858 -8.84300000
4.12921286 14.28727245 -1.89301324 5 8 1472 14.99200000 3186953861 3186953861 -7.25400000
17.19440079 59.45454407 -0.35971096 28 10 1473 61.89200000 3186953863 3186953863 -0.33300000
3.99782729 16.87253380 -1.86777258 20 11 1473 17.44000000 3186953863 3186953863 -6.14800000
7.19124222 20.95614815 -2.06819129 2 12 1474 22.25200000 3186953865 3186953865 -5.33300000
14.30040932 60.30690002 1.44222164 18 13 1474 61.99600000 3186953865 3186953865 1.33300000
21.71993256 63.25854111 0.77864879 28 14 1475 66.88800000 3186953867 3186953867 0.66700000
6.35544348 26.78100586 -1.92472064 3 15 1475 27.59200000 3186953867 3186953867 -4.00000000
6.81178093 23.50754738 -1.99798596 3 16 1476 24.55600000 3186953870 3186953870 -4.66700000
12.50657845 67.08731079 1.98606896 28 17 1476 68.27200000 3186953870 3186953870 1.66700000
5.44499731 29.20784569 -1.90414381 4 19 1476 29.77200000 3186953872 3186953872 -3.66700000
9.39948940 27.34460258 -1.68393862 4 20 1477 28.96400000 3186953874 3186953874 -3.33300000
42.20476151 145.45924377 6.17057228 131 22 1478 151.58400000 3186953877 3186953877 2.33300000
7.78539038 32.73032379 -1.56716824 10 23 1478 33.68000000 3186953877 3186953877 -2.66700000
8.90901089 30.68500328 -1.67454123 6 24 1479 31.99600000 3186953879 3186953879 -3.00000000
40.67550659 140.00601196 11.90199471 28 26 1480 146.28000000 3186953881 3186953881 4.66700000
6.94980288 37.13594437 -1.53922367 7 27 1480 37.81200000 3186953881 3186953881 -2.33300000
11.90545654 34.55636215 -1.27634442 6 28 1481 36.57200000 3186953884 3186953884 -2.00000000
10.76037502 45.09749222 -1.07885134 7 31 1482 46.37600000 3186953886 3186953886 -1.33300000
1.56098616 5.34508181 -2.59656668 14 0 1488 6.14400000 3186953907 3186953907 -25.00000000
9.80583191 51.99537659 -0.92358136 15 1 1488 52.92000000 3186953907 3186953907 -1.00000000
11.85897255 40.58081436 -1.23041320 9 2 1489 42.29600000 3186953909 3186953909 -1.66700000
1.90584254 7.94451380 -2.28707743 20 3 1489 8.48400000 3186953909 3186953909 -15.63900000
3.27067041 11.18482018 -2.33065796 12 4 1490 11.88400000 3186953911 3186953911 -11.31000000
16.70661354 48.24582291 -0.59439373 16 6 1490 51.06000000 3186953914 3186953914 -0.66700000
3.34656715 13.93945503 -2.23027778 14 7 1490 14.50800000 3186953914 3186953914 -8.84300000
4.06736231 13.90028858 -1.84351611 11 8 1491 14.60000000 3186953916 3186953916 -7.25400000
12.64644146 66.86543274 0.39551234 28 9 1491 68.05200000 3186953916 3186953916 0.33300000
17.44766426 59.58913803 -0.36087334 28 10 1492 62.09200000 3186953918 3186953918 -0.33300000
4.05468655 16.86305046 -1.86820090 20 11 1492 17.44400000 3186953918 3186953918 -6.14800000
7.25025415 20.90208435 -2.06521726 2 12 1493 22.22000000 3186953920 3186953920 -5.33300000
14.50499344 60.27858734 1.44268692 18 13 1493 62.01600000 3186953920 3186953920 1.33300000
21.67910385 62.46444702 0.76975501 28 14 1494 66.12400000 3186953923 3186953923 0.66700000
6.41525650 26.63952255 -1.91607082 6 15 1494 27.46800000 3186953923 3186953923 -4.00000000
6.88296366 23.46187782 -1.99603331 3 16 1495 24.53200000 3186953925 3186953925 -4.66700000
12.48734665 65.77275085 1.94836760 28 17 1495 66.97600000 3186953925 3186953925 1.66700000
5.53437853 29.15041161 -1.90158558 4 19 1495 29.73200000 3186953927 3186953927 -3.66700000
9.44031239 27.16994476 -1.67510152 4 20 1496 28.81200000 3186953930 3186953930 -3.33300000
42.70716476 145.38751221 6.17350340 24 22 1497 151.65600000 3186953932 3186953932 2.33300000
7.86482239 32.58391953 -1.56139839 10 23 1497 33.55600000 3186953932 3186953932 -2.66700000
8.98368073 30.56331444 -1.66951704 6 24 1498 31.90000000 3186953934 3186953934 -3.00000000
41.11143494 139.77473450 11.89385891 28 26 1499 146.18000000 3186953937 3186953937 4.66700000
7.04298353 36.95565414 -1.53271055 6 27 1499 37.65200000 3186953937 3186953937 -2.33300000
11.99895000 34.45629120 -1.27411079 6 28 1500 36.50800000 3186953939 3186953939 -2.00000000
10.85498333 44.86912537 -1.07419872 7 31 1500 46.17600000 3186953941 3186953941 -1.33300000
1.57326126 5.31124115 -2.58304286 14 0 1510 6.11200000 3186953962 3186953962 -25.00000000
9.98044968 51.82774353 -0.92127764 15 1 1510 52.78800000 3186953962 3186953962 -1.00000000
11.99652386 40.47364426 -1.22855139 9 2 1511 42.23200000 3186953964 3186953964 -1.66700000
1.94911420 7.98952770 -2.30217361 18 3 1511 8.54000000 3186953964 3186953964 -15.63900000
3.31805396 11.18722153 -2.33379579 12 4 1512 11.90000000 3186953967 3186953967 -11.31000000
16.84984016 48.03494644 -0.59262425 15 6 1513 50.90800000 3186953969 3186953969 -0.66700000
3.30024338 13.50740242 -2.16325259 17 7 1513 14.07200000 3186953969 3186953969 -8.84300000
4.08119202 13.75142860 -1.82583857 3 8 1513 14.46000000 3186953971 3186953971 -7.25400000
12.62778378 65.39073944 0.38707346 28 9 1513 66.60000000 3186953971 3186953971 0.33300000
17.58410454 59.21111679 -0.35899028 28 10 1514 61.76800000 3186953973 3186953973 -0.33300000
4.13263035 16.90144157 -1.87419832 8 11 1514 17.50000000 3186953973 3186953973 -6.14800000
7.31858206 20.84027100 -2.06187129 2 12 1515 22.18400000 3186953976 3186953976 -5.33300000
14.82758617 60.59534073 1.45161998 18 13 1515 62.40000000 3186953976 3186953976 1.33300000
21.71725082 61.80716324 0.76267719 28 14 1516 65.51600000 3186953978 3186953978 0.66700000
6.51465034 26.60306740 -1.91523373 3 15 1516 27.45600000 3186953978 3186953978 -4.00000000
6.94343901 23.33592415 -1.98757136 3 16 1517 24.42800000 3186953980 3186953980 -4.66700000
12.63936996 65.20618439 1.93300784 28 17 1517 66.44800000 3186953980 3186953980 1.66700000
5.63006210 29.01823425 -1.89442229 4 19 1518 29.62000000 3186953983 3186953983 -3.66700000
9.55384350 27.15986443 -1.67672932 4 20 1518 28.84000000 3186953985 3186953985 -3.33300000
7.98987722 32.55347824 -1.56139839 3 23 1519 33.55600000 3186953987 3186953987 -2.66700000
9.08271027 30.46734619 -1.66616750 6 24 1520 31.83600000 3186953990 3186953990 -3.00000000
41.36405945 138.66458130 11.81281948 28 26 1521 145.18400000 3186953992 3186953992 4.66700000
7.17796087 36.89302826 -1.53124511 6 27 1521 37.61600000 3186953992 3186953992 -2.33300000
12.13116360 34.40996170 -1.27411079 6 28 1522 36.50800000 3186953994 3186953994 -2.00000000
10.98515797 44.65625381 -1.07010448 7 31 1522 46.00000000 3186953997 3186953997 -1.33300000
1.64596236 5.48627806 -2.67094731 13 0 1530 6.32000000 3186954017 3186954017 -25.00000000
10.10971355 51.52964020 -0.91660041 15 1 1530 52.52000000 3186954017 3186954017 -1.00000000
12.12508392 40.38939667 -1.22727144 9 2 1531 42.18800000 3186954020 3186954020 -1.66700000
1.98347294 8.00884819 -2.30972171 15 3 1531 8.56800000 3186954020 3186954020 -15.63900000
3.33790112 11.11171055 -2.32045984 15 4 1532 11.83200000 3186954022 3186954022 -11.31000000
14.60240936 58.91739655 0.00000000 42 5 1532 60.70000000 3186954022 3186954022 0.00000000
16.90910530 47.67049789 -0.58885252 15 6 1533 50.58400000 3186954024 3186954024 -0.66700000
3.31311893 13.35769653 -2.14111590 13 7 1533 13.92800000 3186954024 3186954024 -8.84300000
5.21543121 17.35092545 -2.30616283 3 8 1533 18.26400000 3186954026 3186954026 -7.25400000
12.58880615 63.98831940 0.37902975 28 9 1533 65.21600000 3186954026 3186954026 0.33300000
17.71118927 58.88507462 -0.35738620 28 10 1534 61.49200000 3186954029 3186954029 -0.33300000
4.12549448 16.62058258 -1.84463954 2 11 1534 17.22400000 3186954029 3186954029 -6.14800000
7.38462019 20.79583168 -2.06001234 2 12 1535 22.16400000 3186954031 3186954031 -5.33300000
21.72262764 61.13926315 0.75536662 28 14 1536 64.88800000 3186954033 3186954033 0.66700000
6.59880877 26.54531288 -1.91272247 6 15 1536 27.42000000 3186954033 3186954033 -4.00000000
7.01680231 23.28482628 -1.98529315 6 16 1537 24.40000000 3186954036 3186954036 -4.66700000
12.55708313 63.59263992 1.88646293 28 17 1537 64.84800000 3186954036 3186954036 1.66700000
5.71697950 28.95241165 -1.89135242 4 19 1537 29.57200000 3186954038 3186954038 -3.66700000
9.63922310 27.10001373 -1.67510152 4 20 1538 28.81200000 3186954040 3186954040 -3.33300000
8.08510780 32.45172501 -1.55786204 3 23 1539 33.48000000 3186954043 3186954043 -2.66700000
9.18092442 30.40868759 -1.66470206 6 24 1540 31.80800000 3186954045 3186954045 -3.00000000
7.27794981 36.72269440 -1.52522039 6 27 1541 37.46800000 3186954047 3186954047 -2.33300000
12.20019531 34.22431946 -1.26880610 6 28 1542 36.35600000 3186954050 3186954050 -2.00000000
11.13418961 44.59048080 -1.06945312 7 31 1542 45.97200000 3186954052 3186954052 -1.33300000
1.65351045 5.44234371 -2.65235209 11 0 1550 6.27600000 3186954072 3186954072 -25.00000000
10.30911541 51.59208298 -0.91834563 15 1 1550 52.62000000 3186954072 3186954072 -1.00000000
12.22180271 40.20146179 -1.22284973 9 2 1551 42.03600000 3186954074 3186954074 -1.66700000
1.96540415 7.81882620 -2.25688505 19 3 1551 8.37200000 3186954074 3186954074 -15.63900000
3.36182785 11.05120850 -2.31026173 15 4 1552 11.78000000 3186954077 3186954077 -11.31000000
14.84310913 59.00571442 0.00000000 21 5 1552 60.84400000 3186954077 3186954077 0.00000000
17.06709290 47.61416626 -0.58885252 15 6 1552 50.58400000 3186954079 3186954079 -0.66700000
3.48178029 13.84109783 -2.22043920 16 7 1552 14.44400000 3186954079 3186954079 -8.84300000
5.26903248 17.30983734 -2.30313230 4 8 1553 18.24000000 3186954081 3186954081 -7.25400000
12.57398605 62.75562668 0.37198573 28 9 1553 64.00400000 3186954081 3186954081 0.33300000
4.12130690 16.35926437 -1.81722271 3 11 1554 16.96800000 3186954084 3186954084 -6.14800000
7.45178270 20.75493431 -2.05852532 2 12 1555 22.14800000 3186954086 3186954086 -5.33300000
21.72090721 60.46455383 0.74796289 28 14 1556 64.25200000 3186954088 3186954088 0.66700000
6.68654871 26.50277138 -1.91132736 3 15 1556 27.40000000 3186954088 3186954088 -4.00000000
7.09105682 23.23731232 -1.98334038 3 16 1557 24.37600000 3186954090 3186954090 -4.66700000
12.46920681 62.00792313 1.84073257 28 17 1557 63.27600000 3186954090 3186954090 1.66700000
5.81013775 28.89314461 -1.88879406 4 19 1557 29.53200000 3186954093 3186954093 -3.66700000
9.72430134 27.03989792 -1.67347360 4 20 1558 28.78400000 3186954095 3186954095 -3.33300000
8.18854141 32.38456726 -1.55600083 3 23 1559 33.44000000 3186954097 3186954097 -2.66700000
9.24964237 30.25421524 -1.65800309 6 24 1560 31.68000000 3186954100 3186954100 -3.00000000
42.47572327 138.84515381 11.85317612 28 26 1561 145.68000000 3186954102 3186954102 4.66700000
7.39106894 36.62262726 -1.52212667 6 27 1561 37.39200000 3186954102 3186954102 -2.33300000
12.31416416 34.16648102 -1.26824772 6 28 1562 36.34000000 3186954104 3186954104 -2.00000000
11.19841576 44.19083786 -1.06079924 7 31 1562 45.60000000 3186954107 3186954107 -1.33300000
1.64504588 5.35395432 -2.61178088 15 0 1568 6.18000000 3186954127 3186954127 -25.00000000
10.38438416 51.13222885 -0.91073638 14 1 1568 52.18400000 3186954127 3186954127 -1.00000000
12.32806396 40.09789658 -1.22087157 9 2 1569 41.96800000 3186954130 3186954130 -1.66700000
1.98805642 7.80514765 -2.25472832 21 3 1569 8.36400000 3186954130 3186954130 -15.63900000
3.40690947 11.07433224 -2.31732202 12 4 1570 11.81600000 3186954132 3186954132 -11.31000000
17.19072533 47.48885345 -0.58796781 15 6 1570 50.50800000 3186954134 3186954134 -0.66700000
3.48814845 13.68455124 -2.19707274 21 7 1570 14.29200000 3186954134 3186954134 -8.84300000
5.31521511 17.26665306 -2.29959679 4 8 1571 18.21200000 3186954137 3186954137 -7.25400000
12.51886272 61.47725296 0.36463946 28 9 1571 62.74000000 3186954137 3186954137 0.33300000
17.98358917 58.38404846 -0.35506144 28 10 1572 61.09200000 3186954139 3186954139 -0.33300000
4.13530159 16.19980621 -1.80094397 3 11 1572 16.81600000 3186954139 3186954139 -6.14800000
7.50608873 20.70146751 -2.05555105 2 12 1573 22.11600000 3186954141 3186954141 -5.33300000
21.66658974 59.72298813 0.73962784 28 14 1574 63.53600000 3186954143 3186954143 0.66700000
6.73716259 26.35405922 -1.90211952 3 15 1574 27.26800000 3186954143 3186954143 -4.00000000
7.15344381 23.18063354 -1.98041129 3 16 1575 24.34000000 3186954146 3186954146 -4.66700000
5.88009930 28.77306366 -1.88214242 4 19 1575 29.42800000 3186954148 3186954148 -3.66700000
9.81056499 27.01296806 -1.67370617 4 20 1576 28.78800000 3186954150 3186954150 -3.33300000
44.72230911 144.74269104 6.17203808 28 22 1577 151.62000000 3186954153 3186954153 2.33300000
8.26842403 32.27352905 -1.55190599 3 23 1577 33.35200000 3186954153 3186954153 -2.66700000
9.36706066 30.29751778 -1.66198063 6 24 1578 31.75600000 3186954155 3186954155 -3.00000000
42.94116592 138.80624390 11.86131287 28 26 1579 145.78000000 3186954157 3186954157 4.66700000
7.47396755 36.44261932 -1.51561344 6 27 1579 37.23200000 3186954157 3186954157 -2.33300000
12.40366650 34.07879257 -1.26643288 6 28 1580 36.28800000 3186954160 3186954160 -2.00000000
11.32923412 44.12445450 -1.06005478 7 31 1580 45.56800000 3186954162 3186954162 -1.33300000
1.65403295 5.31702471 -2.59656668 15 0 1588 6.14400000 3186954183 3186954183 -25.00000000
10.53851604 50.97817230 -0.90864211 14 1 1588 52.06400000 3186954183 3186954183 -1.00000000
12.46676826 40.05080032 -1.22075522 9 2 1589 41.96400000 3186954185 3186954185 -1.66700000
2.01818085 7.80934858 -2.25796318 21 3 1589 8.37600000 3186954185 3186954185 -15.63900000
3.46070862 11.11105633 -2.32751989 11 4 1590 11.86800000 3186954187 3186954187 -11.31000000
17.24505043 47.12431335 -0.58419609 14 6 1590 50.18400000 3186954190 3186954190 -0.66700000
3.55073953 13.72969055 -2.20629644 12 7 1590 14.35200000 3186954190 3186954190 -8.84300000
5.37073183 17.23284149 -2.29757667 4 8 1591 18.19600000 3186954192 3186954192 -7.25400000
12.59212589 60.75167847 0.36059436 28 9 1591 62.04400000 3186954192 3186954192 0.33300000
18.12773705 58.12998962 -0.35389906 28 10 1592 60.89200000 3186954194 3186954194 -0.33300000
4.16091394 16.06592369 -1.78766394 3 11 1592 16.69200000 3186954194 3186954194 -6.14800000
7.57967567 20.67888069 -2.05592275 5 12 1593 22.12000000 3186954196 3186954196 -5.33300000
21.64632034 59.02363586 0.73189819 28 14 1594 62.87200000 3186954199 3186954199 0.66700000
6.82610941 26.31879425 -1.90128243 3 15 1594 27.25600000 3186954199 3186954199 -4.00000000
7.23312664 23.15171814 -1.98008585 3 16 1595 24.33600000 3186954201 3186954201 -4.66700000
12.63103008 60.72601700 1.80512583 28 17 1595 62.05200000 3186954201 3186954201 1.66700000
5.97819567 28.71614647 -1.87984002 4 19 1596 29.39200000 3186954203 3186954203 -3.66700000
9.84424400 26.81362152 -1.66347373 4 20 1596 28.61200000 3186954206 3186954206 -3.33300000
50.35531998 193.87181091 11.66524601 42 21 1596 200.64400000 3186954206 3186954206 3.33300000
8.36796188 32.19419861 -1.54948640 3 23 1597 33.30000000 3186954208 3186954208 -2.66700000
9.42980671 30.12739754 -1.65444422 6 24 1598 31.61200000 3186954210 3186954210 -3.00000000
7.59786367 36.40065765 -1.51496220 6 27 1599 37.21600000 3186954213 3186954213 -2.33300000
12.51426601 34.01277924 -1.26559532 6 28 1600 36.26400000 3186954215 3186954215 -2.00000000
11.42976379 43.87953949 -1.05512297 6 31 1600 45.35600000 3186954217 3186954217 -1.33300000
1.67459929 5.31438446 -2.59825706 17 0 1609 6.14800000 3186954238 3186954238 -25.00000000
10.67996883 50.72395706 -0.90480256 13 1 1609 51.84400000 3186954238 3186954238 -1.00000000
12.56779003 39.85993576 -1.21633339 9 2 1610 41.81200000 3186954240 3186954240 -1.66700000
2.08979797 7.96583605 -2.30540848 29 3 1610 8.55200000 3186954240 3186954240 -15.63900000
3.47190642 11.00478268 -2.30790830 11 4 1611 11.76800000 3186954242 3186954242 -11.31000000
17.85613060 68.01515198 0.00000000 24 5 1611 70.32000000 3186954242 3186954242 0.00000000
17.37864113 46.93022156 -0.58261293 14 6 1612 50.04800000 3186954245 3186954245 -0.66700000
3.55321646 13.52481937 -2.17555094 14 7 1612 14.15200000 3186954245 3186954245 -8.84300000
5.42907906 17.19790459 -2.29555631 4 8 1612 18.18000000 3186954247 3186954247 -7.25400000
12.56437778 59.51927185 0.35355034 28 9 1612 60.83200000 3186954247 3186954247 0.33300000
18.22019196 57.68173981 -0.35157427 28 10 1613 60.49200000 3186954249 3186954249 -0.33300000
4.18336725 15.91209888 -1.77224195 3 11 1613 16.54800000 3186954249 3186954249 -6.14800000
21.66360474 58.40763855 0.72523946 28 14 1615 62.30000000 3186954254 3186954254 0.66700000
6.91135120 26.25115204 -1.89821315 3 15 1615 27.21200000 3186954254 3186954254 -4.00000000
