# .PCD v0.7 - Point Cloud Data file format
VERSION 0.7
FIELDS x y z intensity laser_id azimuth distance_m adjustedtime timestamp vertical_angle
SIZE 4 4 4 1 1 2 8 8 4 8
TYPE F F F U U U F U U F
COUNT 1 1 1 1 1 1 1 1 1 1
WIDTH 505
HEIGHT 1
VIEWPOINT 0 0 0 1 0 0 0
POINTS 505
DATA ascii
40.75937653 -111.86396027 6.93365955 42 21 16138 119.26000000 3175694613 3175694613 3.33300000
42.01723480 -135.65193176 5.78564453 28 22 16139 142.12800000 3175694615 3175694615 2.33300000
19.41227341 -53.30583191 -2.64259553 16 23 16139 56.79200000 3175694615 3175694615 -2.66700000
19.25019836 -62.18734360 -3.41167641 28 24 16140 65.18800000 3175694617 3175694617 -3.00000000
40.15531921 -110.32583618 14.41568089 28 25 16140 118.28800000 3175694617 3175694617 7.00000000
41.55908203 -134.33869934 11.47955036 28 26 16141 141.08800000 3175694619 3175694619 4.66700000
37.26084900 -145.33201599 -5.23925209 28 28 16142 150.12400000 3175694622 3175694622 -2.00000000
37.29706573 -102.64002991 -2.54117227 28 31 16143 109.23600000 3175694624 3175694624 -1.33300000
1.92619717 -6.26120186 -3.05468488 3 0 16150 7.22800000 3175694645 3175694645 -25.00000000
37.43335724 -89.48732758 -1.69316268 28 1 16150 97.01600000 3175694645 3175694645 -1.00000000
36.98066711 -120.28222656 -3.66226554 28 2 16151 125.89200000 3175694647 3175694647 -1.66700000
3.38759518 -9.36323357 -2.78740931 30 3 16151 10.34000000 3175694647 3175694647 -15.63900000
3.56317329 -11.59667778 -2.42636323 4 4 16152 12.37200000 3175694649 3175694649 -11.31000000
41.32031631 -114.27072144 0.00000000 28 5 16152 121.51200000 3175694649 3175694649 0.00000000
35.34803772 -138.87840271 -1.66835344 29 6 16152 143.31600000 3175694652 3175694652 -0.66700000
6.87474871 -19.01201630 -3.14526367 32 7 16152 20.46000000 3175694652 3175694652 -8.84300000
7.69557953 -25.06155586 -3.33701658 3 8 16153 26.42800000 3175694654 3175694654 -7.25400000
40.55968475 -97.10382843 0.61162257 28 9 16153 105.23600000 3175694654 3175694654 0.33300000
37.13570023 -121.01201630 -0.73569530 28 10 16154 126.58400000 3175694656 3175694656 -0.33300000
9.93851852 -27.51485825 -3.15122366 3 11 16154 29.42400000 3175694656 3175694656 -6.14800000
9.47803497 -37.31985092 -3.59433293 5 12 16155 38.67200000 3175694659 3175694659 -5.33300000
36.64070892 -101.49548340 2.51093030 28 13 16155 107.93600000 3175694659 3175694659 1.33300000
34.91163635 -137.56553650 1.65228879 28 14 16156 141.93600000 3175694661 3175694661 0.66700000
16.02645302 -44.41786194 -3.30199242 8 15 16156 47.33600000 3175694661 3175694661 -4.00000000
12.36961079 -40.38353729 -3.44790101 9 16 16157 42.37600000 3175694663 3175694663 -4.66700000
41.06312180 -98.50241089 3.10582185 28 17 16157 106.76400000 3175694663 3175694663 1.66700000
42.80439377 -139.74511719 2.55112290 28 18 16157 146.17600000 3175694666 3175694666 1.00000000
18.82169724 -45.14957428 -3.13494277 19 19 16157 49.01600000 3175694666 3175694666 -3.66700000
16.05669594 -63.36243439 -3.80671048 28 20 16158 65.47600000 3175694668 3175694668 -3.33300000
40.13576889 -111.35940552 6.89366007 42 21 16158 118.57200000 3175694668 3175694668 3.33300000
42.85762787 -140.09352112 5.96866417 28 22 16159 146.62400000 3175694670 3175694670 2.33300000
19.39128685 -53.83189011 -2.66530275 16 23 16159 57.28000000 3175694670 3175694670 -2.66700000
19.22103691 -62.86917496 -3.44538069 28 24 16160 65.83200000 3175694672 3175694672 -3.00000000
38.82184601 -107.83182526 14.07200909 28 25 16160 115.46800000 3175694672 3175694672 7.00000000
39.75138092 -130.10211182 11.10559940 28 26 16161 136.49200000 3175694675 3175694675 4.66700000
37.09275436 -103.19860077 -2.55178046 28 31 16163 109.69200000 3175694679 3175694679 -1.33300000
1.93272698 -6.36534739 -3.10201812 2 0 16171 7.34000000 3175694700 3175694700 -25.00000000
37.32389069 -90.15233612 -1.70314538 28 1 16171 97.58800000 3175694700 3175694700 -1.00000000
37.33367157 -123.03397369 -3.74185729 28 2 16172 128.62800000 3175694702 3175694702 -1.66700000
3.36492920 -9.40822983 -2.79711390 15 3 16172 10.37600000 3175694702 3175694702 -15.63900000
3.51723075 -11.59839916 -2.42400980 7 4 16173 12.36000000 3175694705 3175694705 -11.31000000
40.85812759 -114.30087280 0.00000000 28 5 16173 121.38400000 3175694705 3175694705 0.00000000
36.58222961 -145.96337891 -1.75184333 29 6 16173 150.48800000 3175694707 3175694707 -0.66700000
6.82231522 -19.08546829 -3.15325737 10 7 16173 20.51200000 3175694707 3175694707 -8.84300000
7.64395237 -25.22250366 -3.35469413 3 8 16174 26.56800000 3175694709 3175694709 -7.25400000
40.00485229 -96.77128601 0.60860038 28 9 16174 104.71600000 3175694709 3175694709 0.33300000
36.69307709 -121.15113831 -0.73571855 28 10 16175 126.58800000 3175694712 3175694712 -0.33300000
9.88173771 -27.67469788 -3.16536045 3 11 16175 29.55600000 3175694712 3175694712 -6.14800000
9.35664558 -37.41615677 -3.60028148 5 12 16176 38.73600000 3175694714 3175694714 -5.33300000
39.81143570 -111.55699158 2.75621676 28 13 16176 118.48000000 3175694714 3175694714 1.33300000
34.40526199 -137.68479919 1.65219569 28 14 16177 141.92800000 3175694716 3175694716 0.66700000
15.95335865 -44.72811508 -3.32068729 8 15 16177 47.60400000 3175694716 3175694716 -4.00000000
12.27919674 -40.61941147 -3.46417379 9 16 16178 42.57600000 3175694719 3175694719 -4.66700000
40.77653885 -98.83336639 3.11152363 28 17 16178 106.96000000 3175694719 3175694719 1.66700000
41.38460159 -136.89968872 2.49639225 28 18 16178 143.04000000 3175694721 3175694721 1.00000000
18.75200272 -45.45073318 -3.15106010 20 19 16178 49.26800000 3175694721 3175694721 -3.66700000
15.77601719 -63.22713470 -3.79508281 28 20 16179 65.27600000 3175694723 3175694723 -3.33300000
38.92591095 -109.25630951 6.75459146 42 21 16179 116.18000000 3175694723 3175694723 3.33300000
41.08358002 -136.07539368 5.79101753 28 22 16180 142.26000000 3175694725 3175694725 2.33300000
19.37748146 -54.41828918 -2.69080186 16 23 16180 57.82800000 3175694725 3175694725 -2.66700000
19.18548584 -63.58549881 -3.48075986 28 24 16181 66.50800000 3175694728 3175694728 -3.00000000
40.43640137 -113.62135315 14.80809975 28 25 16181 121.50800000 3175694728 3175694728 7.00000000
37.14000702 -104.53212738 -2.58137107 28 31 16184 110.96400000 3175694735 3175694735 -1.33300000
1.88973141 -6.29880285 -3.06651807 3 0 16190 7.25600000 3175694755 3175694755 -25.00000000
37.31610489 -90.98606873 -1.71654892 28 1 16190 98.35600000 3175694755 3175694755 -1.00000000
37.16775894 -123.96520233 -3.76640964 28 2 16191 129.47200000 3175694758 3175694758 -1.66700000
3.35170412 -9.47017288 -2.81221008 23 3 16191 10.43200000 3175694758 3175694758 -15.63900000
3.48437881 -11.62878513 -2.42793202 7 4 16192 12.38000000 3175694760 3175694760 -11.31000000
7.56482220 -25.26291656 -3.35671449 3 8 16193 26.58400000 3175694765 3175694765 -7.25400000
39.59883881 -96.69612885 0.60729849 28 9 16193 104.49200000 3175694765 3175694765 0.33300000
36.15924835 -120.83146667 -0.73304504 28 10 16194 126.12800000 3175694767 3175694767 -0.33300000
9.80846024 -27.75981140 -3.17135787 3 11 16194 29.61200000 3175694767 3175694767 -6.14800000
9.26779270 -37.59005356 -3.61403704 5 12 16195 38.88400000 3175694769 3175694769 -5.33300000
39.53049850 -111.94104004 2.76245141 28 13 16195 118.74800000 3175694769 3175694769 1.33300000
15.86205292 -44.94256973 -3.33268523 8 15 16196 47.77600000 3175694771 3175694771 -4.00000000
12.15241718 -40.68664932 -3.46645212 9 16 16197 42.60400000 3175694774 3175694774 -4.66700000
40.44100952 -98.94953156 3.11094165 28 17 16197 106.94000000 3175694774 3175694774 1.66700000
40.78274536 -136.54182434 2.48738670 28 18 16197 142.52400000 3175694776 3175694776 1.00000000
18.65705681 -45.64938354 -3.16052580 20 19 16197 49.41600000 3175694776 3175694776 -3.66700000
15.70934296 -63.86074829 -3.82996607 28 20 16198 65.87600000 3175694778 3175694778 -3.33300000
40.50872803 -135.79724121 5.77343225 28 22 16199 141.82800000 3175694781 3175694781 2.33300000
19.36953926 -54.97216415 -2.71499801 16 23 16199 58.34800000 3175694781 3175694781 -2.66700000
19.19134712 -64.37609863 -3.52053499 28 24 16200 67.26800000 3175694783 3175694783 -3.00000000
39.91301727 -113.33914948 14.75399017 28 25 16200 121.06400000 3175694783 3175694783 7.00000000
39.63780212 -133.04718018 11.33309460 28 26 16201 139.28800000 3175694785 3175694785 4.66700000
37.16983414 -105.72612000 -2.60779810 28 31 16203 112.10000000 3175694790 3175694790 -1.33300000
1.86052561 -6.28102922 -3.05468488 4 0 16210 7.22800000 3175694811 3175694811 -25.00000000
37.57005310 -92.52388000 -1.74307656 28 1 16210 99.87600000 3175694811 3175694811 -1.00000000
37.17515945 -125.58171844 -3.81155825 28 2 16211 131.02400000 3175694813 3175694813 -1.66700000
3.27408981 -9.35456657 -2.77446961 16 3 16211 10.29200000 3175694813 3175694813 -15.63900000
3.44376540 -11.64087772 -2.42793202 9 4 16212 12.38000000 3175694815 3175694815 -11.31000000
6.71443319 -19.19488716 -3.16371083 2 7 16212 20.58000000 3175694818 3175694818 -8.84300000
7.48559189 -25.31961060 -3.36075497 3 8 16213 26.61600000 3175694820 3175694820 -7.25400000
39.67887878 -97.86426544 0.61376131 28 9 16213 105.60400000 3175694820 3175694820 0.33300000
39.70515442 -134.38681030 -0.81443506 28 10 16214 140.13200000 3175694822 3175694822 -0.33300000
9.72855473 -27.84268761 -3.17692685 3 11 16214 29.66400000 3175694822 3175694822 -6.14800000
9.18069649 -37.80407715 -3.63151073 5 12 16215 39.07200000 3175694824 3175694824 -5.33300000
40.47256470 -166.78398132 1.99802899 28 14 16216 171.63600000 3175694827 3175694827 0.66700000
15.77082253 -45.18603516 -3.34663653 8 15 16216 47.97600000 3175694827 3175694827 -4.00000000
12.10278511 -41.04238129 -3.49313951 9 16 16217 42.93200000 3175694829 3175694829 -4.66700000
39.78342056 -98.31916809 3.08673835 28 17 16217 106.10800000 3175694829 3175694829 1.66700000
40.32284546 -136.74089050 2.48843384 28 18 16217 142.58400000 3175694831 3175694831 1.00000000
18.56198120 -45.87334824 -3.17152643 20 19 16217 49.58800000 3175694831 3175694831 -3.66700000
15.58036518 -64.30329132 -3.85322165 28 20 16218 66.27600000 3175694834 3175694834 -3.33300000
41.21664429 -118.22518158 7.29156351 42 21 16218 125.41600000 3175694834 3175694834 3.33300000
40.00058746 -135.82279968 5.76854753 28 22 16219 141.70800000 3175694836 3175694836 2.33300000
19.36027718 -55.56391525 -2.74086928 16 23 16219 58.90400000 3175694836 3175694836 -2.66700000
19.16952324 -65.13245392 -3.55821705 28 24 16220 67.98800000 3175694838 3175694838 -3.00000000
39.30432129 -112.86663818 14.67453098 28 25 16220 120.41200000 3175694838 3175694838 7.00000000
39.11689377 -132.99349976 11.31682205 28 26 16221 139.08800000 3175694841 3175694841 4.66700000
36.91667557 -152.82865906 -5.49038887 28 28 16222 157.32000000 3175694843 3175694843 -2.00000000
37.21842194 -106.99699402 -2.63608599 28 31 16222 113.31600000 3175694845 3175694845 -1.33300000
1.85385168 -6.33967829 -3.08004189 2 0 16230 7.28800000 3175694866 3175694866 -25.00000000
37.52431488 -93.34466553 -1.75606108 28 1 16230 100.62000000 3175694866 3175694866 -1.00000000
37.21321869 -127.34178162 -3.86101198 28 2 16231 132.72400000 3175694868 3175694868 -1.66700000
3.22503924 -9.31861687 -2.76045179 20 3 16231 10.24000000 3175694868 3175694868 -15.63900000
3.40420985 -11.65659237 -2.42871642 7 4 16232 12.38400000 3175694871 3175694871 -11.31000000
36.69521332 -153.19990540 -1.83398283 29 6 16233 157.54400000 3175694873 3175694873 -0.66700000
6.65694857 -19.25672340 -3.16986012 2 7 16233 20.62000000 3175694873 3175694873 -8.84300000
7.41606331 -25.41034126 -3.36934137 3 8 16233 26.68400000 3175694875 3175694875 -7.25400000
39.40407562 -98.16921997 0.61480749 28 9 16233 105.78400000 3175694875 3175694875 0.33300000
39.38701248 -135.04298401 -0.81757355 28 10 16234 140.67200000 3175694877 3175694877 -0.33300000
9.66637135 -27.97797012 -3.18849325 3 11 16234 29.77200000 3175694877 3175694877 -6.14800000
9.09221935 -38.01794434 -3.64898419 5 12 16235 39.26000000 3175694880 3175694880 -5.33300000
39.93661499 -167.11874390 2.00035715 28 14 16236 171.83600000 3175694882 3175694882 0.66700000
15.62210941 -45.26721573 -3.34858966 8 15 16236 48.00400000 3175694882 3175694882 -4.00000000
11.96724606 -41.11117554 -3.49541783 9 16 16237 42.96000000 3175694884 3175694884 -4.66700000
39.51431656 -98.64302063 3.09255648 28 17 16237 106.30800000 3175694884 3175694884 1.66700000
39.64712143 -136.28869629 2.47754359 28 18 16238 141.96000000 3175694887 3175694887 1.00000000
18.46939278 -46.13006973 -3.18457389 20 19 16238 49.79200000 3175694887 3175694887 -3.66700000
39.94869995 -115.88801575 7.13877392 42 21 16238 122.78800000 3175694889 3175694889 3.33300000
40.45227051 -139.14697266 5.90369558 28 22 16239 145.02800000 3175694891 3175694891 2.33300000
19.33930588 -56.13359451 -2.76562381 16 23 16239 59.43600000 3175694891 3175694891 -2.66700000
19.12704849 -65.83573151 -3.59296799 28 24 16240 68.65200000 3175694894 3175694894 -3.00000000
38.76404572 -112.57895660 14.61944675 28 25 16240 119.96000000 3175694894 3175694894 7.00000000
38.66576004 -133.17517090 11.32072735 28 26 16241 139.13600000 3175694896 3175694896 4.66700000
37.07101059 -107.78424072 -2.65227723 28 31 16242 114.01200000 3175694901 3175694901 -1.33300000
1.83964562 -6.37777948 -3.09525609 2 0 16251 7.32400000 3175694921 3175694921 -25.00000000
37.61650085 -94.57414246 -1.77658522 28 1 16251 101.79600000 3175694921 3175694921 -1.00000000
37.16042328 -128.91418457 -3.90453148 28 2 16252 134.22000000 3175694924 3175694924 -1.66700000
3.19584894 -9.34495354 -2.76476502 20 3 16252 10.25600000 3175694924 3175694924 -15.63900000
3.36580634 -11.68406773 -2.43185449 7 4 16253 12.40000000 3175694926 3175694926 -11.31000000
6.59782362 -19.31465530 -3.17539430 2 7 16254 20.65600000 3175694928 3175694928 -8.84300000
7.34483433 -25.51361275 -3.37944269 3 8 16254 26.76400000 3175694930 3175694930 -7.25400000
39.04991150 -98.32785034 0.61490047 28 9 16254 105.80000000 3175694930 3175694930 0.33300000
38.51689529 -133.88331604 -0.80969256 28 10 16255 139.31600000 3175694933 3175694933 -0.33300000
9.58175087 -28.06590271 -3.19449067 3 11 16255 29.82800000 3175694933 3175694933 -6.14800000
8.96193695 -38.08978271 -3.65270185 5 12 16256 39.30000000 3175694935 3175694935 -5.33300000
39.11786652 -166.38795471 1.98988020 28 14 16257 170.93600000 3175694937 3175694937 0.66700000
15.50632000 -45.47145844 -3.35947180 8 15 16257 48.16000000 3175694937 3175694937 -4.00000000
11.84399223 -41.25055695 -3.50355411 9 16 16258 43.06000000 3175694940 3175694940 -4.66700000
39.11567688 -98.69425964 3.08964753 28 17 16258 106.20800000 3175694940 3175694940 1.66700000
38.94598389 -135.64207458 2.46330237 28 18 16258 141.14400000 3175694942 3175694942 1.00000000
18.37885284 -46.37238693 -3.19685364 21 19 16258 49.98400000 3175694942 3175694942 -3.66700000
15.34795952 -65.38502502 -3.91136074 28 20 16259 67.27600000 3175694944 3175694944 -3.33300000
38.79492950 -113.89419556 7.00714731 42 21 16259 120.52400000 3175694944 3175694944 3.33300000
39.06069183 -136.22082520 5.77343225 28 22 16260 141.82800000 3175694947 3175694947 2.33300000
19.31113434 -56.72608566 -2.79130912 16 23 16260 59.98800000 3175694947 3175694947 -2.66700000
19.11229515 -66.69642639 -3.63609290 28 24 16261 69.47600000 3175694949 3175694949 -3.00000000
38.33581543 -112.67517853 14.61359692 28 25 16261 119.91200000 3175694949 3175694949 7.00000000
38.60324097 -134.80307007 11.44700527 28 26 16262 140.68800000 3175694951 3175694951 4.66700000
37.04989243 -158.33589172 -5.67856693 28 28 16263 162.71200000 3175694954 3175694954 -2.00000000
36.95235825 -108.73342896 -2.67228341 28 31 16263 114.87200000 3175694956 3175694956 -1.33300000
1.80546117 -6.34232140 -3.07497048 1 0 16271 7.27600000 3175694976 3175694976 -25.00000000
37.42972946 -95.06956482 -1.78342652 28 1 16271 102.18800000 3175694976 3175694976 -1.00000000
37.17516327 -130.67753601 -3.95398545 28 2 16272 135.92000000 3175694978 3175694978 -1.66700000
3.19528556 -9.45092678 -2.79280066 16 3 16272 10.36000000 3175694978 3175694978 -15.63900000
3.73687196 -13.14450836 -2.73309064 1 4 16273 13.93600000 3175694981 3175694981 -11.31000000
44.99180222 -133.15208435 0.00000000 28 5 16273 140.54800000 3175694981 3175694981 0.00000000
36.99330521 -159.34716797 -1.90443468 29 6 16273 163.59600000 3175694983 3175694983 -0.66700000
6.54639006 -19.37387276 -3.18154335 2 7 16273 20.69600000 3175694983 3175694983 -8.84300000
7.26549006 -25.57344818 -3.38398838 3 8 16274 26.80000000 3175694985 3175694985 -7.25400000
38.76205063 -98.60501862 0.61578387 28 9 16274 105.95200000 3175694985 3175694985 0.33300000
38.40436935 -135.26750183 -0.81724805 28 10 16275 140.61600000 3175694988 3175694988 -0.33300000
9.50407314 -28.15946770 -3.20134497 3 11 16275 29.89200000 3175694988 3175694988 -6.14800000
8.86217308 -38.26439285 -3.66645765 5 12 16276 39.44800000 3175694990 3175694990 -5.33300000
38.54313660 -166.55075073 1.99020612 28 14 16277 170.96400000 3175694992 3175694992 0.66700000
15.41633511 -45.72949219 -3.37453914 8 15 16277 48.37600000 3175694992 3175694992 -4.00000000
11.72709942 -41.38754272 -3.51169062 9 16 16278 43.16000000 3175694994 3175694994 -4.66700000
38.06858063 -97.03984833 3.03367734 28 17 16278 104.28400000 3175694994 3175694994 1.66700000
38.35560608 -135.36546326 2.45583272 28 18 16278 140.71600000 3175694997 3175694997 1.00000000
18.32474899 -46.71124649 -3.21578503 21 19 16278 50.28000000 3175694997 3175694997 -3.66700000
38.36526871 -113.93431091 7.00133324 42 21 16279 120.42400000 3175694999 3175694999 3.33300000
38.45001602 -135.87947083 5.75324154 28 22 16280 141.33200000 3175695001 3175695001 2.33300000
19.30290031 -57.35740662 -2.81904149 17 23 16280 60.58400000 3175695001 3175695001 -2.66700000
19.09893036 -67.53918457 -3.67838025 28 24 16281 70.28400000 3175695004 3175695004 -3.00000000
38.10048294 -113.27868652 14.67453098 28 25 16281 120.41200000 3175695004 3175695004 7.00000000
39.45948029 -139.63287354 11.84536552 28 26 16282 145.58400000 3175695006 3175695006 4.66700000
36.54183197 -158.65902710 -5.68554688 28 28 16283 162.91200000 3175695008 3175695008 -2.00000000
36.79672241 -109.52892303 -2.68866062 28 31 16283 115.57600000 3175695011 3175695011 -1.33300000
1.78258240 -6.33749294 -3.06989908 2 0 16289 7.26400000 3175695031 3175695031 -25.00000000
37.18756104 -95.33199310 -1.78614902 28 1 16289 102.34400000 3175695031 3175695031 -1.00000000
36.92024612 -131.34796143 -3.97074151 28 2 16290 136.49600000 3175695034 3175695034 -1.66700000
3.18757915 -9.52666950 -2.81221008 18 3 16290 10.43200000 3175695034 3175695034 -15.63900000
3.73586631 -13.29967785 -2.76290035 3 4 16291 14.08800000 3175695036 3175695036 -11.31000000
44.63035583 -133.46348572 0.00000000 28 5 16291 140.72800000 3175695036 3175695036 0.00000000
38.15212250 -166.71461487 -1.99104428 29 6 16291 171.03600000 3175695038 3175695038 -0.66700000
6.49552107 -19.42433167 -3.18646264 3 7 16291 20.72800000 3175695038 3175695038 -8.84300000
7.19905424 -25.64581108 -3.39055443 3 8 16292 26.85200000 3175695041 3175695041 -7.25400000
38.90645981 -99.89292908 0.62306041 28 9 16292 107.20400000 3175695041 3175695041 0.33300000
37.97922516 -135.38748169 -0.81724805 28 10 16293 140.61600000 3175695043 3175695043 -0.33300000
9.44579983 -28.27971840 -3.21162629 3 11 16293 29.98800000 3175695043 3175695043 -6.14800000
8.79421711 -38.52112961 -3.68839240 5 12 16294 39.68400000 3175695045 3175695045 -5.33300000
44.15967941 -132.28620911 3.24520802 28 13 16294 139.50000000 3175695045 3175695045 1.33300000
38.28034592 -167.81359863 2.00384951 28 14 16295 172.13600000 3175695047 3175695047 0.66700000
15.34457684 -45.99345398 -3.39044356 8 15 16295 48.60400000 3175695047 3175695047 -4.00000000
11.66043186 -41.65068817 -3.53089261 9 16 16296 43.39600000 3175695050 3175695050 -4.66700000
37.79395294 -97.23722839 3.03612089 28 17 16296 104.36800000 3175695050 3175695050 1.66700000
37.88379288 -135.31968689 2.45283103 28 18 16296 140.54400000 3175695052 3175695052 1.00000000
18.24009514 -46.92857361 -3.22678590 21 19 16296 50.45200000 3175695052 3175695052 -3.66700000
15.00176144 -65.87084198 -3.93438387 28 20 16297 67.67200000 3175695054 3175695054 -3.33300000
38.05200195 -136.10351562 5.75763798 28 22 16298 141.44000000 3175695057 3175695057 2.33300000
19.32840729 -58.03569031 -2.84937978 19 23 16298 61.23600000 3175695057 3175695057 -2.66700000
19.09303284 -68.33750916 -3.71857429 28 24 16299 71.05200000 3175695059 3175695059 -3.00000000
37.89237213 -113.84233093 14.73205376 28 25 16299 120.88400000 3175695059 3175695059 7.00000000
37.88953781 -135.70507812 11.50200748 28 26 16300 141.36400000 3175695061 3175695061 4.66700000
32.72591019 -84.37243652 -3.68693972 28 27 16300 90.57200000 3175695061 3175695061 -2.33300000
36.99366760 -111.27190399 -2.72858024 28 31 16301 117.29200000 3175695066 3175695066 -1.33300000
1.75823510 -6.34429073 -3.06989908 1 0 16311 7.26400000 3175695087 3175695087 -25.00000000
37.41847229 -97.02265167 -1.81512010 28 1 16311 104.00400000 3175695087 3175695087 -1.00000000
36.69950104 -132.51371765 -4.00169373 28 2 16312 137.56000000 3175695089 3175695089 -1.66700000
3.18963814 -9.65587997 -2.84671593 15 3 16312 10.56000000 3175695089 3175695089 -15.63900000
3.75277591 -13.55963802 -2.81389093 5 4 16313 14.34800000 3175695091 3175695091 -11.31000000
43.98339081 -133.22744751 0.00000000 28 5 16313 140.30000000 3175695091 3175695091 0.00000000
6.43080187 -19.47915459 -3.19138193 3 7 16313 20.76000000 3175695094 3175695094 -8.84300000
7.13014507 -25.78034782 -3.40469646 3 8 16314 26.96400000 3175695096 3175695096 -7.25400000
39.66387558 -103.00538635 0.64151901 28 9 16314 110.38000000 3175695096 3175695096 0.33300000
37.43245697 -135.43592834 -0.81666684 28 10 16315 140.51600000 3175695098 3175695098 -0.33300000
9.35333443 -28.36487961 -3.21719527 4 11 16315 30.04000000 3175695098 3175695098 -6.14800000
8.65234280 -38.58181381 -3.69099474 5 12 16316 39.71200000 3175695100 3175695100 -5.33300000
43.59133148 -132.27249146 3.24074149 28 13 16316 139.30800000 3175695100 3175695100 1.33300000
37.63570786 -167.95933533 2.00384951 28 14 16317 172.13600000 3175695103 3175695103 0.66700000
15.23027611 -46.24153137 -3.40439487 8 15 16317 48.80400000 3175695103 3175695103 -4.00000000
11.58840275 -42.01414108 -3.55790567 9 16 16318 43.72800000 3175695105 3175695105 -4.66700000
39.72788620 -103.38680267 3.22334743 28 17 16318 110.80400000 3175695105 3175695105 1.66700000
37.04802704 -134.41038513 2.43363333 28 18 16319 139.44400000 3175695107 3175695107 1.00000000
18.09307098 -47.10948181 -3.23420477 21 19 16319 50.56800000 3175695107 3175695107 -3.66700000
14.74872589 -65.92795563 -3.93438387 28 20 16319 67.67200000 3175695110 3175695110 -3.33300000
39.01523209 -118.59574127 7.27086592 42 21 16319 125.06000000 3175695110 3175695110 3.33300000
37.27121735 -135.31230164 5.71807051 28 22 16320 140.46800000 3175695112 3175695112 2.33300000
19.28638268 -58.65986633 -2.87636805 10 23 16320 61.81600000 3175695112 3175695112 -2.66700000
19.04993629 -69.20753479 -3.76190853 28 24 16321 71.88000000 3175695114 3175695114 -3.00000000
38.69433975 -117.75876617 15.21953106 28 25 16321 124.88400000 3175695114 3175695114 7.00000000
38.40440369 -139.61663818 11.82095623 28 26 16322 145.28400000 3175695117 3175695117 4.66700000
32.59917831 -85.01245117 -3.70941019 28 27 16322 91.12400000 3175695117 3175695117 -2.33300000
36.50878143 -111.23834991 -2.72429991 28 31 16323 117.10800000 3175695121 3175695121 -1.33300000
1.75552511 -6.41272163 -3.10032749 1 0 16329 7.33600000 3175695142 3175695142 -25.00000000
37.32901764 -97.70386505 -1.82566130 28 1 16329 104.60800000 3175695142 3175695142 -1.00000000
36.87805939 -134.80348206 -4.06732225 28 2 16330 139.81600000 3175695144 3175695144 -1.66700000
3.13894367 -9.60361099 -2.82838464 25 3 16330 10.49200000 3175695144 3175695144 -15.63900000
3.68843746 -13.49190807 -2.79741693 35 4 16331 14.26400000 3175695146 3175695146 -11.31000000
43.37707901 -132.79081726 0.00000000 28 5 16331 139.69600000 3175695146 3175695146 0.00000000
38.99887085 -176.20358276 -2.10098267 29 6 16332 180.48000000 3175695149 3175695149 -0.66700000
6.38089037 -19.54545975 -3.19876075 3 7 16332 20.80800000 3175695149 3175695149 -8.84300000
7.05434704 -25.82176018 -3.40722179 3 8 16332 26.98400000 3175695151 3175695151 -7.25400000
43.02674103 -112.79402161 0.70163745 28 9 16332 120.72400000 3175695151 3175695151 0.33300000
36.69075394 -134.39524841 -0.80969256 28 10 16333 139.31600000 3175695153 3175695153 -0.33300000
9.28144741 -28.44705582 -3.22319269 4 11 16333 30.09600000 3175695153 3175695153 -6.14800000
8.56460476 -38.76047134 -3.70549417 5 12 16334 39.86800000 3175695156 3175695156 -5.33300000
43.40243912 -133.10453796 3.25777006 28 13 16334 140.04000000 3175695156 3175695156 1.33300000
37.07337189 -167.92051697 2.00198698 28 14 16335 171.97600000 3175695158 3175695158 0.66700000
15.07874680 -46.27017975 -3.40299988 8 15 16335 48.78400000 3175695158 3175695158 -4.00000000
11.45949841 -42.06188202 -3.55888200 9 16 16336 43.74000000 3175695160 3175695160 -4.66700000
38.07860565 -100.03221130 3.11501431 28 17 16336 107.08000000 3175695160 3175695160 1.66700000
18.04268265 -47.39799118 -3.25032210 21 19 16336 50.82000000 3175695163 3175695163 -3.66700000
38.56088638 -118.46711731 7.25551748 42 21 16337 124.79600000 3175695165 3175695165 3.33300000
36.78403473 -135.20118713 5.70846319 28 22 16338 140.23200000 3175695167 3175695167 2.33300000
19.28741074 -59.29011536 -2.90428662 10 23 16338 62.41600000 3175695167 3175695167 -2.66700000
19.03782654 -70.02253723 -3.80293989 28 24 16339 72.66400000 3175695170 3175695170 -3.00000000
38.45308685 -118.27619171 15.27071667 28 25 16339 125.30400000 3175695170 3175695170 7.00000000
32.73075485 -86.16432190 -3.75516510 28 27 16340 92.24800000 3175695172 3175695172 -2.33300000
35.83366394 -163.11657715 -5.83198500 28 28 16341 167.10800000 3175695174 3175695174 -2.00000000
36.80998230 -113.42417908 -2.77482748 28 31 16342 119.28000000 3175695176 3175695176 -1.33300000
1.73767591 -6.44011307 -3.11047029 2 0 16350 7.36000000 3175695197 3175695197 -25.00000000
37.24633408 -98.56955719 -1.83927417 28 1 16350 105.38800000 3175695197 3175695197 -1.00000000
36.82507706 -136.57456970 -4.11665964 28 2 16351 141.51200000 3175695199 3175695199 -1.66700000
3.14513826 -9.74334908 -2.86612535 14 3 16351 10.63200000 3175695199 3175695199 -15.63900000
3.63488054 -13.49018764 -2.79427910 28 4 16352 14.24800000 3175695202 3175695202 -11.31000000
42.88763046 -132.94129944 0.00000000 28 5 16352 139.68800000 3175695202 3175695202 0.00000000
38.38423920 -176.48994446 -2.10270548 29 6 16353 180.62800000 3175695204 3175695204 -0.66700000
6.31769991 -19.59504890 -3.20306516 3 7 16353 20.83600000 3175695204 3175695204 -8.84300000
6.97203827 -25.89341927 -3.41328263 3 8 16353 27.03200000 3175695206 3175695206 -7.25400000
42.53256226 -112.73764801 0.70031238 28 9 16353 120.49600000 3175695206 3175695206 0.33300000
36.74355698 -136.55665588 -0.82189757 28 10 16354 141.41600000 3175695209 3175695209 -0.33300000
9.21127415 -28.58687210 -3.23518753 4 11 16354 30.20800000 3175695209 3175695209 -6.14800000
8.42248249 -38.79160309 -3.70549417 5 12 16355 39.86800000 3175695211 3175695211 -5.33300000
42.79171753 -132.88208008 3.24846482 28 13 16355 139.64000000 3175695211 3175695211 1.33300000
37.02071762 -170.65072632 2.03290558 28 14 16356 174.63200000 3175695213 3175695213 0.66700000
15.02519035 -46.68598175 -3.42950726 9 15 16356 49.16400000 3175695213 3175695213 -4.00000000
11.34557724 -42.25376511 -3.57157493 9 16 16357 43.89600000 3175695216 3175695216 -4.66700000
37.78637695 -100.36942291 3.12118149 28 17 16357 107.29200000 3175695216 3175695216 1.66700000
36.77702332 -136.96681213 2.47544932 28 18 16357 141.84000000 3175695218 3175695218 1.00000000
17.96166420 -47.71036530 -3.26720691 22 19 16357 51.08400000 3175695218 3175695218 -3.66700000
14.51093864 -67.00251007 -3.99252295 28 20 16358 68.67200000 3175695220 3175695220 -3.33300000
37.27832794 -115.96930695 7.09412336 42 21 16358 122.02000000 3175695220 3175695220 3.33300000
19.26551056 -59.96907806 -2.93406653 11 23 16359 63.05600000 3175695223 3175695223 -2.66700000
19.02504349 -71.00242615 -3.85234499 28 24 16360 73.60800000 3175695225 3175695225 -3.00000000
38.51207352 -119.95106506 15.46863174 28 25 16360 126.92800000 3175695225 3175695225 7.00000000
32.62415314 -86.84117126 -3.77942681 28 27 16361 92.84400000 3175695227 3175695227 -2.33300000
35.29292297 -163.51254272 -5.84147787 28 28 16362 167.38000000 3175695229 3175695229 -2.00000000
36.84122467 -114.88475037 -2.80739570 28 31 16362 120.68000000 3175695232 3175695232 -1.33300000
1.71537733 -6.44233704 -3.10877991 2 0 16369 7.35600000 3175695252 3175695252 -25.00000000
37.33123398 -99.79381561 -1.85979819 28 1 16369 106.56400000 3175695252 3175695252 -1.00000000
36.32468414 -136.51820374 -4.11130714 28 2 16370 141.32800000 3175695255 3175695255 -1.66700000
3.11046863 -9.74638653 -2.86396861 15 3 16370 10.62400000 3175695255 3175695255 -15.63900000
3.58710170 -13.49079514 -2.79192567 26 4 16371 14.23600000 3175695257 3175695257 -11.31000000
42.63251114 -133.66584778 0.00000000 28 5 16371 140.30000000 3175695257 3175695257 0.00000000
6.26932049 -19.65622139 -3.20982909 3 7 16371 20.88000000 3175695259 3175695259 -8.84300000
6.92077875 -26.04678535 -3.43045521 3 8 16372 27.16800000 3175695262 3175695262 -7.25400000
43.96382904 -117.71184540 0.73030180 28 9 16372 125.65600000 3175695262 3175695262 0.33300000
35.84399414 -134.99604797 -0.81178486 28 10 16373 139.67600000 3175695264 3175695264 -0.33300000
9.13453293 -28.67410088 -3.24161339 4 11 16373 30.26800000 3175695264 3175695264 -6.14800000
8.34788704 -39.07248306 -3.72965956 6 12 16374 40.12800000 3175695266 3175695266 -5.33300000
42.89674377 -134.73796082 3.29033852 28 13 16374 141.44000000 3175695266 3175695266 1.33300000
36.43875122 -170.69822693 2.03202081 28 14 16375 174.55600000 3175695269 3175695269 0.66700000
14.92836380 -46.91806793 -3.44290042 9 15 16375 49.35600000 3175695269 3175695269 -4.00000000
11.26461983 -42.51467133 -3.59045148 9 16 16376 44.12800000 3175695271 3175695271 -4.66700000
37.45053864 -100.48668671 3.12094879 28 17 16376 107.28400000 3175695271 3175695271 1.66700000
36.45066452 -137.57127380 2.48417544 28 18 16376 142.34000000 3175695273 3175695273 1.00000000
17.85771942 -47.91554642 -3.27718425 22 19 16376 51.24000000 3175695273 3175695273 -3.66700000
14.37189865 -67.44081116 -4.01577854 28 20 16377 69.07200000 3175695276 3175695276 -3.33300000
37.02659225 -116.51091003 7.11970472 42 21 16377 122.46000000 3175695276 3175695276 3.33300000
36.55384064 -138.15544128 5.82228088 28 22 16378 143.02800000 3175695278 3175695278 2.33300000
19.25038528 -60.61148453 -2.96235752 11 23 16378 63.66400000 3175695278 3175695278 -2.66700000
19.00492859 -71.87996674 -3.89651656 28 24 16379 74.45200000 3175695280 3175695280 -3.00000000
38.04682922 -119.86621094 15.44133282 28 25 16379 126.70400000 3175695280 3175695280 7.00000000
36.73453522 -139.03463745 11.73959160 28 26 16380 144.28400000 3175695282 3175695282 4.66700000
36.92794037 -116.55275726 -2.84498906 28 31 16382 122.29600000 3175695287 3175695287 -1.33300000
1.68827629 -6.43075323 -3.10032749 1 0 16389 7.33600000 3175695308 3175695308 -25.00000000
37.17422867 -100.44112396 -1.86943197 28 1 16389 107.11600000 3175695308 3175695308 -1.00000000
37.13647079 -141.55580139 -4.25908709 28 2 16390 146.40800000 3175695310 3175695310 -1.66700000
3.13781810 -9.95188713 -2.92111874 12 3 16390 10.83600000 3175695310 3175695310 -15.63900000
3.53899360 -13.49944019 -2.79114127 22 4 16391 14.23200000 3175695312 3175695312 -11.31000000
42.09834671 -133.60020447 0.00000000 28 5 16391 140.07600000 3175695312 3175695312 0.00000000
37.63480759 -178.74456787 -2.12654662 29 6 16391 182.67600000 3175695315 3175695315 -0.66700000
6.21135998 -19.71191216 -3.21536326 3 7 16391 20.91600000 3175695315 3175695315 -8.84300000
35.69366837 -136.34698486 -0.81915438 28 10 16393 140.94400000 3175695319 3175695319 -0.33300000
9.06542778 -28.80444336 -3.25275159 4 11 16393 30.37200000 3175695319 3175695319 -6.14800000
8.22127056 -39.14815521 -3.73412085 6 12 16394 40.17600000 3175695322 3175695322 -5.33300000
42.04821014 -133.68525696 3.26102710 28 13 16394 140.18000000 3175695322 3175695322 1.33300000
35.85828400 -170.89875793 2.03290558 28 14 16395 174.63200000 3175695324 3175695324 0.66700000
14.85424137 -47.25539017 -3.46382737 9 15 16395 49.65600000 3175695324 3175695324 -4.00000000
11.12320042 -42.58073425 -3.59272957 9 16 16396 44.15600000 3175695326 3175695326 -4.66700000
37.08156586 -100.56803131 3.11943626 28 17 16396 107.23200000 3175695326 3175695326 1.66700000
35.91260910 -137.47709656 2.48019648 28 18 16396 142.11200000 3175695329 3175695329 1.00000000
17.76354599 -48.17609024 -3.29074335 22 19 16396 51.45200000 3175695329 3175695329 -3.66700000
14.21826363 -67.88140869 -4.03903389 28 20 16397 69.47200000 3175695331 3175695331 -3.33300000
39.86478424 -126.97565460 7.75062895 42 21 16397 133.31200000 3175695331 3175695331 3.33300000
35.73341751 -136.98666382 5.76773310 28 22 16398 141.68800000 3175695333 3175695333 2.33300000
19.23487091 -61.30354691 -2.99288177 12 23 16398 64.32000000 3175695333 3175695333 -2.66700000
19.02292633 -72.97792053 -3.95241141 28 24 16399 75.52000000 3175695335 3175695335 -3.00000000
37.57472992 -119.82781219 15.41939640 28 25 16399 126.52400000 3175695335 3175695335 7.00000000
36.89833450 -117.88691711 -2.87439370 28 31 16402 123.56000000 3175695342 3175695342 -1.33300000
1.66491008 -6.43309784 -3.09863710 1 0 16409 7.33200000 3175695363 3175695363 -25.00000000
37.38443375 -102.10254669 -1.89791429 28 1 16409 108.74800000 3175695363 3175695363 -1.00000000
37.19272614 -143.81359863 -4.32308626 28 2 16410 148.60800000 3175695365 3175695365 -1.66700000
3.09046030 -9.92232513 -2.90925741 12 3 16410 10.79200000 3175695365 3175695365 -15.63900000
3.48988748 -13.50411606 -2.78957224 17 4 16411 14.22400000 3175695368 3175695368 -11.31000000
37.76327896 -121.31849670 0.00000000 28 5 16411 127.06000000 3175695368 3175695368 0.00000000
36.95067215 -178.58500671 -2.12310076 29 6 16411 182.38000000 3175695370 3175695370 -0.66700000
6.15308714 -19.76743889 -3.22089744 3 7 16411 20.95200000 3175695370 3175695370 -8.84300000
6.72884941 -26.05604744 -3.42540431 38 8 16412 27.12800000 3175695372 3175695372 -7.25400000
35.40941238 -137.21438599 -0.82361794 28 10 16413 141.71200000 3175695375 3175695375 -0.33300000
8.97427177 -28.86629486 -3.25617862 4 11 16413 30.40400000 3175695375 3175695375 -6.14800000
8.09503174 -39.22732162 -3.73895407 6 12 16414 40.22800000 3175695377 3175695377 -5.33300000
42.47356415 -136.70297241 3.33100247 28 13 16414 143.18800000 3175695377 3175695377 1.33300000
14.71759796 -47.39841080 -3.47052407 9 15 16415 49.75200000 3175695379 3175695379 -4.00000000
11.00730515 -42.74670792 -3.60346985 9 16 16416 44.28800000 3175695382 3175695382 -4.66700000
40.69131851 -111.55609894 3.45583916 28 17 16416 118.79600000 3175695382 3175695382 1.66700000
35.24800491 -136.88511658 2.46728158 28 18 16416 141.37200000 3175695384 3175695384 1.00000000
17.66366768 -48.42530823 -3.30353475 22 19 16416 51.65200000 3175695384 3175695384 -3.66700000
14.02147675 -68.12619019 -4.05066204 28 20 16417 69.67200000 3175695386 3175695386 -3.33300000
40.28240967 -129.89064026 7.91992998 42 21 16417 136.22400000 3175695386 3175695386 3.33300000
19.22303581 -62.02294922 -3.02470922 13 23 16418 65.00400000 3175695388 3175695388 -2.66700000
18.98378372 -73.88342285 -3.99783897 28 24 16419 76.38800000 3175695391 3175695391 -3.00000000
19.84806442 -54.53210831 -2.36427879 25 27 16420 58.08000000 3175695393 3175695393 -2.33300000
36.32112503 -177.09963989 -6.31317949 28 28 16421 180.89600000 3175695395 3175695395 -2.00000000
36.74174118 -118.84021759 -2.89449286 28 31 16422 124.42400000 3175695398 3175695398 -1.33300000
1.64154828 -6.43535757 -3.09694672 0 0 16429 7.32800000 3175695418 3175695418 -25.00000000
37.11769104 -102.48059845 -1.90252173 28 1 16429 109.01200000 3175695418 3175695418 -1.00000000
37.08453751 -145.48843384 -4.36951447 28 2 16430 150.20400000 3175695421 3175695421 -1.66700000
3.02295995 -9.82628536 -2.87798667 13 3 16430 10.67600000 3175695421 3175695421 -15.63900000
3.43885541 -13.50101185 -2.78643441 12 4 16431 14.20800000 3175695423 3175695423 -11.31000000
37.29607391 -121.30811310 0.00000000 28 5 16431 126.91200000 3175695423 3175695423 0.00000000
6.09566355 -19.82657623 -3.22704673 3 7 16431 20.99200000 3175695425 3175695425 -8.84300000
41.27336884 -114.14089966 0.70542681 28 9 16432 121.37600000 3175695428 3175695428 0.33300000
34.90557861 -137.24023438 -0.82303673 28 10 16433 141.61200000 3175695430 3175695430 -0.33300000
8.89096546 -28.95447159 -3.26260448 4 11 16433 30.46400000 3175695430 3175695430 -6.14800000
8.01739979 -39.54808426 -3.76683712 6 12 16434 40.52800000 3175695432 3175695432 -5.33300000
38.19443512 -188.57382202 2.23993063 28 14 16435 192.41600000 3175695434 3175695434 0.66700000
14.61874485 -47.66694260 -3.48642850 9 15 16435 49.98000000 3175695434 3175695434 -4.00000000
10.90901947 -42.98581314 -3.62039351 9 16 16436 44.49600000 3175695437 3175695437 -4.66700000
40.23381805 -111.50940704 3.45002103 28 17 16436 118.59600000 3175695437 3175695437 1.66700000
34.77980804 -137.04608154 2.46797967 28 18 16436 141.41200000 3175695439 3175695439 1.00000000
17.57581139 -48.71196365 -3.31888461 22 19 16436 51.89200000 3175695439 3175695439 -3.66700000
13.86272049 -68.56612396 -4.07391739 28 20 16437 70.07200000 3175695441 3175695441 -3.33300000
39.37265396 -128.54139709 7.82923317 42 21 16437 134.66400000 3175695441 3175695441 3.33300000
41.48070526 -163.68986511 6.87969303 28 22 16438 169.00400000 3175695444 3175695444 2.33300000
19.19939613 -62.72008133 -3.05541968 13 23 16438 65.66400000 3175695444 3175695444 -2.66700000
18.96110153 -74.87858582 -4.04808140 28 24 16439 77.34800000 3175695446 3175695446 -3.00000000
19.75912857 -54.88309097 -2.37649107 25 27 16440 58.38000000 3175695448 3175695448 -2.33300000
36.80433273 -120.53200531 -2.93255138 28 31 16442 126.06000000 3175695453 3175695453 -1.33300000
1.64267898 -6.53977919 -3.14427996 1 0 16450 7.44000000 3175695474 3175695474 -25.00000000
37.18133545 -103.84344482 -1.92527962 28 1 16450 110.31600000 3175695474 3175695474 -1.00000000
3.05742908 -10.06950188 -2.94591951 13 3 16451 10.92800000 3175695476 3175695476 -15.63900000
3.38457751 -13.49450302 -2.78251219 14 4 16452 14.18800000 3175695478 3175695478 -11.31000000
41.12891006 -135.54127502 0.00000000 28 5 16452 141.64400000 3175695478 3175695478 0.00000000
36.98539734 -185.43066406 -2.20128226 29 6 16452 189.09600000 3175695481 3175695481 -0.66700000
6.03443146 -19.88660622 -3.23319578 3 7 16452 21.03200000 3175695481 3175695481 -8.84300000
6.57984638 -26.25363922 -3.44510221 3 8 16453 27.28400000 3175695483 3175695483 -7.25400000
40.90321732 -114.42700195 0.70626378 28 9 16453 121.52000000 3175695483 3175695483 0.33300000
38.16975021 -152.41040039 -0.91316789 28 10 16454 157.12000000 3175695485 3175695485 -0.33300000
8.82169342 -29.10865784 -3.27631283 4 11 16454 30.59200000 3175695485 3175695485 -6.14800000
7.86695671 -39.54986191 -3.76423478 6 12 16455 40.50000000 3175695487 3175695487 -5.33300000
42.68007278 -140.91867065 3.42619538 28 13 16455 147.28000000 3175695487 3175695487 1.33300000
14.49133396 -47.87678909 -3.49786854 9 15 16456 50.14400000 3175695490 3175695490 -4.00000000
10.76589298 -43.08352280 -3.62527537 9 16 16457 44.55600000 3175695492 3175695492 -4.66700000
39.88125992 -111.81429291 3.45490813 28 17 16457 118.76400000 3175695492 3175695492 1.66700000
34.60887146 -138.49961853 2.49185467 28 18 16457 142.78000000 3175695494 3175695494 1.00000000
17.45347786 -48.93396759 -3.32962942 22 19 16457 52.06000000 3175695494 3175695494 -3.66700000
39.02952576 -129.10913086 7.85504675 42 21 16458 135.10800000 3175695497 3175695497 3.33300000
19.18893814 -63.51676559 -3.09078336 14 23 16459 66.42400000 3175695499 3175695499 -2.66700000
18.88946724 -75.76151276 -4.09204388 28 24 16460 78.18800000 3175695501 3175695501 -3.00000000
39.89087677 -132.12495422 16.94617653 28 25 16460 139.05200000 3175695501 3175695501 7.00000000
19.74142456 -55.47099304 -2.39879870 26 27 16461 58.92800000 3175695504 3175695504 -2.33300000
1.62446916 -6.55926609 -3.15104175 1 0 16469 7.45600000 3175695529 3175695529 -25.00000000
37.32964325 -105.35721588 -1.95103943 28 1 16469 111.79200000 3175695529 3175695529 -1.00000000
36.97946167 -149.42707825 -4.47994232 28 2 16470 154.00000000 3175695531 3175695531 -1.66700000
2.97199678 -9.90618134 -2.89523935 10 3 16470 10.74000000 3175695531 3175695531 -15.63900000
3.33886790 -13.50184441 -2.78172755 14 4 16471 14.18400000 3175695534 3175695534 -11.31000000
41.68439102 -139.02946472 0.00000000 28 5 16471 145.14400000 3175695534 3175695534 0.00000000
5.97632170 -19.94540977 -3.23934484 3 7 16472 21.07200000 3175695536 3175695536 -8.84300000
6.51749897 -26.37546921 -3.45823407 3 8 16472 27.38800000 3175695538 3175695538 -7.25400000
37.56344986 -152.12838745 -0.91072690 28 10 16473 156.70000000 3175695540 3175695540 -0.33300000
8.73652554 -29.17584991 -3.28059673 4 11 16473 30.63200000 3175695540 3175695540 -6.14800000
7.77396250 -39.77116776 -3.78282356 6 12 16474 40.70000000 3175695543 3175695543 -5.33300000
42.15406799 -140.86404419 3.42144966 28 13 16474 147.07600000 3175695543 3175695543 1.33300000
37.06867218 -189.81726074 2.25157166 28 14 16475 193.41600000 3175695545 3175695545 0.66700000
14.41252041 -48.19218826 -3.51740050 9 15 16475 50.42400000 3175695545 3175695545 -4.00000000
10.66206455 -43.27769852 -3.63861918 9 16 16476 44.72000000 3175695547 3175695547 -4.66700000
40.58813095 -114.99992371 3.54916143 28 17 16476 122.00400000 3175695547 3175695547 1.66700000
40.53915787 -164.67361450 2.96020746 28 18 16477 169.61600000 3175695550 3175695550 1.00000000
17.30646324 -49.06235504 -3.33423448 22 19 16477 52.13200000 3175695550 3175695550 -3.66700000
13.53650379 -69.44512939 -4.12042856 28 20 16477 70.87200000 3175695552 3175695552 -3.33300000
38.51545715 -128.95088196 7.83760500 42 21 16477 134.80800000 3175695552 3175695552 3.33300000
41.19520569 -167.46447754 7.02607679 28 22 16478 172.60000000 3175695554 3175695554 2.33300000
19.16905975 -64.21945190 -3.12186623 15 23 16478 67.09200000 3175695554 3175695554 -2.66700000
18.82501411 -76.58403015 -4.13307524 28 24 16479 78.97200000 3175695557 3175695557 -3.00000000
40.56925583 -136.00015259 17.42585373 28 25 16479 142.98800000 3175695557 3175695557 7.00000000
19.64631271 -55.78872681 -2.40970826 27 27 16480 59.19600000 3175695559 3175695559 -2.33300000
36.77087402 -123.42412567 -2.99675775 28 31 16481 128.82000000 3175695564 3175695564 -1.33300000
1.60213459 -6.57222033 -3.15442276 0 0 16490 7.46400000 3175695584 3175695584 -25.00000000
37.34640503 -106.64458466 -1.97233140 28 1 16490 113.01200000 3175695584 3175695584 -1.00000000
36.78638840 -151.01837158 -4.52357817 28 2 16491 155.50000000 3175695587 3175695587 -1.66700000
2.92254853 -9.87268543 -2.88229966 15 3 16491 10.69200000 3175695587 3175695587 -15.63900000
3.29770756 -13.54829121 -2.78878784 5 4 16492 14.22000000 3175695589 3175695589 -11.31000000
39.87074661 -134.77412415 0.00000000 28 5 16492 140.54800000 3175695589 3175695589 0.00000000
5.91438389 -20.00508308 -3.24549389 3 7 16493 21.11200000 3175695591 3175695591 -8.84300000
6.46298313 -26.57268143 -3.48096228 3 8 16493 27.56800000 3175695593 3175695593 -7.25400000
37.45336914 -154.10739136 -0.92174625 28 10 16494 158.59600000 3175695596 3175695596 -0.33300000
8.67122650 -29.34879303 -3.29644704 4 11 16494 30.78000000 3175695596 3175695596 -6.14800000
7.66562653 -39.99496841 -3.80141234 6 12 16495 40.90000000 3175695598 3175695598 -5.33300000
40.29558945 -136.47285461 3.31118226 28 13 16495 142.33600000 3175695598 3175695598 1.33300000
14.27305698 -48.37098312 -3.52660823 9 15 16496 50.55600000 3175695600 3175695600 -4.00000000
10.51840401 -43.37847900 -3.64382648 9 16 16497 44.78400000 3175695603 3175695603 -4.66700000
39.89340591 -164.52261353 2.95497155 28 18 16497 169.31600000 3175695605 3175695605 1.00000000
17.21661186 -49.35615158 -3.35009599 22 19 16497 52.38000000 3175695605 3175695605 -3.66700000
13.39432812 -70.08261108 -4.15531206 28 20 16498 71.47200000 3175695607 3175695607 -3.33300000
38.07981873 -129.21757507 7.84527969 42 21 16498 134.94000000 3175695607 3175695607 3.33300000
40.43161011 -166.99670410 7.00018692 28 22 16499 171.96400000 3175695610 3175695610 2.33300000
19.14351463 -65.00219727 -3.15648532 16 23 16499 67.83600000 3175695610 3175695610 -2.66700000
18.67663193 -77.19994354 -4.16259241 28 24 16500 79.53600000 3175695612 3175695612 -3.00000000
40.12656403 -136.33837891 17.45022774 28 25 16500 143.18800000 3175695612 3175695612 7.00000000
19.61248779 -56.35105896 -2.43087602 28 27 16501 59.71600000 3175695614 3175695614 -2.33300000
18.88161659 -99.16895294 -3.52526808 28 28 16502 101.01200000 3175695617 3175695617 -2.00000000
36.74002457 -124.99295807 -3.03155947 28 31 16502 130.31600000 3175695619 3175695619 -1.33300000
1.60012496 -6.65476608 -3.19161320 0 0 16508 7.55200000 3175695640 3175695640 -25.00000000
37.25222397 -107.45668030 -1.98517632 28 1 16508 113.74800000 3175695640 3175695640 -1.00000000
2.89368176 -9.88921261 -2.88445640 14 3 16509 10.70000000 3175695642 3175695642 -15.63900000
3.28809142 -13.69588661 -2.81702876 15 4 16510 14.36400000 3175695645 3175695645 -11.31000000
39.62340164 -135.50146484 0.00000000 28 5 16510 141.17600000 3175695645 3175695645 0.00000000
5.86387634 -20.05289268 -3.25041318 3 7 16510 21.14400000 3175695647 3175695647 -8.84300000
6.38409901 -26.61214638 -3.48348784 3 8 16511 27.58800000 3175695649 3175695649 -7.25400000
8.58790016 -29.40642929 -3.29987431 4 11 16512 30.81200000 3175695652 3175695652 -6.14800000
7.57312393 -40.19497299 -3.81814241 6 12 16513 41.08000000 3175695654 3175695654 -5.33300000
14.19029427 -48.65308380 -3.54390788 9 15 16514 50.80400000 3175695656 3175695656 -4.00000000
10.42194843 -43.57803726 -3.65782118 9 16 16515 44.95600000 3175695658 3175695658 -4.66700000
39.44611740 -164.93885803 2.96020746 28 18 16515 169.61600000 3175695661 3175695661 1.00000000
17.17873192 -49.74958038 -3.37312055 23 19 16515 52.74000000 3175695661 3175695661 -3.66700000
13.21095657 -70.32057190 -4.16693974 28 20 16516 71.67200000 3175695663 3175695663 -3.33300000
39.45043945 -135.43630981 8.21527576 42 21 16516 141.30400000 3175695663 3175695663 3.33300000
39.71648026 -166.32598877 6.96680689 28 22 16517 171.14400000 3175695665 3175695665 2.33300000
19.15362930 -65.79860687 -3.19222116 16 23 16517 68.60400000 3175695665 3175695665 -2.66700000
18.53784180 -77.69340515 -4.18603897 28 24 16518 79.98400000 3175695668 3175695668 -3.00000000
39.73686218 -136.59718323 17.46728897 28 25 16518 143.32800000 3175695668 3175695668 7.00000000
19.53169632 -56.69202042 -2.44292521 28 27 16519 60.01200000 3175695670 3175695670 -2.33300000
18.56776810 -99.21599579 -3.52484918 28 28 16520 101.00000000 3175695672 3175695672 -2.00000000
36.65397263 -126.16380310 -3.05714893 28 31 16520 131.41600000 3175695675 3175695675 -1.33300000
1.57155037 -6.64294672 -3.18316078 0 0 16529 7.53200000 3175695695 3175695695 -25.00000000
37.11346436 -108.33785248 -1.99892879 28 1 16529 114.53600000 3175695695 3175695695 -1.00000000
37.19065857 -157.32756042 -4.70487022 28 2 16530 161.73200000 3175695698 3175695698 -1.66700000
2.86489391 -9.92565727 -2.89200449 14 3 16530 10.72800000 3175695698 3175695698 -15.63900000
3.22254300 -13.64295197 -2.80369282 5 4 16531 14.29600000 3175695700 3175695700 -11.31000000
39.20964432 -135.93403625 0.00000000 28 5 16531 141.47600000 3175695700 3175695700 0.00000000
5.80457973 -20.12361908 -3.25840712 3 7 16531 21.19600000 3175695702 3175695702 -8.84300000
