# .PCD v0.7 - Point Cloud Data file format
VERSION 0.7
FIELDS x y z intensity laser_id azimuth distance_m adjustedtime timestamp vertical_angle
SIZE 4 4 4 1 1 2 8 8 4 8
TYPE F F F U U U F U U F
COUNT 1 1 1 1 1 1 1 1 1 1
WIDTH 523
HEIGHT 1
VIEWPOINT 0 0 0 1 0 0 0
POINTS 523
DATA ascii
20.66668510 7.74340630 -1.15662467 30 24 6806 22.10000000 3186868668 3186868668 -3.00000000
42.78858185 18.46309853 5.72200918 19 25 6806 46.95200000 3186868668 3186868668 7.00000000
42.83111191 16.03946304 3.73365283 31 26 6807 45.88800000 3186868670 3186868670 4.66700000
20.70756912 10.15798187 -0.93968683 27 27 6807 23.08400000 3186868670 3186868670 -2.33300000
20.70355225 6.61531019 -0.75899428 17 28 6808 21.74800000 3186868672 3186868672 -2.00000000
21.07656479 9.08136368 -0.53402865 4 31 6809 22.95600000 3186868674 3186868674 -1.33300000
5.48612404 2.04463220 -2.73011398 7 0 6816 6.46000000 3186868695 3186868695 -25.00000000
31.65429306 15.46619606 -0.61495298 6 1 6816 35.23600000 3186868695 3186868695 -1.00000000
20.79105377 7.74451780 -0.64569348 7 2 6817 22.19600000 3186868697 3186868697 -1.66700000
8.14824677 3.49739456 -2.48224998 4 3 6817 9.20800000 3186868697 3186868697 -15.63900000
10.78860283 4.01653242 -2.30241704 4 4 6818 11.74000000 3186868700 3186868700 -11.31000000
31.66131210 13.58313942 0.00000000 5 5 6818 34.45200000 3186868700 3186868700 0.00000000
40.38743210 12.81940746 -0.49330255 21 6 6819 42.37600000 3186868702 3186868702 -0.66700000
12.55415344 5.38331079 -2.12512827 2 7 6819 13.82400000 3186868702 3186868702 -8.84300000
14.84948349 5.52542400 -2.01675606 4 8 6819 15.97200000 3186868704 3186868704 -7.25400000
40.34368515 15.00368214 -0.25016803 16 10 6820 43.04400000 3186868707 3186868707 -0.33300000
15.90462780 6.81673241 -1.86391699 4 11 6820 17.40400000 3186868707 3186868707 -6.14800000
18.26101494 5.78922701 -1.78824389 16 12 6821 19.24000000 3186868709 3186868709 -5.33300000
40.35316467 17.28705215 1.02153099 22 13 6821 43.91200000 3186868709 3186868709 1.33300000
40.26831436 12.75839233 0.49176592 20 14 6822 42.24400000 3186868711 3186868711 0.66700000
20.13438797 8.62129116 -1.53157318 4 15 6822 21.95600000 3186868711 3186868711 -4.00000000
19.10571480 7.09396648 -1.66374075 5 16 6823 20.44800000 3186868714 3186868714 -4.66700000
40.51441956 19.73394966 1.31151760 18 17 6823 45.08400000 3186868714 3186868714 1.66700000
40.45104980 15.01950645 0.75317603 30 18 6823 43.15600000 3186868716 3186868716 1.00000000
20.48447800 9.97767353 -1.46027851 8 19 6823 22.83200000 3186868716 3186868716 -3.66700000
20.63478279 6.52988672 -1.26045394 16 20 6824 21.68000000 3186868718 3186868718 -3.33300000
39.98543167 17.10474586 2.53276825 20 21 6824 43.56400000 3186868718 3186868718 3.33300000
40.56381607 15.04526615 1.76262522 9 22 6825 43.30000000 3186868721 3186868721 2.33300000
20.67688560 8.84077358 -1.04750860 24 23 6825 22.51200000 3186868721 3186868721 -2.66700000
20.65613365 7.65733433 -1.15453124 30 24 6826 22.06000000 3186868723 3186868723 -3.00000000
43.02435684 18.38695526 5.74492073 28 25 6826 47.14000000 3186868723 3186868723 7.00000000
42.68496323 15.81506062 3.71607828 31 26 6827 45.67200000 3186868725 3186868725 4.66700000
20.70695877 10.06816101 -0.93805856 25 27 6827 23.04400000 3186868725 3186868725 -2.33300000
20.69983292 6.53457737 -0.75801706 17 28 6828 21.72000000 3186868727 3186868727 -2.00000000
49.54141617 18.34558868 9.63210773 17 30 6828 53.70000000 3186868730 3186868730 10.33300000
21.10656357 9.01142120 -0.53402865 2 31 6828 22.95600000 3186868730 3186868730 -1.33300000
5.48982620 2.02421546 -2.72842360 8 0 6836 6.45600000 3186868750 3186868750 -25.00000000
31.88806343 15.44276619 -0.61844349 6 1 6836 35.43600000 3186868750 3186868750 -1.00000000
20.84047127 7.68019199 -0.64639169 7 2 6837 22.22000000 3186868753 3186868753 -1.66700000
8.16395092 3.47043729 -2.48332834 3 3 6837 9.21200000 3186868753 3186868753 -15.63900000
10.80623722 3.98020458 -2.30320144 4 4 6838 11.74400000 3186868755 3186868755 -11.31000000
31.84842873 13.53197765 0.00000000 5 5 6838 34.60400000 3186868755 3186868755 0.00000000
40.35339737 12.66145897 -0.49237126 21 6 6838 42.29600000 3186868757 3186868757 -0.66700000
12.57193661 5.34165001 -2.12512827 2 7 6838 13.82400000 3186868757 3186868757 -8.84300000
14.87240410 5.47492647 -2.01726103 4 8 6839 15.97600000 3186868760 3186868760 -7.25400000
40.33199310 14.83928490 -0.24977280 16 10 6840 42.97600000 3186868762 3186868762 -0.33300000
15.92466545 6.75961924 -1.86348867 2 11 6840 17.40000000 3186868762 3186868762 -6.14800000
18.28111076 5.72544909 -1.78824389 6 12 6841 19.24000000 3186868764 3186868764 -5.33300000
40.34700012 17.11797523 1.01985610 14 13 6841 43.84000000 3186868764 3186868764 1.33300000
40.27825165 12.60699940 0.49134684 20 14 6842 42.20800000 3186868767 3186868767 0.66700000
20.17170525 8.55407238 -1.53213120 6 15 6842 21.96400000 3186868767 3186868767 -4.00000000
19.13410187 7.02860641 -1.66406620 5 16 6843 20.45200000 3186868769 3186868769 -4.66700000
40.52544785 19.56459427 1.30965579 18 17 6843 45.02000000 3186868769 3186868769 1.66700000
40.35306549 14.82305336 0.75038368 30 18 6843 42.99600000 3186868771 3186868771 1.00000000
20.52277565 9.90784454 -1.46053433 8 19 6843 22.83600000 3186868771 3186868771 -3.66700000
20.63458252 6.45066929 -1.25905859 13 20 6844 21.65600000 3186868774 3186868774 -3.33300000
39.90149689 16.90431595 2.52369857 20 21 6844 43.40800000 3186868774 3186868774 3.33300000
40.58231735 14.89118958 1.76115978 18 22 6845 43.26400000 3186868776 3186868776 2.33300000
20.68186378 8.75763798 -1.04620576 24 23 6845 22.48400000 3186868776 3186868776 -2.66700000
20.65648651 7.57555676 -1.15306580 30 24 6846 22.03200000 3186868778 3186868778 -3.00000000
43.43196106 18.38212013 5.79074383 29 25 6846 47.51600000 3186868778 3186868778 7.00000000
41.96506500 15.38195324 3.64870834 30 26 6847 44.84400000 3186868780 3186868780 4.66700000
20.70597267 9.97846794 -0.93643028 27 27 6847 23.00400000 3186868780 3186868780 -2.33300000
20.70725250 6.45752096 -0.75745869 17 28 6848 21.70400000 3186868783 3186868783 -2.00000000
49.35335159 18.07052994 9.58260250 17 30 6849 53.42400000 3186868785 3186868785 10.33300000
33.35752869 14.09763336 -0.84268397 4 31 6849 36.22400000 3186868785 3186868785 -1.33300000
5.49345303 2.00379777 -2.72673297 7 0 6856 6.45200000 3186868806 3186868806 -25.00000000
31.61366653 15.17387772 -0.61209083 6 1 6856 35.07200000 3186868806 3186868806 -1.00000000
20.88593483 7.61424541 -0.64697349 5 2 6857 22.24000000 3186868808 3186868808 -1.66700000
8.16891479 3.43892956 -2.48117161 3 3 6857 9.20400000 3186868808 3186868808 -15.63900000
10.82006550 3.94245958 -2.30320144 4 4 6858 11.74400000 3186868810 3186868810 -11.31000000
31.84753990 13.40055656 0.00000000 5 5 6858 34.55200000 3186868810 3186868810 0.00000000
40.36296463 12.50986576 -0.49195218 21 6 6858 42.26000000 3186868813 3186868813 -0.66700000
12.59050560 5.29773331 -2.12512827 2 7 6858 13.82400000 3186868813 3186868813 -8.84300000
14.89142513 5.42297888 -2.01726103 4 8 6859 15.97600000 3186868815 3186868815 -7.25400000
40.33844376 14.68199253 -0.24949384 16 10 6860 42.92800000 3186868817 3186868817 -0.33300000
15.95182991 6.70553160 -1.86391699 2 11 6860 17.40400000 3186868817 3186868817 -6.14800000
18.31620407 5.66630936 -1.78973103 4 12 6861 19.25600000 3186868820 3186868820 -5.33300000
40.34383392 16.95070076 1.01827419 14 13 6861 43.77200000 3186868820 3186868820 1.33300000
40.27233505 12.45096684 0.49074149 20 14 6862 42.15600000 3186868822 3186868822 0.66700000
20.19776344 8.48206329 -1.53185213 6 15 6862 21.96000000 3186868822 3186868822 -4.00000000
19.16226768 6.96313477 -1.66439164 5 16 6863 20.45600000 3186868824 3186868824 -4.66700000
40.55381775 19.40403366 1.30837584 9 17 6863 44.97600000 3186868824 3186868824 1.66700000
40.28803635 14.63976192 0.74821955 20 18 6863 42.87200000 3186868827 3186868827 1.00000000
20.54643440 9.83097744 -1.45976686 8 19 6863 22.82400000 3186868827 3186868827 -3.66700000
20.63789558 6.37271070 -1.25789583 13 20 6864 21.63600000 3186868829 3186868829 -3.33300000
40.02286148 16.79119301 2.52765203 20 21 6864 43.47600000 3186868829 3186868829 3.33300000
40.37858582 14.65671062 1.75008738 18 22 6865 42.99200000 3186868831 3186868831 2.33300000
20.67914391 8.67148495 -1.04453063 26 23 6865 22.44800000 3186868831 3186868831 -2.66700000
20.65651894 7.49387026 -1.15160036 30 24 6866 22.00400000 3186868833 3186868833 -3.00000000
42.56582260 17.84059525 5.66692448 19 25 6866 46.50000000 3186868833 3186868833 7.00000000
42.09346390 15.26255417 3.65521765 30 26 6867 44.92400000 3186868836 3186868836 4.66700000
20.71182632 9.89234924 -0.93512768 27 27 6867 22.97200000 3186868836 3186868836 -2.33300000
20.70292473 6.37696266 -0.75648147 17 28 6868 21.67600000 3186868838 3186868838 -2.00000000
49.57892609 17.95710945 9.61417103 17 30 6869 53.60000000 3186868840 3186868840 10.33300000
33.42129135 13.98728371 -0.84305620 4 31 6869 36.24000000 3186868840 3186868840 -1.33300000
5.50347757 1.98680067 -2.72842360 7 0 6875 6.45600000 3186868861 3186868861 -25.00000000
31.81187439 15.13942337 -0.61495298 6 1 6875 35.23600000 3186868861 3186868861 -1.00000000
20.92611313 7.55037165 -0.64743894 5 2 6876 22.25600000 3186868863 3186868863 -1.66700000
8.17316341 3.40885615 -2.47901511 3 3 6876 9.19600000 3186868863 3186868863 -15.63900000
10.82938957 3.90522671 -2.30241704 4 4 6877 11.74000000 3186868866 3186868866 -11.31000000
40.42334747 12.38180542 -0.49218500 21 6 6877 42.28000000 3186868868 3186868868 -0.66700000
12.61165237 5.25747347 -2.12574315 2 7 6877 13.82800000 3186868868 3186868868 -8.84300000
14.91305923 5.37491274 -2.01776624 4 8 6878 15.98000000 3186868870 3186868870 -7.25400000
40.33045959 14.52781105 -0.24914512 16 10 6879 42.86800000 3186868873 3186868873 -0.33300000
15.97030735 6.65106773 -1.86348867 2 11 6879 17.40000000 3186868873 3186868873 -6.14800000
18.35393715 5.61136150 -1.79158986 4 12 6880 19.27600000 3186868875 3186868875 -5.33300000
40.34444427 16.79377174 1.01687837 14 13 6880 43.71200000 3186868875 3186868875 1.33300000
40.34017944 12.32553196 0.49106744 10 14 6881 42.18400000 3186868877 3186868877 0.66700000
20.22209549 8.41350555 -1.53157318 6 15 6881 21.95600000 3186868877 3186868877 -4.00000000
19.17774963 6.89685345 -1.66374075 5 16 6882 20.44800000 3186868880 3186868880 -4.66700000
40.54930496 19.23688316 1.30616498 18 17 6882 44.90000000 3186868880 3186868880 1.66700000
40.29120255 14.48983955 0.74738187 20 18 6882 42.82400000 3186868882 3186868882 1.00000000
20.58252716 9.76449966 -1.46002269 8 19 6882 22.82800000 3186868882 3186868882 -3.66700000
20.62454033 6.29374838 -1.25580287 10 20 6883 21.60000000 3186868884 3186868884 -3.33300000
39.91238785 16.58941078 2.51718712 20 21 6883 43.29600000 3186868884 3186868884 3.33300000
40.53604507 14.56191444 1.75480950 18 22 6884 43.10800000 3186868886 3186868886 2.33300000
20.67826653 8.59059906 -1.04304171 26 23 6884 22.41600000 3186868886 3186868886 -2.66700000
20.65869713 7.41723061 -1.15034437 30 24 6885 21.98000000 3186868889 3186868889 -3.00000000
42.21775055 17.53034401 5.61281443 28 25 6885 46.05600000 3186868889 3186868889 7.00000000
42.21889114 15.14981365 3.66172671 20 26 6886 45.00400000 3186868891 3186868891 4.66700000
20.70478249 9.80479622 -0.93333656 27 27 6886 22.92800000 3186868891 3186868891 -2.33300000
20.69336319 6.29896116 -0.75536472 17 28 6887 21.64400000 3186868893 3186868893 -2.00000000
49.49743652 17.74214363 9.58690739 17 30 6888 53.44800000 3186868896 3186868896 10.33300000
33.44163513 13.86565685 -0.84240484 4 31 6888 36.21200000 3186868896 3186868896 -1.33300000
5.51379347 1.96879697 -2.73011398 6 0 6895 6.46000000 3186868916 3186868916 -25.00000000
31.88984871 15.04022884 -0.61544168 6 1 6895 35.26400000 3186868916 3186868916 -1.00000000
20.95234299 7.47727966 -0.64743894 5 2 6896 22.25600000 3186868919 3186868919 -1.66700000
8.19213295 3.38324642 -2.48117161 3 3 6896 9.20400000 3186868919 3186868919 -15.63900000
10.84665012 3.86871886 -2.30320144 4 4 6897 11.74400000 3186868921 3186868921 -11.31000000
40.48546600 12.24641609 -0.49241781 10 6 6897 42.30000000 3186868923 3186868923 -0.66700000
12.62992764 5.21341848 -2.12574315 2 7 6897 13.82800000 3186868923 3186868923 -8.84300000
14.92799282 5.32149124 -2.01726103 2 8 6898 15.97600000 3186868926 3186868926 -7.25400000
40.31687164 14.36412144 -0.24874991 16 10 6899 42.80000000 3186868928 3186868928 -0.33300000
15.99342632 6.59528065 -1.86348867 2 11 6899 17.40000000 3186868928 3186868928 -6.14800000
18.37722588 5.54841137 -1.79196167 4 12 6900 19.28000000 3186868930 3186868930 -5.33300000
40.33626938 16.62541008 1.01520348 14 13 6900 43.64000000 3186868930 3186868930 1.33300000
40.52463913 12.22739220 0.49279034 31 14 6901 42.33200000 3186868932 3186868932 0.66700000
20.25134087 8.34286594 -1.53157318 6 15 6901 21.95600000 3186868932 3186868932 -4.00000000
19.20546341 6.83120489 -1.66406620 5 16 6902 20.45200000 3186868935 3186868935 -4.66700000
40.56555176 19.07140732 1.30453587 9 17 6902 44.84400000 3186868935 3186868935 1.66700000
40.28878021 14.33034515 0.74640453 20 18 6902 42.76800000 3186868937 3186868937 1.00000000
20.59842491 9.68410206 -1.45874357 11 19 6902 22.80800000 3186868937 3186868937 -3.66700000
20.62344360 6.21480417 -1.25440753 10 20 6903 21.57600000 3186868939 3186868939 -3.33300000
39.93682098 16.43631172 2.51509404 20 21 6903 43.26000000 3186868939 3186868939 3.33300000
40.56403351 14.41230011 1.75383246 18 22 6904 43.08400000 3186868942 3186868942 2.33300000
20.67856598 8.50620556 -1.04155266 22 23 6904 22.38400000 3186868942 3186868942 -2.66700000
20.66564178 7.33838940 -1.14929760 30 24 6905 21.96000000 3186868944 3186868944 -3.00000000
42.26399994 17.37683105 5.61086464 18 25 6905 46.04000000 3186868944 3186868944 7.00000000
42.41053391 15.05168629 3.67376876 20 26 6906 45.15200000 3186868946 3186868946 4.66700000
20.70631981 9.71718216 -0.93187106 25 27 6906 22.89200000 3186868946 3186868946 -2.33300000
20.68842506 6.21863413 -0.75438750 17 28 6907 21.61600000 3186868949 3186868949 -2.00000000
49.56277466 17.57057190 9.58762455 17 30 6908 53.45200000 3186868951 3186868951 10.33300000
34.81048203 14.29101658 -0.87562460 4 31 6908 37.64000000 3186868951 3186868951 -1.33300000
5.52097225 1.94857466 -2.73011398 7 0 6916 6.46000000 3186868972 3186868972 -25.00000000
31.68024445 14.79967499 -0.61034554 6 1 6916 34.97200000 3186868972 3186868972 -1.00000000
20.98714828 7.40309572 -0.64767164 2 2 6917 22.26400000 3186868974 3186868974 -1.66700000
8.20804405 3.35465527 -2.48224998 3 3 6917 9.20800000 3186868974 3186868974 -15.63900000
10.86445618 3.83024216 -2.30398583 2 4 6918 11.74800000 3186868976 3186868976 -11.31000000
32.42677307 13.24632740 0.00000000 15 5 6918 35.02800000 3186868976 3186868976 0.00000000
40.68721390 12.14485168 -0.49432695 10 6 6918 42.46400000 3186868979 3186868979 -0.66700000
12.65260983 5.16858721 -2.12635803 1 7 6918 13.83200000 3186868979 3186868979 -8.84300000
14.94365406 5.26542330 -2.01675606 4 8 6919 15.97200000 3186868981 3186868981 -7.25400000
40.33152008 14.20297050 -0.24851742 16 10 6920 42.76000000 3186868983 3186868983 -0.33300000
16.01749229 6.53661728 -1.86348867 4 11 6920 17.40000000 3186868983 3186868983 -6.14800000
18.45469093 5.49807549 -1.79753828 4 12 6921 19.34000000 3186868985 3186868985 -5.33300000
40.33769226 16.45329475 1.01371455 14 13 6921 43.57600000 3186868985 3186868985 1.33300000
40.53467941 12.06850815 0.49237126 31 14 6922 42.29600000 3186868988 3186868988 0.66700000
20.27439308 8.26557159 -1.53101504 6 15 6922 21.94800000 3186868988 3186868988 -4.00000000
19.23037148 6.76076746 -1.66406620 5 16 6923 20.45200000 3186868990 3186868990 -4.66700000
40.68954849 18.94791603 1.30628133 18 17 6923 44.90400000 3186868990 3186868990 1.66700000
40.24670792 14.14942169 0.74465930 19 18 6923 42.66800000 3186868992 3186868992 1.00000000
20.60483170 9.59505939 -1.45669687 8 19 6923 22.77600000 3186868992 3186868992 -3.66700000
20.62694550 6.13348293 -1.25324476 20 20 6924 21.55600000 3186868995 3186868995 -3.33300000
39.91912842 16.25819397 2.51021028 20 21 6924 43.17600000 3186868995 3186868995 3.33300000
40.58641815 14.25293446 1.75252986 9 22 6925 43.05200000 3186868997 3186868997 2.33300000
20.67999840 8.41830635 -1.04006362 24 23 6925 22.35200000 3186868997 3186868997 -2.66700000
20.65847778 7.25069094 -1.14741349 30 24 6926 21.92400000 3186868999 3186868999 -3.00000000
43.70644760 17.78290176 5.79366875 9 25 6926 47.54000000 3186868999 3186868999 7.00000000
42.64975357 14.96080589 3.68971610 31 26 6927 45.34800000 3186869002 3186869002 4.66700000
20.71280098 9.62774754 -0.93056846 25 27 6927 22.86000000 3186869002 3186869002 -2.33300000
20.68808365 6.13594532 -0.75354993 15 28 6928 21.59200000 3186869004 3186869004 -2.00000000
49.56067657 17.37532616 9.57542706 17 30 6928 53.38400000 3186869006 3186869006 10.33300000
34.87497330 14.17544174 -0.87599683 4 31 6928 37.65600000 3186869006 3186869006 -1.33300000
5.52398109 1.92906058 -2.72842360 6 0 6935 6.45600000 3186869027 3186869027 -25.00000000
31.70374298 14.68277359 -0.60985690 6 1 6935 34.94400000 3186869027 3186869027 -1.00000000
21.05688286 7.34926939 -0.64906800 2 2 6936 22.31200000 3186869029 3186869029 -1.66700000
8.22269344 3.32886338 -2.48332834 4 3 6936 9.21200000 3186869029 3186869029 -15.63900000
10.87709713 3.79419327 -2.30398583 4 4 6937 11.74800000 3186869032 3186869032 -11.31000000
32.52614212 13.16122818 0.00000000 42 5 6937 35.08800000 3186869032 3186869032 0.00000000
40.72936249 12.00275326 -0.49432695 10 6 6938 42.46400000 3186869034 3186869034 -0.66700000
12.67057419 5.12439013 -2.12635803 1 7 6938 13.83200000 3186869034 3186869034 -8.84300000
14.96103287 5.21583939 -2.01675606 2 8 6938 15.97200000 3186869036 3186869036 -7.25400000
40.32929230 14.05203819 -0.24821521 16 10 6939 42.70800000 3186869038 3186869038 -0.33300000
16.04276657 6.48495579 -1.86391699 2 11 6939 17.40400000 3186869038 3186869038 -6.14800000
18.46135902 5.43347359 -1.79642296 4 12 6940 19.32800000 3186869041 3186869041 -5.33300000
40.34012222 16.29846764 1.01241183 14 13 6940 43.52000000 3186869041 3186869041 1.33300000
40.49389648 11.91032219 0.49139342 20 14 6941 42.21200000 3186869043 3186869043 0.66700000
20.31279182 8.20277691 -1.53185213 6 15 6941 21.96000000 3186869043 3186869043 -4.00000000
19.25645065 6.69826984 -1.66439164 5 16 6942 20.45600000 3186869045 3186869045 -4.66700000
40.71585464 18.79612350 1.30511773 18 17 6942 44.86400000 3186869045 3186869045 1.66700000
40.27696609 14.00228119 0.74431020 19 18 6943 42.64800000 3186869048 3186869048 1.00000000
20.60920143 9.50969601 -1.45465028 11 19 6943 22.74400000 3186869048 3186869048 -3.66700000
20.61652184 6.05604410 -1.25138426 19 20 6943 21.52400000 3186869050 3186869050 -3.33300000
40.07281113 16.16606522 2.51648927 13 21 6943 43.28400000 3186869050 3186869050 3.33300000
40.51264954 14.07629108 1.74731934 18 22 6944 42.92400000 3186869052 3186869052 2.33300000
20.66703606 8.33324623 -1.03801632 24 23 6944 22.30800000 3186869052 3186869052 -2.66700000
20.65599442 7.17297268 -1.14594805 30 24 6945 21.89600000 3186869055 3186869055 -3.00000000
43.72098541 17.62005997 5.78781891 29 25 6945 47.49200000 3186869055 3186869055 7.00000000
42.70289612 14.82059860 3.69004154 31 26 6946 45.35200000 3186869057 3186869057 4.66700000
20.70468521 9.54060936 -0.92877734 25 27 6946 22.81600000 3186869057 3186869057 -2.33300000
20.68529892 6.06056356 -0.75271237 16 28 6947 21.56800000 3186869059 3186869059 -2.00000000
49.64776611 17.22119904 9.58116722 17 30 6947 53.41600000 3186869062 3186869062 10.33300000
35.07388306 14.12094688 -0.87981194 4 31 6947 37.82000000 3186869062 3186869062 -1.33300000
5.52758741 1.90761852 -2.72673297 8 0 6956 6.45200000 3186869082 3186869082 -25.00000000
31.84095573 14.60482502 -0.61146253 6 1 6956 35.03600000 3186869082 3186869082 -1.00000000
34.42634201 11.87410641 -1.05982637 7 2 6957 36.43200000 3186869085 3186869085 -1.66700000
8.22768784 3.29583859 -2.48117161 3 3 6957 9.20400000 3186869085 3186869085 -15.63900000
10.88351440 3.75174451 -2.30241704 4 4 6958 11.74000000 3186869087 3186869087 -11.31000000
40.61561203 11.80761337 -0.49241781 31 6 6959 42.30000000 3186869089 3186869089 -0.66700000
12.69661045 5.08085251 -2.12758780 1 7 6959 13.84000000 3186869089 3186869089 -8.84300000
14.98755264 5.16355419 -2.01776624 4 8 6959 15.98000000 3186869091 3186869091 -7.25400000
40.32757568 13.88589859 -0.24788974 16 10 6960 42.65200000 3186869094 3186869094 -0.33300000
16.06642723 6.42611265 -1.86391699 2 11 6960 17.40400000 3186869094 3186869094 -6.14800000
18.48880005 5.36799383 -1.79716647 4 12 6961 19.33600000 3186869096 3186869096 -5.33300000
40.34017563 16.12675285 1.01092303 14 13 6961 43.45600000 3186869096 3186869096 1.33300000
40.46429443 11.74064827 0.49050868 20 14 6962 42.13600000 3186869098 3186869098 0.66700000
20.33530807 8.12530994 -1.53129411 6 15 6962 21.95200000 3186869098 3186869098 -4.00000000
19.28464317 6.62894249 -1.66471708 5 16 6963 20.46000000 3186869101 3186869101 -4.66700000
40.60266113 18.56363869 1.29929960 18 17 6963 44.66400000 3186869101 3186869101 1.66700000
40.28021240 13.84600258 0.74347252 19 18 6963 42.60000000 3186869103 3186869103 1.00000000
20.60959816 9.42276096 -1.45234776 13 19 6963 22.70800000 3186869103 3186869103 -3.66700000
20.61940193 5.97488308 -1.25022149 19 20 6964 21.50400000 3186869105 3186869105 -3.33300000
40.20596695 16.04868889 2.52114058 13 21 6964 43.36400000 3186869105 3186869105 3.33300000
40.53372955 13.91732788 1.74601662 18 22 6965 42.89200000 3186869108 3186869108 2.33300000
20.66403961 8.24411583 -1.03634119 22 23 6965 22.27200000 3186869108 3186869108 -2.66700000
20.65192032 7.08684397 -1.14427340 25 24 6966 21.86400000 3186869110 3186869110 -3.00000000
43.63038635 17.39793205 5.76734495 19 25 6966 47.32400000 3186869110 3186869110 7.00000000
42.73430252 14.65622520 3.68808889 31 26 6967 45.32800000 3186869112 3186869112 4.66700000
20.70679092 9.44972515 -0.92731184 27 27 6967 22.78000000 3186869112 3186869112 -2.33300000
20.68817139 5.97915792 -0.75201434 16 28 6968 21.54800000 3186869115 3186869115 -2.00000000
49.67704773 17.02762985 9.57470989 17 30 6968 53.38000000 3186869117 3186869117 10.33300000
35.44489288 14.11956978 -0.88781446 5 31 6968 38.16400000 3186869117 3186869117 -1.33300000
5.54450560 1.89182413 -2.73180437 7 0 6976 6.46400000 3186869138 3186869138 -25.00000000
31.76794815 14.43733025 -0.60908896 12 1 6976 34.90000000 3186869138 3186869138 -1.00000000
34.54326630 11.77967358 -1.06215358 7 2 6977 36.51200000 3186869140 3186869140 -1.66700000
8.23556232 3.26567864 -2.48009324 2 3 6977 9.20000000 3186869140 3186869140 -15.63900000
10.91882038 3.72132301 -2.30712390 4 4 6978 11.76400000 3186869143 3186869143 -11.31000000
40.39134216 16.00837517 0.00000000 22 5 6978 43.44800000 3186869143 3186869143 0.00000000
40.52383423 11.63533211 -0.49083462 21 6 6978 42.16400000 3186869145 3186869145 -0.66700000
12.70236588 5.03435230 -2.12574315 1 7 6978 13.82800000 3186869145 3186869145 -8.84300000
15.00924110 5.11248589 -2.01827121 4 8 6979 15.98400000 3186869147 3186869147 -7.25400000
40.32657623 13.72828674 -0.24758752 16 10 6980 42.60000000 3186869150 3186869150 -0.33300000
16.08136559 6.36706305 -1.86306024 2 11 6980 17.39600000 3186869150 3186869150 -6.14800000
18.51125336 5.30452013 -1.79753828 4 12 6981 19.34000000 3186869152 3186869152 -5.33300000
40.32557297 15.95788383 1.00915504 14 13 6981 43.38000000 3186869152 3186869152 1.33300000
40.46657944 11.58831882 0.49004304 20 14 6982 42.09600000 3186869154 3186869154 0.66700000
20.35612679 8.05134201 -1.53073609 6 15 6982 21.94400000 3186869154 3186869154 -4.00000000
19.30389023 6.56030321 -1.66439164 5 16 6983 20.45600000 3186869156 3186869156 -4.66700000
40.49239349 18.34260559 1.29371428 26 17 6983 44.47200000 3186869156 3186869156 1.66700000
40.27528381 13.68729782 0.74249518 19 18 6983 42.54400000 3186869159 3186869159 1.00000000
20.60236740 9.33264351 -1.44953370 8 19 6983 22.66400000 3186869159 3186869159 -3.66700000
20.62477493 5.89847946 -1.24929130 16 20 6984 21.48800000 3186869161 3186869161 -3.33300000
40.26545715 15.90971470 2.52137303 6 21 6984 43.36800000 3186869161 3186869161 3.33300000
40.55556870 13.76676083 1.74487686 18 22 6985 42.86400000 3186869163 3186869163 2.33300000
20.66667747 8.16166115 -1.03503835 24 23 6985 22.24400000 3186869163 3186869163 -2.66700000
20.64248657 7.00316238 -1.14238930 25 24 6986 21.82800000 3186869166 3186869166 -3.00000000
44.18200684 17.43939590 5.83217907 9 25 6986 47.85600000 3186869166 3186869166 7.00000000
42.72101593 14.48520279 3.68255615 31 26 6987 45.26000000 3186869168 3186869168 4.66700000
20.69959068 9.35927486 -0.92552072 26 27 6987 22.73600000 3186869168 3186869168 -2.33300000
20.69354057 5.90252018 -0.75145596 16 28 6988 21.53200000 3186869170 3186869170 -2.00000000
49.69145966 16.83896637 9.56610012 17 30 6988 53.33200000 3186869173 3186869173 10.33300000
35.51256561 14.00309277 -0.88827974 5 31 6988 38.18400000 3186869173 3186869173 -1.33300000
5.55107546 1.87245858 -2.73180437 6 0 6996 6.46400000 3186869193 3186869193 -25.00000000
31.83273697 14.33292007 -0.60936821 6 1 6996 34.91600000 3186869193 3186869193 -1.00000000
34.65995026 11.68456936 -1.06448078 7 2 6997 36.59200000 3186869196 3186869196 -1.66700000
8.24691105 3.23691130 -2.48009324 2 3 6997 9.20000000 3186869196 3186869196 -15.63900000
10.95404530 3.69070077 -2.31183052 4 4 6998 11.78800000 3186869198 3186869198 -11.31000000
40.37622452 15.83953094 0.00000000 22 5 6998 43.37200000 3186869198 3186869198 0.00000000
40.51417542 11.47963142 -0.49022931 21 6 6998 42.11200000 3186869200 3186869200 -0.66700000
12.73089981 4.99431229 -2.12758780 2 7 6998 13.84000000 3186869200 3186869200 -8.84300000
15.02699566 5.06006289 -2.01827121 2 8 6999 15.98400000 3186869203 3186869203 -7.25400000
40.32497025 13.57085133 -0.24728531 16 10 7000 42.54800000 3186869205 3186869205 -0.33300000
16.11089897 6.31379223 -1.86391699 2 11 7000 17.40400000 3186869205 3186869205 -6.14800000
18.52582550 5.23878813 -1.79716647 4 12 7001 19.33600000 3186869207 3186869207 -5.33300000
40.31773376 15.79222965 1.00757313 14 13 7001 43.31200000 3186869207 3186869207 1.33300000
40.47983932 11.43937969 0.48971710 20 14 7002 42.06800000 3186869209 3186869209 0.66700000
20.38782310 7.98169184 -1.53101504 6 15 7002 21.94800000 3186869209 3186869209 -4.00000000
19.32289314 6.49161053 -1.66406620 5 16 7003 20.45200000 3186869212 3186869212 -4.66700000
40.31177139 18.09146500 1.28591800 17 17 7003 44.20400000 3186869212 3186869212 1.66700000
40.28111267 13.53261662 0.74172729 19 18 7003 42.50000000 3186869214 3186869214 1.00000000
20.60932541 9.24923038 -1.44774282 8 19 7003 22.63600000 3186869214 3186869214 -3.66700000
20.62986755 5.82211113 -1.24836111 16 20 7004 21.47200000 3186869216 3186869216 -3.33300000
40.16827011 15.70943260 2.51183820 20 21 7004 43.20400000 3186869216 3186869216 3.33300000
40.58822250 13.62002563 1.74422550 18 22 7005 42.84800000 3186869219 3186869219 2.33300000
20.67643356 8.08219814 -1.03410769 24 23 7005 22.22400000 3186869219 3186869219 -2.66700000
20.64408302 6.92344332 -1.14113319 25 24 7006 21.80400000 3186869221 3186869221 -3.00000000
44.16125870 17.25328255 5.82145500 9 25 7006 47.76800000 3186869221 3186869221 7.00000000
42.80155945 14.34612560 3.68515968 31 26 7007 45.29200000 3186869223 3186869223 4.66700000
20.69930840 9.27225780 -0.92405528 26 27 7007 22.70000000 3186869223 3186869223 -2.33300000
20.69092941 5.82375193 -0.75061840 16 28 7008 21.50800000 3186869226 3186869226 -2.00000000
49.62680054 16.62416077 9.54242325 17 30 7008 53.20000000 3186869228 3186869228 10.33300000
35.61338043 13.89939976 -0.88958246 5 31 7008 38.24000000 3186869228 3186869228 -1.33300000
5.55037642 1.85174572 -2.72842360 7 0 7015 6.45600000 3186869249 3186869249 -25.00000000
31.83261299 14.20609093 -0.60846072 12 1 7015 34.86400000 3186869249 3186869249 -1.00000000
34.55816650 11.52277374 -1.06017542 21 2 7016 36.44400000 3186869251 3186869251 -1.66700000
8.26837063 3.21373224 -2.48332834 2 3 7016 9.21200000 3186869251 3186869251 -15.63900000
10.95878124 3.65187550 -2.31026173 2 4 7017 11.78000000 3186869253 3186869253 -11.31000000
40.36141586 15.67947960 0.00000000 22 5 7017 43.30000000 3186869253 3186869253 0.00000000
40.50194550 11.33120918 -0.48962396 21 6 7017 42.06000000 3186869256 3186869256 -0.66700000
12.75475979 4.95493031 -2.12881780 1 7 7017 13.84800000 3186869256 3186869256 -8.84300000
15.05498695 5.01396513 -2.01978660 2 8 7018 15.99600000 3186869258 3186869258 -7.25400000
40.31661606 13.41936874 -0.24695984 16 10 7019 42.49200000 3186869260 3186869260 -0.33300000
16.12433243 6.25745392 -1.86306024 2 11 7019 17.39600000 3186869260 3186869260 -6.14800000
18.55460358 5.18053818 -1.79828179 6 12 7020 19.34800000 3186869262 3186869262 -5.33300000
40.32141113 15.63964558 1.00636339 14 13 7020 43.26000000 3186869262 3186869262 1.33300000
40.48287964 11.29540634 0.48929802 20 14 7021 42.03200000 3186869265 3186869265 0.66700000
20.41789818 7.91548157 -1.53129411 6 15 7021 21.95200000 3186869265 3186869265 -4.00000000
19.35188103 6.43001175 -1.66471708 5 16 7022 20.46000000 3186869267 3186869267 -4.66700000
40.29848099 17.92518616 1.28359067 17 17 7022 44.12400000 3186869267 3186869267 1.66700000
40.27117157 13.37302113 0.74068016 19 18 7023 42.44000000 3186869269 3186869269 1.00000000
20.60865784 9.16263866 -1.44544041 8 19 7023 22.60000000 3186869269 3186869269 -3.66700000
20.62213326 5.74616528 -1.24673319 16 20 7023 21.44400000 3186869272 3186869272 -3.33300000
40.24993515 15.58767986 2.51369882 13 21 7023 43.23600000 3186869272 3186869272 3.33300000
40.51936722 13.44758797 1.73934066 18 22 7024 42.72800000 3186869274 3186869274 2.33300000
20.68076324 8.00493431 -1.03299093 24 23 7024 22.20000000 3186869274 3186869274 -2.66700000
20.65176201 6.84991646 -1.14029586 29 24 7025 21.78800000 3186869276 3186869276 -3.00000000
42.54237366 14.10250187 3.65879774 51 26 7026 44.96800000 3186869279 3186869279 4.66700000
20.69706726 9.18896961 -0.92258978 26 27 7026 22.66400000 3186869279 3186869279 -2.33300000
20.68701744 5.74868441 -0.74978077 14 28 7027 21.48400000 3186869281 3186869281 -2.00000000
49.66671371 16.45454979 9.53955364 17 30 7027 53.18400000 3186869283 3186869283 10.33300000
35.83459091 13.84897804 -0.89395595 5 31 7027 38.42800000 3186869283 3186869283 -1.33300000
5.56056929 1.83252478 -2.73011398 7 0 7036 6.46000000 3186869304 3186869304 -25.00000000
31.86617661 14.08124065 -0.60811168 12 1 7036 34.84400000 3186869304 3186869304 -1.00000000
34.50522614 11.36476421 -1.05726635 14 2 7037 36.34400000 3186869306 3186869306 -1.66700000
8.26211739 3.17649412 -2.47793674 2 3 7037 9.19200000 3186869306 3186869306 -15.63900000
10.90875626 3.59083652 -2.29692578 6 4 7038 11.71200000 3186869308 3186869308 -11.31000000
40.30286407 15.48696423 0.00000000 22 5 7038 43.17600000 3186869308 3186869308 0.00000000
40.49117279 11.16073036 -0.48897207 10 6 7039 42.00400000 3186869311 3186869311 -0.66700000
12.76631260 4.90308475 -2.12758780 1 7 7039 13.84000000 3186869311 3186869311 -8.84300000
15.07326317 4.95875216 -2.01978660 4 8 7039 15.99600000 3186869313 3186869313 -7.25400000
40.17934036 13.21029472 -0.24582070 16 10 7040 42.29600000 3186869315 3186869315 -0.33300000
16.14715958 6.19831371 -1.86306024 2 11 7040 17.39600000 3186869315 3186869315 -6.14800000
18.57346725 5.11249733 -1.79828179 6 12 7041 19.34800000 3186869318 3186869318 -5.33300000
40.32619476 15.47170067 1.00506067 14 13 7041 43.20400000 3186869318 3186869318 1.33300000
40.46615982 11.13104153 0.48859954 30 14 7042 41.97200000 3186869320 3186869320 0.66700000
20.45049858 7.84202194 -1.53157318 6 15 7042 21.95600000 3186869320 3186869320 -4.00000000
19.38289261 6.36152697 -1.66536808 5 16 7043 20.46800000 3186869322 3186869322 -4.66700000
40.30536270 17.75157928 1.28172898 17 17 7043 44.06000000 3186869322 3186869322 1.66700000
40.27580643 13.21864796 0.73991221 19 18 7043 42.39600000 3186869325 3186869325 1.00000000
20.60033035 9.07294655 -1.44262624 8 19 7043 22.55600000 3186869325 3186869325 -3.66700000
20.62380219 5.66525412 -1.24557042 13 20 7044 21.42400000 3186869327 3186869327 -3.33300000
40.24713135 15.41719723 2.50997782 6 21 7044 43.17200000 3186869327 3186869327 3.33300000
40.52660751 13.28529167 1.73754954 18 22 7045 42.68400000 3186869329 3186869329 2.33300000
20.67264938 7.91479445 -1.03112972 22 23 7045 22.16000000 3186869329 3186869329 -2.66700000
20.66154671 6.76920366 -1.13945842 25 24 7046 21.77200000 3186869332 3186869332 -3.00000000
42.51042557 13.91918850 3.65163755 20 26 7047 44.88000000 3186869334 3186869334 4.66700000
20.69036102 9.09535694 -0.92079866 26 27 7047 22.62000000 3186869334 3186869334 -2.33300000
20.68481636 5.66648674 -0.74894321 14 28 7048 21.46000000 3186869336 3186869336 -2.00000000
49.57618332 16.21357155 9.51013756 16 30 7049 53.02000000 3186869338 3186869338 10.33300000
36.00330353 13.75552559 -0.89684057 5 31 7049 38.55200000 3186869338 3186869338 -1.33300000
5.56661558 1.81407523 -2.73011398 8 0 7055 6.46000000 3186869359 3186869359 -25.00000000
31.90170479 13.97067833 -0.60790223 6 1 7055 34.83200000 3186869359 3186869359 -1.00000000
34.51231003 11.24037266 -1.05633545 14 2 7056 36.31200000 3186869361 3186869361 -1.66700000
8.28340530 3.15318942 -2.48117161 4 3 7056 9.20400000 3186869361 3186869361 -15.63900000
10.90941525 3.55100012 -2.29457235 12 4 7057 11.70000000 3186869364 3186869364 -11.31000000
40.33904648 15.34753990 0.00000000 22 5 7057 43.16000000 3186869364 3186869364 0.00000000
40.53953934 11.02954578 -0.48911175 10 6 7058 42.01600000 3186869366 3186869366 -0.66700000
12.77880669 4.85931826 -2.12697291 1 7 7058 13.83600000 3186869366 3186869366 -8.84300000
15.08962345 4.90874004 -2.01978660 2 8 7058 15.99600000 3186869368 3186869368 -7.25400000
40.18108368 13.06337833 -0.24556498 16 10 7059 42.25200000 3186869371 3186869371 -0.33300000
16.16390610 6.14332056 -1.86263192 2 11 7059 17.39200000 3186869371 3186869371 -6.14800000
18.59031868 5.05087757 -1.79828179 6 12 7060 19.34800000 3186869373 3186869373 -5.33300000
40.32120514 15.31658840 1.00366497 14 13 7060 43.14400000 3186869373 3186869373 1.33300000
40.36388779 10.95906162 0.48692322 30 14 7061 41.82800000 3186869375 3186869375 0.66700000
20.46893120 7.77132988 -1.53101504 6 15 7061 21.94800000 3186869375 3186869375 -4.00000000
19.40388298 6.29721594 -1.66536808 5 16 7062 20.46800000 3186869378 3186869378 -4.66700000
40.29804611 17.58903503 1.27963436 17 17 7062 43.98800000 3186869378 3186869378 1.66700000
40.28137970 13.07266998 0.73921412 19 18 7062 42.35600000 3186869380 3186869380 1.00000000
20.59371948 8.98861504 -1.44006801 7 19 7062 22.51600000 3186869380 3186869380 -3.66700000
20.61164284 5.58847237 -1.24370992 13 20 7063 21.39200000 3186869382 3186869382 -3.33300000
40.41004562 15.32612991 2.51695442 13 21 7063 43.29200000 3186869382 3186869382 3.33300000
40.54002380 13.14096928 1.73624694 18 22 7064 42.65200000 3186869385 3186869385 2.33300000
20.66889191 7.83486795 -1.02964067 22 23 7064 22.12800000 3186869385 3186869385 -2.66700000
20.65348053 6.69080162 -1.13778365 29 24 7065 21.74000000 3186869387 3186869387 -3.00000000
43.46039200 16.46566963 5.70640993 9 25 7065 46.82400000 3186869387 3186869387 7.00000000
42.65496445 13.81007099 3.66009951 20 26 7066 44.98400000 3186869389 3186869389 4.66700000
20.69475937 9.01552200 -0.91965890 26 27 7066 22.59200000 3186869389 3186869389 -2.33300000
20.67647934 5.59055853 -0.74796599 14 28 7067 21.43200000 3186869391 3186869391 -2.00000000
49.66431427 16.06985855 9.51731205 16 30 7067 53.06000000 3186869394 3186869394 10.33300000
36.07625961 13.65367413 -0.89758497 5 31 7067 38.58400000 3186869394 3186869394 -1.33300000
5.57667780 1.79477096 -2.73180437 7 0 7076 6.46400000 3186869414 3186869414 -25.00000000
31.92701149 13.84252262 -0.60741353 6 1 7076 34.80400000 3186869414 3186869414 -1.00000000
34.56469345 11.11747646 -1.05668461 7 2 7077 36.32400000 3186869417 3186869417 -1.66700000
8.29130173 3.12145090 -2.48009324 3 3 7077 9.20000000 3186869417 3186869417 -15.63900000
10.94849586 3.51939368 -2.30006361 4 4 7078 11.72800000 3186869419 3186869419 -11.31000000
40.35010147 15.18268299 0.00000000 14 5 7078 43.11200000 3186869419 3186869419 0.00000000
40.77094650 10.93979645 -0.49143997 10 6 7078 42.21600000 3186869421 3186869421 -0.66700000
12.80309010 4.81746626 -2.12820292 1 7 7078 13.84400000 3186869421 3186869421 -8.84300000
15.09995842 4.85097361 -2.01877642 2 8 7079 15.98800000 3186869424 3186869424 -7.25400000
40.25535202 12.92457962 -0.24572772 24 10 7080 42.28000000 3186869426 3186869426 -0.33300000
16.19003677 6.08543491 -1.86306024 2 11 7080 17.39600000 3186869426 3186869426 -6.14800000
18.61639977 4.98476696 -1.79902542 6 12 7081 19.35600000 3186869428 3186869428 -5.33300000
40.32091904 15.14760590 1.00226915 14 13 7081 43.08400000 3186869428 3186869428 1.33300000
40.37673569 10.80380917 0.48659727 30 14 7082 41.80000000 3186869431 3186869431 0.66700000
20.49727631 7.69625521 -1.53101504 6 15 7082 21.94800000 3186869431 3186869431 -4.00000000
19.42303658 6.22483826 -1.66504252 5 16 7083 20.46400000 3186869433 3186869433 -4.66700000
40.29250717 17.41108322 1.27742350 17 17 7083 43.91200000 3186869433 3186869433 1.66700000
40.28332138 12.91029644 0.73837644 19 18 7083 42.30800000 3186869435 3186869435 1.00000000
20.59720993 8.90040779 -1.43802130 7 19 7083 22.48400000 3186869435 3186869435 -3.66700000
20.62812996 5.51185846 -1.24347734 9 20 7084 21.38800000 3186869438 3186869438 -3.33300000
40.44725418 15.17090511 2.51579165 13 21 7084 43.27200000 3186869438 3186869438 3.33300000
40.44327164 12.94599342 1.73005939 18 22 7085 42.50000000 3186869440 3186869440 2.33300000
20.66379547 7.74643660 -1.02796555 22 23 7085 22.09200000 3186869440 3186869440 -2.66700000
20.65503693 6.60775518 -1.13652766 29 24 7086 21.71600000 3186869442 3186869442 -3.00000000
43.53903961 16.31323242 5.70884752 19 25 7086 46.84400000 3186869442 3186869442 7.00000000
42.69010544 13.64878273 3.65879774 20 26 7087 44.96800000 3186869444 3186869444 4.66700000
20.69463539 8.92536640 -0.91819340 28 27 7087 22.55600000 3186869444 3186869444 -2.33300000
20.67751694 5.50959158 -0.74726802 14 28 7088 21.41200000 3186869447 3186869447 -2.00000000
49.66942215 15.86108685 9.50654984 16 30 7089 53.00000000 3186869449 3186869449 10.33300000
36.21831131 13.54867744 -0.89981824 5 31 7089 38.68000000 3186869449 3186869449 -1.33300000
5.58228874 1.77724254 -2.73180437 7 0 7094 6.46400000 3186869470 3186869470 -25.00000000
31.85276222 13.69161320 -0.60517967 6 1 7094 34.67600000 3186869470 3186869470 -1.00000000
34.75947571 11.05974960 -1.06157172 7 2 7095 36.49200000 3186869472 3186869472 -1.66700000
8.30828476 3.09807944 -2.48224998 3 3 7095 9.20800000 3186869472 3186869472 -15.63900000
10.98940182 3.49448943 -2.30633926 1 4 7096 11.76000000 3186869474 3186869474 -11.31000000
40.32638550 15.02930355 0.00000000 21 5 7096 43.03600000 3186869474 3186869474 0.00000000
40.66592407 10.77477837 -0.48976365 10 6 7096 42.07200000 3186869477 3186869477 -0.66700000
12.81816101 4.77722025 -2.12820292 1 7 7096 13.84400000 3186869477 3186869477 -8.84300000
15.11134243 4.80230999 -2.01827121 2 8 7097 15.98400000 3186869479 3186869479 -7.25400000
31.70986366 13.61052322 0.20055752 6 9 7097 34.50800000 3186869479 3186869479 0.33300000
40.31100464 12.80289268 -0.24582070 24 10 7098 42.29600000 3186869481 3186869481 -0.33300000
16.21280289 6.03593016 -1.86348867 2 11 7098 17.40000000 3186869481 3186869481 -6.14800000
18.62041664 4.92320347 -1.79791009 4 12 7099 19.34400000 3186869484 3186869484 -5.33300000
40.30084610 14.99575710 1.00059414 14 13 7099 43.01200000 3186869484 3186869484 1.33300000
40.36794281 10.66567039 0.48608506 20 14 7100 41.75600000 3186869486 3186869486 0.66700000
20.48769379 7.61930513 -1.52850389 6 15 7100 21.91200000 3186869486 3186869486 -4.00000000
19.44629669 6.16499329 -1.66536808 5 16 7101 20.46800000 3186869488 3186869488 -4.66700000
40.29187775 17.26079750 1.27567816 17 17 7101 43.85200000 3186869488 3186869488 1.66700000
40.25505829 12.76192379 0.73711985 19 18 7101 42.23600000 3186869491 3186869491 1.00000000
20.60305405 8.82622433 -1.43648636 7 19 7101 22.46000000 3186869491 3186869491 -3.66700000
20.61445427 5.43887663 -1.24161696 16 20 7102 21.35600000 3186869493 3186869493 -3.33300000
40.36370087 14.99508953 2.50765228 13 21 7102 43.13200000 3186869493 3186869493 3.33300000
40.49898148 12.82369900 1.73071074 18 22 7103 42.51600000 3186869495 3186869495 2.33300000
20.65806389 7.67035484 -1.02647662 22 23 7103 22.06000000 3186869495 3186869495 -2.66700000
20.64522552 6.53319168 -1.13485289 29 24 7104 21.68400000 3186869497 3186869497 -3.00000000
43.45119476 13.74180794 3.72030926 21 26 7105 45.72400000 3186869500 3186869500 4.66700000
20.69317245 8.84773827 -0.91689080 28 27 7105 22.52400000 3186869500 3186869500 -2.33300000
20.67152786 5.43850136 -0.74643046 16 28 7106 21.38800000 3186869502 3186869502 -2.00000000
49.74527359 15.71326447 9.51157188 16 30 7107 53.02800000 3186869504 3186869504 10.33300000
36.42943954 13.49734688 -0.90400565 5 31 7107 38.86000000 3186869504 3186869504 -1.33300000
5.57808399 1.75448275 -2.72673297 8 0 7114 6.45200000 3186869525 3186869525 -25.00000000
35.10301208 11.03426838 -1.07088077 7 2 7115 36.81200000 3186869527 3186869527 -1.66700000
8.32266235 3.07039237 -2.48332834 3 3 7115 9.21200000 3186869527 3186869527 -15.63900000
11.05017853 3.47139001 -2.31653738 4 4 7116 11.81200000 3186869530 3186869530 -11.31000000
40.34857559 14.87737560 0.00000000 21 5 7116 43.00400000 3186869530 3186869530 0.00000000
40.69167709 10.62972927 -0.48962396 21 6 7116 42.06000000 3186869532 3186869532 -0.66700000
12.83104992 4.73108006 -2.12758780 1 7 7116 13.84000000 3186869532 3186869532 -8.84300000
15.13937092 4.75309801 -2.01978660 2 8 7117 15.99600000 3186869534 3186869534 -7.25400000
31.57312393 13.42151070 0.19939514 6 9 7117 34.30800000 3186869534 3186869534 0.33300000
40.28675461 12.64054871 -0.24540225 16 10 7118 42.22400000 3186869537 3186869537 -0.33300000
16.23377228 5.97930002 -1.86348867 2 11 7118 17.40000000 3186869537 3186869537 -6.14800000
18.64904976 4.86118984 -1.79902542 6 12 7119 19.35600000 3186869539 3186869539 -5.33300000
40.27789307 14.82736015 0.99873316 14 13 7119 42.93200000 3186869539 3186869539 1.33300000
40.38170242 10.51864529 0.48580569 29 14 7120 41.73200000 3186869541 3186869541 0.66700000
20.42428970 7.51467562 -1.52180719 34 15 7120 21.81600000 3186869541 3186869541 -4.00000000
19.46389389 6.09588385 -1.66504252 5 16 7121 20.46400000 3186869544 3186869544 -4.66700000
40.28931046 17.09350014 1.27370000 17 17 7121 43.78400000 3186869544 3186869544 1.66700000
40.24592590 12.60459518 0.73614252 19 18 7121 42.18000000 3186869546 3186869546 1.00000000
20.59699059 8.73866177 -1.43392801 7 19 7121 22.42000000 3186869546 3186869546 -3.66700000
20.61012650 5.36085415 -1.24022162 16 20 7122 21.33200000 3186869548 3186869548 -3.33300000
40.26212692 14.79762363 2.49811745 19 21 7122 42.96800000 3186869548 3186869548 3.33300000
40.28793335 12.60231018 1.71980119 18 22 7123 42.24800000 3186869550 3186869550 2.33300000
20.66220856 7.58993149 -1.02535987 22 23 7123 22.03600000 3186869550 3186869550 -2.66700000
20.63359261 6.45035982 -1.13296878 29 24 7124 21.64800000 3186869553 3186869553 -3.00000000
43.29594040 15.89549541 5.66302443 19 25 7124 46.46800000 3186869553 3186869553 7.00000000
42.64649963 13.32374287 3.64740658 10 26 7125 44.82800000 3186869555 3186869555 4.66700000
20.69080925 8.76142597 -0.91542530 26 27 7125 22.48800000 3186869555 3186869555 -2.33300000
20.67490768 5.36229658 -0.74587202 14 28 7126 21.37200000 3186869557 3186869557 -2.00000000
49.58569717 15.47271156 9.47067547 16 30 7127 52.80000000 3186869560 3186869560 10.33300000
36.58897018 13.41138935 -0.90679723 5 31 7127 38.98000000 3186869560 3186869560 -1.33300000
5.58131742 1.73197711 -2.72504258 8 0 7136 6.44800000 3186869580 3186869580 -25.00000000
31.73112106 13.36460972 -0.60099107 18 1 7136 34.43600000 3186869580 3186869580 -1.00000000
35.22150040 10.92308807 -1.07320797 7 2 7137 36.89200000 3186869583 3186869583 -1.66700000
8.33077145 3.03709388 -2.48224998 3 3 7137 9.20800000 3186869583 3186869583 -15.63900000
11.02221489 3.41616201 -2.30790830 4 4 7138 11.76800000 3186869585 3186869585 -11.31000000
40.35654831 14.70453739 0.00000000 21 5 7138 42.95200000 3186869585 3186869585 0.00000000
40.52301407 10.41962051 -0.48710948 21 6 7138 41.84400000 3186869587 3186869587 -0.66700000
12.85654926 4.68448400 -2.12881780 1 7 7138 13.84800000 3186869587 3186869587 -8.84300000
15.16129971 4.69610596 -2.02029157 2 8 7139 16.00000000 3186869590 3186869590 -7.25400000
40.31970978 12.48103428 -0.24530925 24 10 7140 42.20800000 3186869592 3186869592 -0.33300000
16.25661278 5.91692305 -1.86348867 2 11 7140 17.40000000 3186869592 3186869592 -6.14800000
18.66757774 4.78954697 -1.79902542 6 12 7141 19.35600000 3186869594 3186869594 -5.33300000
40.30070496 14.66029167 0.99789566 14 13 7141 42.89600000 3186869594 3186869594 1.33300000
40.30943680 10.33470726 0.48445532 19 14 7142 41.61600000 3186869596 3186869596 0.66700000
20.50174522 7.45392132 -1.52543461 16 15 7142 21.86800000 3186869596 3186869596 -4.00000000
19.50239182 6.02581072 -1.66634440 5 16 7143 20.48000000 3186869599 3186869599 -4.66700000
40.29197311 16.91236687 1.27172184 17 17 7143 43.71600000 3186869599 3186869599 1.66700000
40.28638458 12.44760799 0.73600286 19 18 7143 42.17200000 3186869601 3186869601 1.00000000
20.60830879 8.65024090 -1.43239307 5 19 7143 22.39600000 3186869601 3186869601 -3.66700000
20.61508560 5.27771616 -1.23929143 19 20 7144 21.31600000 3186869603 3186869603 -3.33300000
40.15349960 14.58294106 2.48788500 13 21 7144 42.79200000 3186869603 3186869603 3.33300000
40.30547333 12.43809509 1.71849859 8 22 7145 42.21600000 3186869606 3186869606 2.33300000
20.67242050 7.50372219 -1.02442920 22 23 7145 22.01600000 3186869606 3186869606 -2.66700000
20.63530540 6.36402178 -1.13171268 29 24 7146 21.62400000 3186869608 3186869608 -3.00000000
43.56938934 15.80631065 5.69081068 28 25 7146 46.69600000 3186869608 3186869608 7.00000000
20.68743515 8.66647148 -0.91379702 28 27 7147 22.44800000 3186869610 3186869610 -2.33300000
20.67985153 5.27891636 -0.74531364 14 28 7148 21.35600000 3186869613 3186869613 -2.00000000
49.64474487 15.28220272 9.47067547 16 30 7149 52.80000000 3186869615 3186869615 10.33300000
36.74923325 13.31029129 -0.90949571 5 31 7149 39.09600000 3186869615 3186869615 -1.33300000
5.59079504 1.71354640 -2.72673297 8 0 7156 6.45200000 3186869636 3186869636 -25.00000000
31.80341911 13.26454258 -0.60147971 6 1 7156 34.46400000 3186869636 3186869636 -1.00000000
35.37410355 10.83520508 -1.07669890 7 2 7157 37.01200000 3186869638 3186869638 -1.66700000
8.33407593 3.00538206 -2.48009324 2 3 7157 9.20000000 3186869638 3186869638 -15.63900000
11.03032207 3.37651849 -2.30712390 2 4 7158 11.76400000 3186869640 3186869640 -11.31000000
40.32484436 14.53373909 0.00000000 21 5 7158 42.86400000 3186869640 3186869640 0.00000000
40.53587341 10.27221012 -0.48683009 21 6 7158 41.82000000 3186869643 3186869643 -0.66700000
12.88025951 4.64225817 -2.13004756 1 7 7158 13.85600000 3186869643 3186869643 -8.84300000
15.18139458 4.64431524 -2.02079654 2 8 7159 16.00400000 3186869645 3186869645 -7.25400000
40.39363098 12.34957218 -0.24549523 16 10 7160 42.24000000 3186869647 3186869647 -0.33300000
16.27342415 5.85879374 -1.86306024 4 11 7160 17.39600000 3186869647 3186869647 -6.14800000
18.69190598 4.72630835 -1.79976892 6 12 7161 19.36400000 3186869649 3186869649 -5.33300000
40.29519272 14.49921799 0.99649990 21 13 7161 42.83600000 3186869649 3186869649 1.33300000
