# .PCD v0.7 - Point Cloud Data file format
VERSION 0.7
FIELDS x y z intensity laser_id azimuth distance_m adjustedtime timestamp vertical_angle
SIZE 4 4 4 1 1 2 8 8 4 8
TYPE F F F U U U F U U F
COUNT 1 1 1 1 1 1 1 1 1 1
WIDTH 524
HEIGHT 1
VIEWPOINT 0 0 0 1 0 0 0
POINTS 524
DATA ascii
1.75678647 26.80338097 -1.72148108 11 19 795 26.91600000 3185352057 3185352057 -3.66700000
6.49783993 30.15560722 -1.79649580 5 20 796 30.90000000 3185352059 3185352059 -3.33300000
3.70126700 32.13648224 -1.50686395 10 23 797 32.38400000 3185352061 3185352061 -2.66700000
5.64315271 34.16152191 -1.81459224 7 24 798 34.67200000 3185352064 3185352064 -3.00000000
2.45740080 37.09585190 -1.51463652 20 27 799 37.20800000 3185352066 3185352066 -2.33300000
8.38870716 38.79930878 -1.38620806 7 28 800 39.72000000 3185352068 3185352068 -2.00000000
6.03107977 52.04553986 -1.21917462 9 31 801 52.40800000 3185352070 3185352070 -1.33300000
0.93243021 5.57796335 -2.63713789 16 0 809 6.24000000 3185352091 3185352091 -25.00000000
4.11136198 60.46314621 -1.05782521 28 1 809 60.61200000 3185352091 3185352091 -1.00000000
7.75527430 46.34369278 -1.36748779 11 2 810 47.00800000 3185352093 3185352093 -1.66700000
0.97610986 8.30922699 -2.34207082 23 3 810 8.68800000 3185352093 3185352093 -15.63900000
1.98820210 11.86830139 -2.40675139 15 4 811 12.27200000 3185352096 3185352096 -11.31000000
12.07259083 55.27719116 -0.65869904 23 6 812 56.58400000 3185352098 3185352098 -0.66700000
1.66409600 14.12322712 -2.21244550 15 7 812 14.39200000 3185352098 3185352098 -8.84300000
2.88366103 17.19520378 -2.21929026 15 8 812 17.57600000 3185352100 3185352100 -7.25400000
11.73564053 69.90455627 -0.41197169 28 10 813 70.88400000 3185352103 3185352103 -0.33300000
2.09869933 17.78500557 -1.92903209 13 11 813 18.01200000 3185352103 3185352103 -6.14800000
4.10594463 18.76860046 -1.79344869 10 12 814 19.29600000 3185352105 3185352105 -5.33300000
21.70850182 99.14840698 1.18161654 28 14 815 101.50400000 3185352107 3185352107 0.66700000
3.15170908 26.62865639 -1.87505400 18 15 815 26.88000000 3185352107 3185352107 -4.00000000
3.49995995 20.78122520 -1.72037041 18 16 816 21.14400000 3185352110 3185352110 -4.66700000
1.82110596 26.30694199 -1.69001400 7 19 816 26.42400000 3185352112 3185352112 -3.66700000
6.60575581 30.11988831 -1.79579806 5 20 817 30.88800000 3185352114 3185352114 -3.33300000
3.17607665 26.71469116 -1.25317621 19 23 818 26.93200000 3185352117 3185352117 -2.66700000
5.76033735 34.09334564 -1.81208014 7 24 819 34.62400000 3185352119 3185352119 -3.00000000
2.58080173 36.90718460 -1.50730920 20 27 820 37.02800000 3185352121 3185352121 -2.33300000
8.52656269 38.74878311 -1.38550997 7 28 821 39.70000000 3185352123 3185352123 -2.00000000
6.18284273 51.77401352 -1.21331239 9 31 821 52.15600000 3185352126 3185352126 -1.33300000
0.95823705 5.61772442 -2.65742373 14 0 828 6.28800000 3185352146 3185352146 -25.00000000
4.35025740 60.98773193 -1.06724954 28 1 828 61.15200000 3185352146 3185352146 -1.00000000
7.86718798 46.07336044 -1.36027336 11 2 829 46.76000000 3185352149 3185352149 -1.66700000
1.01336277 8.38625050 -2.36471510 23 3 829 8.77200000 3185352149 3185352149 -15.63900000
2.02688694 11.85777664 -2.40596700 12 4 830 12.26800000 3185352151 3185352151 -11.31000000
12.18472481 54.96174240 -0.65539300 23 6 830 56.30000000 3185352153 3185352153 -0.66700000
1.71035647 14.13362408 -2.21490502 15 7 830 14.40800000 3185352153 3185352153 -8.84300000
2.95003581 17.24030304 -2.22636127 16 8 831 17.63200000 3185352156 3185352156 -7.25400000
12.00790691 70.10179901 -0.41336656 28 10 832 71.12400000 3185352158 3185352158 -0.33300000
2.19456053 18.08194733 -1.96201789 16 11 832 18.32000000 3185352158 3185352158 -6.14800000
4.16038465 18.71989059 -1.79010272 4 12 833 19.26000000 3185352160 3185352160 -5.33300000
13.34921455 109.82976532 2.57448530 28 13 833 110.66800000 3185352160 3185352160 1.33300000
3.22408485 26.48734474 -1.86584616 18 15 834 26.74800000 3185352163 3185352163 -4.00000000
3.54792404 20.64770126 -1.71028125 18 16 835 21.02000000 3185352165 3185352165 -4.66700000
22.59591103 131.50045776 2.32898879 28 18 835 133.44800000 3185352167 3185352167 1.00000000
6.71515274 30.14069176 -1.79835618 5 20 836 30.93200000 3185352170 3185352170 -3.33300000
3.30489278 27.03320122 -1.26862454 17 23 837 27.26400000 3185352172 3185352172 -2.66700000
5.84961462 33.93627930 -1.80475307 7 24 838 34.48400000 3185352174 3185352174 -3.00000000
2.71777701 37.09772491 -1.51545060 13 27 839 37.22800000 3185352176 3185352176 -2.33300000
8.65152264 38.70468903 -1.38495159 7 28 840 39.68400000 3185352179 3185352179 -2.00000000
6.34547234 51.60526276 -1.20986938 9 31 841 52.00800000 3185352181 3185352181 -1.33300000
0.95731354 5.49648666 -2.60163808 14 0 848 6.15600000 3185352202 3185352202 -25.00000000
4.55267096 60.83258438 -1.06480622 28 1 848 61.01200000 3185352202 3185352202 -1.00000000
8.00530338 45.91563416 -1.35643339 21 2 849 46.62800000 3185352204 3185352204 -1.66700000
1.03549850 8.32532501 -2.34854054 24 3 849 8.71200000 3185352204 3185352204 -15.63900000
2.05949926 11.80039883 -2.39576888 15 4 850 12.21600000 3185352206 3185352206 -11.31000000
12.35451984 54.82132721 -0.65422887 23 6 850 56.20000000 3185352209 3185352209 -0.66700000
1.79387867 14.40211868 -2.25794888 15 7 850 14.68800000 3185352209 3185352209 -8.84300000
3.02453852 17.31198502 -2.23696780 15 8 851 17.71600000 3185352211 3185352211 -7.25400000
12.15675259 69.51177979 -0.41013512 28 10 852 70.56800000 3185352213 3185352213 -0.33300000
2.23991895 17.93210793 -1.94659591 12 11 852 18.17600000 3185352213 3185352213 -6.14800000
4.19323206 18.56151772 -1.77634704 6 12 853 19.11200000 3185352216 3185352216 -5.33300000
22.07504082 97.63681030 1.16536558 28 14 854 100.10800000 3185352218 3185352218 0.66700000
3.32842660 26.57095146 -1.87254274 9 15 854 26.84400000 3185352218 3185352218 -4.00000000
3.60482121 20.54880142 -1.70312119 5 16 855 20.93200000 3185352220 3185352220 -4.66700000
2.07673001 27.30095482 -1.75473905 7 19 855 27.43600000 3185352223 3185352223 -3.66700000
6.77181387 29.90286255 -1.78556561 5 20 856 30.71200000 3185352225 3185352225 -3.33300000
3.37230539 26.80742073 -1.25857389 21 23 857 27.04800000 3185352227 3185352227 -2.66700000
5.96388531 33.89205170 -1.80349708 7 24 858 34.46000000 3185352229 3185352229 -3.00000000
2.87570667 37.45861053 -1.53059375 20 27 859 37.60000000 3185352232 3185352232 -2.33300000
8.74583435 38.49493408 -1.37853014 7 28 860 39.50000000 3185352234 3185352234 -2.00000000
3.53882432 27.97341347 -0.65611362 3 31 861 28.20400000 3185352236 3185352236 -1.33300000
0.97649401 5.49311161 -2.60163808 14 0 868 6.15600000 3185352257 3185352257 -25.00000000
4.76498890 60.81632233 -1.06480622 28 1 868 61.01200000 3185352257 3185352257 -1.00000000
8.13190746 45.69846344 -1.35084808 10 2 869 46.43600000 3185352259 3185352259 -1.66700000
1.05184484 8.22231960 -2.32050467 21 3 869 8.60800000 3185352259 3185352259 -15.63900000
2.13782144 12.00166130 -2.43813014 19 4 870 12.43200000 3185352262 3185352262 -11.31000000
12.51098156 54.62581635 -0.65241289 23 6 870 56.04400000 3185352264 3185352264 -0.66700000
1.81802523 14.19190693 -2.22597337 17 7 870 14.48000000 3185352264 3185352264 -8.84300000
3.13092160 17.55914116 -2.27030277 16 8 871 17.98000000 3185352266 3185352266 -7.25400000
2.35773182 18.35413933 -1.99329031 16 11 872 18.61200000 3185352269 3185352269 -6.14800000
4.21433115 18.35656357 -1.75812995 4 12 873 18.91600000 3185352271 3185352271 -5.33300000
13.52278900 105.12512207 2.46635818 28 13 873 106.02000000 3185352271 3185352271 1.33300000
22.05745888 95.99989319 1.14673984 28 14 874 98.50800000 3185352273 3185352273 0.66700000
3.44154739 26.71747398 -1.88370383 22 15 874 27.00400000 3185352273 3185352273 -4.00000000
3.67020488 20.50077438 -1.70019197 23 16 875 20.89600000 3185352276 3185352276 -4.66700000
2.21824884 27.87450790 -1.79209030 12 19 875 28.02000000 3185352278 3185352278 -3.66700000
6.90033293 29.98411369 -1.79184461 5 20 876 30.82000000 3185352280 3185352280 -3.33300000
3.46176004 26.76378632 -1.25708485 19 23 877 27.01600000 3185352282 3185352282 -2.66700000
6.05744457 33.73341751 -1.79617000 7 24 878 34.32000000 3185352285 3185352285 -3.00000000
3.01699877 37.57981491 -1.53596711 20 27 879 37.73200000 3185352287 3185352287 -2.33300000
8.87655640 38.44859314 -1.37797177 7 28 880 39.48400000 3185352289 3185352289 -2.00000000
0.99566263 5.48966932 -2.60163808 14 0 888 6.15600000 3185352312 3185352312 -25.00000000
4.94298553 60.38078308 -1.05747616 28 1 888 60.59200000 3185352312 3185352312 -1.00000000
8.27780437 45.59505081 -1.34863710 10 2 889 46.36000000 3185352315 3185352315 -1.66700000
1.06949329 8.13457870 -2.29678202 27 3 889 8.52000000 3185352315 3185352315 -15.63900000
2.21687198 12.19865799 -2.47970700 15 4 890 12.64400000 3185352317 3185352317 -11.31000000
12.66894913 54.44156647 -0.65073657 22 6 890 55.90000000 3185352319 3185352319 -0.66700000
1.89180040 14.36965084 -2.25487423 15 7 890 14.66800000 3185352319 3185352319 -8.84300000
3.19645619 17.57152939 -2.27333307 15 8 891 18.00400000 3185352322 3185352322 -7.25400000
12.59085941 69.14582062 -0.40848455 28 10 892 70.28400000 3185352324 3185352324 -0.33300000
2.37806511 18.01460266 -1.95730567 16 11 892 18.27600000 3185352324 3185352324 -6.14800000
5.26904154 22.58877182 -2.16522503 2 12 893 23.29600000 3185352326 3185352326 -5.33300000
13.80476761 104.43504333 2.45128369 28 13 893 105.37200000 3185352326 3185352326 1.33300000
22.04690552 94.44221497 1.12904537 28 14 894 96.98800000 3185352328 3185352328 0.66700000
3.53897667 26.73694420 -1.88593602 13 15 894 27.03600000 3185352328 3185352328 -4.00000000
3.74317622 20.49568176 -1.70084298 15 16 895 20.90400000 3185352331 3185352331 -4.66700000
2.32214665 27.94615746 -1.79720688 12 19 895 28.10000000 3185352333 3185352333 -3.66700000
6.93495131 29.66044044 -1.77393782 4 20 896 30.51200000 3185352335 3185352335 -3.33300000
3.54779267 26.69608688 -1.25447905 19 23 897 26.96000000 3185352338 3185352338 -2.66700000
6.16220427 33.64134598 -1.79240179 7 24 898 34.24800000 3185352340 3185352340 -3.00000000
3.14014864 37.47346878 -1.53205919 20 27 899 37.63600000 3185352342 3185352342 -2.33300000
8.96233273 38.21109772 -1.37057304 7 28 900 39.27200000 3185352345 3185352345 -2.00000000
1.00595617 5.44355917 -2.58135223 15 0 907 6.10800000 3185352368 3185352368 -25.00000000
5.12417459 60.14090347 -1.05356681 28 1 907 60.36800000 3185352368 3185352368 -1.00000000
8.40132236 45.41794968 -1.34421539 10 2 908 46.20800000 3185352370 3185352370 -1.66700000
1.10469902 8.19206524 -2.31403494 21 3 908 8.58400000 3185352370 3185352370 -15.63900000
2.25874019 12.19895363 -2.48127604 12 4 909 12.65200000 3185352372 3185352372 -11.31000000
12.83930111 54.35643768 -0.65022433 22 6 909 55.85600000 3185352375 3185352375 -0.66700000
1.93415260 14.32412910 -2.24872518 15 7 909 14.62800000 3185352375 3185352375 -8.84300000
3.22722983 17.41257477 -2.25414038 13 8 910 17.85200000 3185352377 3185352377 -7.25400000
12.71064377 68.51376343 -0.40499741 28 10 911 69.68400000 3185352379 3185352379 -0.33300000
2.52209163 18.62930298 -2.02499104 13 11 911 18.90800000 3185352379 3185352379 -6.14800000
5.34483719 22.57505035 -2.16559672 5 12 912 23.30000000 3185352381 3185352381 -5.33300000
14.12791252 104.21829224 2.44728231 28 13 912 105.20000000 3185352381 3185352381 1.33300000
22.01968384 92.93244171 1.11186314 28 14 913 95.51200000 3185352384 3185352384 0.66700000
3.42528057 25.23440552 -1.78074324 17 15 913 25.52800000 3185352384 3185352384 -4.00000000
3.84685564 20.67521095 -1.71679044 28 16 914 21.10000000 3185352386 3185352386 -4.66700000
2.52102375 29.16719055 -1.87625837 8 19 914 29.33600000 3185352388 3185352388 -3.66700000
7.02312803 29.59454155 -1.77137971 4 20 915 30.46800000 3185352391 3185352391 -3.33300000
3.73988652 27.44431686 -1.29021502 15 23 916 27.72800000 3185352393 3185352393 -2.66700000
6.26640177 33.58145905 -1.79030836 7 24 917 34.20800000 3185352395 3185352395 -3.00000000
3.26439786 37.46284866 -1.53205919 20 27 918 37.63600000 3185352398 3185352398 -2.33300000
9.09640217 38.21228027 -1.37168980 7 28 919 39.30400000 3185352400 3185352400 -2.00000000
6.89833784 50.42454529 -1.18427992 8 31 919 50.90800000 3185352402 3185352402 -1.33300000
0.99902743 5.29733801 -2.51373339 13 0 928 5.94800000 3185352423 3185352423 -25.00000000
5.33075619 59.96635437 -1.05084431 28 1 928 60.21200000 3185352423 3185352423 -1.00000000
8.55289745 45.30827332 -1.34188819 10 2 929 46.12800000 3185352425 3185352425 -1.66700000
1.17384517 8.47030544 -2.39382911 13 3 929 8.88000000 3185352425 3185352425 -15.63900000
2.24299216 11.87070084 -2.41616511 15 4 930 12.32000000 3185352428 3185352428 -11.31000000
13.05819798 54.34951782 -0.65073657 22 6 931 55.90000000 3185352430 3185352430 -0.66700000
1.97282112 14.19915104 -2.23027778 18 7 931 14.50800000 3185352430 3185352430 -8.84300000
3.24530959 17.15889931 -2.22282577 18 8 931 17.60400000 3185352432 3185352432 -7.25400000
12.92447281 68.27021027 -0.40383500 28 10 932 69.48400000 3185352434 3185352434 -0.33300000
2.58049059 18.54903030 -2.01728010 22 11 932 18.83600000 3185352434 3185352434 -6.14800000
5.40704393 22.47012138 -2.15741777 5 12 933 23.21200000 3185352437 3185352437 -5.33300000
14.50317574 104.11828613 2.44616580 28 13 933 105.15200000 3185352437 3185352437 1.33300000
22.07921982 91.68454742 1.09789383 28 14 934 94.31200000 3185352439 3185352439 0.66700000
3.52436066 25.26910591 -1.78409159 17 15 934 25.57600000 3185352439 3185352439 -4.00000000
3.92930079 20.69622231 -1.71971953 26 16 935 21.13600000 3185352441 3185352441 -4.66700000
22.33732796 117.54214478 2.08842468 28 18 936 119.66400000 3185352444 3185352444 1.00000000
2.55940127 28.34229088 -1.82381320 16 19 936 28.51600000 3185352444 3185352444 -3.66700000
7.16057491 29.68894196 -1.77858889 5 20 936 30.59200000 3185352446 3185352446 -3.33300000
3.78615618 27.04263306 -1.27197480 15 23 937 27.33600000 3185352448 3185352448 -2.66700000
6.36254501 33.41699982 -1.78277206 7 24 938 34.06400000 3185352451 3185352451 -3.00000000
3.41578388 37.60586548 -1.53840959 21 27 939 37.79200000 3185352453 3185352453 -2.33300000
9.18563557 37.96886826 -1.36415148 7 28 940 39.08800000 3185352455 3185352455 -2.00000000
7.08755922 50.43060303 -1.18502438 8 31 940 50.94000000 3185352458 3185352458 -1.33300000
1.02957797 5.36163998 -2.54585242 14 0 947 6.02400000 3185352478 3185352478 -25.00000000
5.49284840 59.55009842 -1.04386330 27 1 947 59.81200000 3185352478 3185352478 -1.00000000
8.66762733 45.09511948 -1.33641911 10 2 948 45.94000000 3185352481 3185352481 -1.66700000
1.18243659 8.32907391 -2.35501027 24 3 948 8.73600000 3185352481 3185352481 -15.63900000
2.27048826 11.80156994 -2.40361357 13 4 949 12.25600000 3185352483 3185352483 -11.31000000
13.12941742 53.85903168 -0.64538163 22 6 950 55.44000000 3185352485 3185352485 -0.66700000
2.05943656 14.47035599 -2.27393651 14 7 950 14.79200000 3185352485 3185352485 -8.84300000
3.35171437 17.40520477 -2.25616074 18 8 950 17.86800000 3185352487 3185352487 -7.25400000
13.11294079 68.03059387 -0.40267262 28 10 951 69.28400000 3185352490 3185352490 -0.33300000
2.63749886 18.50887299 -2.01385283 10 11 951 18.80400000 3185352490 3185352490 -6.14800000
5.47774935 22.43659210 -2.15593052 5 12 952 23.19600000 3185352492 3185352492 -5.33300000
14.85118866 104.08940887 2.44663095 28 13 952 105.17200000 3185352492 3185352492 1.33300000
22.04422760 90.22372437 1.08127034 28 14 953 92.88400000 3185352494 3185352494 0.66700000
3.58612895 25.10322380 -1.77320957 20 15 953 25.42000000 3185352494 3185352494 -4.00000000
4.00018024 20.69482231 -1.72069585 28 16 954 21.14800000 3185352497 3185352497 -4.66700000
22.36493301 115.70436859 2.05701041 28 18 954 117.86400000 3185352499 3185352499 1.00000000
2.64099836 28.25461960 -1.81869662 12 19 954 28.43600000 3185352499 3185352499 -3.66700000
7.18305635 29.35472870 -1.75998449 4 20 955 30.27200000 3185352501 3185352501 -3.33300000
3.81399393 26.59881020 -1.25168717 26 23 956 26.90000000 3185352504 3185352504 -2.66700000
6.46192265 33.33689499 -1.77963185 7 24 957 34.00400000 3185352506 3185352506 -3.00000000
3.52735519 37.45506287 -1.53271055 20 27 958 37.65200000 3185352508 3185352508 -2.33300000
9.27909660 37.80619812 -1.35940516 7 28 959 38.95200000 3185352511 3185352511 -2.00000000
7.23424578 50.26433182 -1.18167448 8 31 959 50.79600000 3185352513 3185352513 -1.33300000
1.06499302 5.44339991 -2.58642387 15 0 967 6.12000000 3185352534 3185352534 -25.00000000
5.66294098 59.13642502 -1.03695214 27 1 967 59.41600000 3185352534 3185352534 -1.00000000
8.79117680 44.89194489 -1.33129919 10 2 968 45.76400000 3185352536 3185352536 -1.66700000
1.17600131 8.08094215 -2.28599906 16 3 968 8.48000000 3185352536 3185352536 -15.63900000
2.38636112 12.17463112 -2.48127604 13 4 969 12.65200000 3185352539 3185352539 -11.31000000
13.27530193 53.68318558 -0.64379847 22 6 969 55.30400000 3185352541 3185352541 -0.66700000
2.08461547 14.30700111 -2.24934006 18 7 969 14.63200000 3185352541 3185352541 -8.84300000
3.41474104 17.40508080 -2.25767589 13 8 970 17.88000000 3185352543 3185352543 -7.25400000
13.23471832 67.39566040 -0.39918548 28 10 971 68.68400000 3185352546 3185352546 -0.33300000
2.70036626 18.48774910 -2.01256776 16 11 971 18.79200000 3185352546 3185352546 -6.14800000
5.54836941 22.38640785 -2.15295649 5 12 972 23.16400000 3185352548 3185352548 -5.33300000
15.21848869 104.06463623 2.44728231 28 13 972 105.20000000 3185352548 3185352548 1.33300000
21.96617889 88.56233215 1.06227207 28 14 973 91.25200000 3185352550 3185352550 0.66700000
3.63962674 24.85761070 -1.75674701 19 15 973 25.18400000 3185352550 3185352550 -4.00000000
4.07547522 20.69637871 -1.72199774 28 16 974 21.16400000 3185352552 3185352552 -4.66700000
2.82284975 29.10343361 -1.87395597 13 19 974 29.30000000 3185352555 3185352555 -3.66700000
7.32206154 29.47674370 -1.76882160 4 20 975 30.42400000 3185352557 3185352557 -3.33300000
3.89519906 26.50627136 -1.24796474 16 23 976 26.82000000 3185352559 3185352559 -2.66700000
6.55348873 33.18873215 -1.77293289 6 24 977 33.87600000 3185352562 3185352562 -3.00000000
3.59473109 36.79414749 -1.50616932 20 27 978 37.00000000 3185352564 3185352564 -2.33300000
9.41197491 37.77745819 -1.35954475 7 28 979 38.95600000 3185352566 3185352566 -2.00000000
7.37289762 49.98953629 -1.17581213 8 31 979 50.54400000 3185352569 3185352569 -1.33300000
1.08706427 5.45012569 -2.59149528 15 0 988 6.13200000 3185352589 3185352589 -25.00000000
5.84996128 58.81679153 -1.03171647 26 1 988 59.11600000 3185352589 3185352589 -1.00000000
8.92277908 44.69474030 -1.32641196 10 2 989 45.59600000 3185352592 3185352592 -1.66700000
1.19935608 8.03467083 -2.27413774 17 3 989 8.43600000 3185352592 3185352592 -15.63900000
2.43019891 12.16195679 -2.48049140 15 4 990 12.64800000 3185352594 3185352594 -11.31000000
13.44761181 53.53718567 -0.64263433 21 6 990 55.20400000 3185352596 3185352596 -0.66700000
2.11892891 14.17808437 -2.23027778 16 7 990 14.50800000 3185352596 3185352596 -8.84300000
3.47228551 17.36132050 -2.25363517 13 8 991 17.84800000 3185352599 3185352599 -7.25400000
2.78225017 18.57212257 -2.02284908 12 11 992 18.88800000 3185352601 3185352601 -6.14800000
5.61871529 22.31957626 -2.14849520 5 12 993 23.11600000 3185352603 3185352603 -5.33300000
21.98186302 87.25560760 1.04755783 28 14 994 89.98800000 3185352605 3185352605 0.66700000
3.74967170 24.97037697 -1.76567590 17 15 994 25.31200000 3185352605 3185352605 -4.00000000
4.14659643 20.65785027 -1.72004497 7 16 995 21.14000000 3185352608 3185352608 -4.66700000
22.22892189 110.74185181 1.97156346 28 18 995 112.96800000 3185352610 3185352610 1.00000000
2.91670227 28.96579552 -1.86576939 8 19 995 29.17200000 3185352610 3185352610 -3.66700000
7.41246605 29.38001633 -1.76463556 4 20 996 30.35200000 3185352612 3185352612 -3.33300000
6.66641760 33.12141418 -1.77063012 6 24 998 33.83200000 3185352617 3185352617 -3.00000000
9.49643803 37.52956009 -1.35186696 7 28 1000 38.73600000 3185352622 3185352622 -2.00000000
7.53155184 49.80006409 -1.17199695 8 31 1000 50.38000000 3185352624 3185352624 -1.33300000
1.11690485 5.49958849 -2.61685228 16 0 1008 6.19200000 3185352645 3185352645 -25.00000000
6.01426268 58.39817810 -1.02473545 25 1 1008 58.71600000 3185352645 3185352645 -1.00000000
9.06918049 44.61630249 -1.32501566 10 2 1009 45.54800000 3185352647 3185352647 -1.66700000
1.26696956 8.28935909 -2.34746218 21 3 1009 8.70800000 3185352647 3185352647 -15.63900000
2.48905897 12.23411560 -2.49696541 19 4 1010 12.73200000 3185352649 3185352649 -11.31000000
13.56031513 53.19923401 -0.63914204 21 6 1010 54.90400000 3185352652 3185352652 -0.66700000
2.22639823 14.54957771 -2.28992414 15 7 1010 14.89600000 3185352652 3185352652 -8.84300000
3.42201924 16.80474854 -2.18292499 16 8 1011 17.28800000 3185352654 3185352654 -7.25400000
13.59682465 66.71132660 -0.39569834 28 10 1012 68.08400000 3185352656 3185352656 -0.33300000
2.85007668 18.58195114 -2.02499104 12 11 1012 18.90800000 3185352656 3185352656 -6.14800000
5.69461966 22.29210854 -2.14775157 5 12 1013 23.10800000 3185352658 3185352658 -5.33300000
21.95246506 85.87242889 1.03186560 28 14 1014 88.64000000 3185352661 3185352661 0.66700000
3.71433449 24.16046333 -1.70931268 15 15 1014 24.50400000 3185352661 3185352661 -4.00000000
4.15402317 20.32686424 -1.69368291 5 16 1015 20.81600000 3185352663 3185352663 -4.66700000
22.25477219 108.80237579 1.93847370 28 18 1016 111.07200000 3185352665 3185352665 1.00000000
2.78078771 26.63629532 -1.71636450 7 19 1016 26.83600000 3185352665 3185352665 -3.66700000
7.48328447 29.23017120 -1.75719380 4 20 1016 30.22400000 3185352668 3185352668 -3.33300000
5.45001888 35.32732010 -1.66506970 3 23 1017 35.78400000 3185352670 3185352670 -2.66700000
6.75472927 32.96489334 -1.76351237 6 24 1018 33.69600000 3185352672 3185352672 -3.00000000
3.73697901 35.61477280 -1.45894897 12 27 1019 35.84000000 3185352675 3185352675 -2.33300000
9.57767582 37.30258179 -1.34488702 7 28 1020 38.53600000 3185352677 3185352677 -2.00000000
7.66924572 49.54031372 -1.16650689 8 31 1020 50.14400000 3185352679 3185352679 -1.33300000
1.13733590 5.50650501 -2.62192369 14 0 1027 6.20400000 3185352700 3185352700 -25.00000000
6.20027304 58.30632782 -1.02347887 25 1 1027 58.64400000 3185352700 3185352700 -1.00000000
9.18065929 44.40978622 -1.31977940 10 2 1028 45.36800000 3185352702 3185352702 -1.66700000
1.27423465 8.15571690 -2.31080008 34 3 1028 8.57200000 3185352702 3185352702 -15.63900000
2.52802563 12.21811199 -2.49539638 13 4 1029 12.72400000 3185352704 3185352704 -11.31000000
13.69585991 52.95795822 -0.63681382 21 6 1030 54.70400000 3185352707 3185352707 -0.66700000
2.27411485 14.52219296 -2.28684950 14 7 1030 14.87600000 3185352707 3185352707 -8.84300000
3.45358729 16.67674255 -2.16777277 23 8 1030 17.16800000 3185352709 3185352709 -7.25400000
13.77738190 66.47003174 -0.39453596 28 10 1031 67.88400000 3185352711 3185352711 -0.33300000
2.88088274 18.37594795 -2.00357151 13 11 1031 18.70800000 3185352711 3185352711 -6.14800000
5.75053787 22.20370483 -2.14105964 5 12 1032 23.03600000 3185352714 3185352714 -5.33300000
21.93606377 84.63761902 1.01789629 28 14 1033 87.44000000 3185352716 3185352716 0.66700000
3.79381347 24.14407158 -1.70903361 26 15 1033 24.50000000 3185352716 3185352716 -4.00000000
4.18328094 20.12952042 -1.67838633 5 16 1034 20.62800000 3185352718 3185352718 -4.66700000
22.14890671 106.57826996 1.90007842 28 18 1034 108.87200000 3185352721 3185352721 1.00000000
2.83371329 26.34166527 -1.69794476 10 19 1034 26.54800000 3185352721 3185352721 -3.66700000
7.57716465 29.19359970 -1.75649607 4 20 1035 30.21200000 3185352723 3185352723 -3.33300000
5.56340456 35.28536987 -1.66395295 3 23 1036 35.76000000 3185352725 3185352725 -2.66700000
6.85504484 32.89929581 -1.76120961 6 24 1037 33.65200000 3185352728 3185352728 -3.00000000
3.89292359 35.95185089 -1.47327793 25 27 1038 36.19200000 3185352730 3185352730 -2.33300000
9.73958778 37.41762543 -1.35019171 7 28 1039 38.68800000 3185352732 3185352732 -2.00000000
7.81898117 49.36710358 -1.16306400 8 31 1040 49.99600000 3185352734 3185352734 -1.33300000
1.18041205 5.61602831 -2.67601871 11 0 1047 6.33200000 3185352755 3185352755 -25.00000000
6.36794519 57.95833969 -1.01775455 25 1 1047 58.31600000 3185352755 3185352755 -1.00000000
9.26154327 44.02532959 -1.30930674 10 2 1048 45.00800000 3185352757 3185352757 -1.66700000
1.32214785 8.27293587 -2.34530568 21 3 1048 8.70000000 3185352757 3185352757 -15.63900000
2.59409499 12.32052040 -2.51814604 12 4 1049 12.84000000 3185352760 3185352760 -11.31000000
12.71848297 79.49298096 0.00000000 28 5 1049 80.50400000 3185352760 3185352760 0.00000000
13.85525990 52.81311035 -0.63564968 21 6 1050 54.60400000 3185352762 3185352762 -0.66700000
2.25728059 14.09267426 -2.22043920 14 7 1050 14.44400000 3185352762 3185352762 -8.84300000
3.64105678 17.27805328 -2.24757433 15 8 1050 17.80000000 3185352764 3185352764 -7.25400000
2.96956658 18.51892662 -2.02027869 15 11 1051 18.86400000 3185352767 3185352767 -6.14800000
5.81890059 22.14882851 -2.13771367 5 12 1052 23.00000000 3185352769 3185352769 -5.33300000
21.92627335 83.40004730 1.00392699 28 14 1053 86.24000000 3185352771 3185352771 0.66700000
3.92745495 24.43797874 -1.73079765 19 15 1053 24.81200000 3185352771 3185352771 -4.00000000
4.14547110 19.60383224 -1.63575137 5 16 1054 20.10400000 3185352774 3185352774 -4.66700000
22.20306969 104.99777222 1.87327147 28 18 1054 107.33600000 3185352776 3185352776 1.00000000
2.92696810 26.34351540 -1.69871223 7 19 1054 26.56000000 3185352776 3185352776 -3.66700000
7.67088938 29.13607979 -1.75463569 4 20 1055 30.18000000 3185352778 3185352778 -3.33300000
5.67063761 35.16711807 -1.65929985 3 23 1056 35.66000000 3185352781 3185352781 -2.66700000
6.93836164 32.72667313 -1.75325453 6 24 1057 33.50000000 3185352783 3185352783 -3.00000000
9.82319832 37.20560455 -1.34377027 7 28 1059 38.50400000 3185352787 3185352787 -2.00000000
7.95071220 49.14352417 -1.15841138 8 31 1059 49.79600000 3185352790 3185352790 -1.33300000
1.19091165 5.56933260 -2.65573311 14 0 1067 6.28400000 3185352810 3185352810 -25.00000000
6.51388597 57.43901825 -1.00902832 24 1 1067 57.81600000 3185352810 3185352810 -1.00000000
9.40679646 43.95363617 -1.30814314 10 2 1068 44.96800000 3185352813 3185352813 -1.66700000
1.35909283 8.31768990 -2.35932350 20 3 1068 8.75200000 3185352813 3185352813 -15.63900000
2.67487597 12.48781490 -2.55423164 13 4 1069 13.02400000 3185352815 3185352815 -11.31000000
13.97892857 52.57360077 -0.63332146 20 6 1069 54.40400000 3185352817 3185352817 -0.66700000
2.39013815 14.61169434 -2.30345201 14 7 1069 14.98400000 3185352817 3185352817 -8.84300000
3.53083491 16.46987343 -2.14403439 13 8 1070 16.98000000 3185352820 3185352820 -7.25400000
3.05220628 18.61833763 -2.03227353 13 11 1071 18.97600000 3185352822 3185352822 -6.14800000
5.88592482 22.08989716 -2.13399577 5 12 1072 22.96000000 3185352824 3185352824 -5.33300000
21.93902969 82.27953339 0.99135464 28 14 1073 85.16000000 3185352827 3185352827 0.66700000
4.02308607 24.48711967 -1.73526204 8 15 1073 24.87600000 3185352827 3185352827 -4.00000000
5.32477665 24.75353622 -2.06698298 3 16 1074 25.40400000 3185352829 3185352829 -4.66700000
22.15311241 102.98419952 1.83871579 28 18 1074 105.35600000 3185352831 3185352831 1.00000000
3.12893271 27.29286957 -1.76062310 7 19 1074 27.52800000 3185352831 3185352831 -3.66700000
7.73340082 28.96251869 -1.74579847 4 20 1075 30.02800000 3185352834 3185352834 -3.33300000
5.77581358 35.04066467 -1.65427446 3 23 1076 35.55200000 3185352836 3185352836 -2.66700000
7.04497766 32.66711426 -1.75137043 6 24 1077 33.46400000 3185352838 3185352838 -3.00000000
3.70507145 32.12019348 -1.31728756 15 27 1078 32.36000000 3185352840 3185352840 -2.33300000
9.95404434 37.17494965 -1.34390986 7 28 1079 38.50800000 3185352843 3185352843 -2.00000000
8.08179379 48.81816101 -1.15143239 8 31 1080 49.49600000 3185352845 3185352845 -1.33300000
1.19801819 5.50846291 -2.62868547 15 0 1087 6.22000000 3185352866 3185352866 -25.00000000
6.71434593 57.41593170 -1.00902832 24 1 1087 57.81600000 3185352866 3185352866 -1.00000000
9.52189732 43.74472427 -1.30290687 10 2 1088 44.78800000 3185352868 3185352868 -1.66700000
1.36083853 8.14952469 -2.31295657 15 3 1088 8.58000000 3185352868 3185352868 -15.63900000
2.74516726 12.60103989 -2.57933450 19 4 1089 13.15200000 3185352870 3185352870 -11.31000000
14.11029625 52.33139420 -0.63099325 20 6 1089 54.20400000 3185352873 3185352873 -0.66700000
2.43265629 14.55258369 -2.29545832 14 7 1089 14.93200000 3185352873 3185352873 -8.84300000
3.72524285 17.08550644 -2.22585630 10 8 1090 17.62800000 3185352875 3185352875 -7.25400000
14.38825989 65.93522644 -0.39223444 28 10 1091 67.48800000 3185352877 3185352877 -0.33300000
3.09812260 18.49382210 -2.01985025 16 11 1091 18.86000000 3185352877 3185352877 -6.14800000
5.95364714 22.03461266 -2.13064981 5 12 1092 22.92400000 3185352880 3185352880 -5.33300000
23.07121277 137.57312012 3.24595237 10 13 1092 139.53200000 3185352880 3185352880 1.33300000
21.97450829 81.27193451 0.98013264 28 14 1093 84.19600000 3185352882 3185352882 0.66700000
3.79605341 22.61158371 -1.60328281 9 15 1093 22.98400000 3185352882 3185352882 -4.00000000
5.40262985 24.69585228 -2.06372857 7 16 1094 25.36400000 3185352884 3185352884 -4.66700000
22.14065552 101.20670319 1.80834854 28 18 1094 103.61600000 3185352887 3185352887 1.00000000
5.88747549 34.95724487 -1.65129650 3 23 1096 35.48800000 3185352891 3185352891 -2.66700000
7.14869595 32.59550095 -1.74885833 6 24 1097 33.41600000 3185352893 3185352893 -3.00000000
3.23539305 27.21361351 -1.11651933 11 27 1098 27.42800000 3185352896 3185352896 -2.33300000
10.02299690 36.91622162 -1.33581316 7 28 1099 38.27600000 3185352898 3185352898 -2.00000000
8.21413898 48.56490707 -1.14612842 8 31 1100 49.26800000 3185352900 3185352900 -1.33300000
1.17418551 5.30956364 -2.53570962 17 0 1107 6.00000000 3185352921 3185352921 -25.00000000
6.87023354 57.02287292 -1.00253606 23 1 1107 57.44400000 3185352921 3185352921 -1.00000000
9.66589737 43.67218018 -1.30174327 10 2 1108 44.74800000 3185352923 3185352923 -1.66700000
1.36466539 8.00043583 -2.27198124 21 3 1108 8.42800000 3185352923 3185352923 -15.63900000
2.79168105 12.60286903 -2.58168793 14 4 1109 13.16400000 3185352926 3185352926 -11.31000000
14.28233337 52.24324036 -0.63052762 20 6 1109 54.16400000 3185352928 3185352928 -0.66700000
2.48743105 14.56737900 -2.29914784 15 7 1109 14.95600000 3185352928 3185352928 -8.84300000
3.74363589 16.88644981 -2.20161271 25 8 1110 17.43600000 3185352930 3185352930 -7.25400000
14.51695728 65.42771912 -0.38951445 28 10 1111 67.02000000 3185352933 3185352933 -0.33300000
3.19083142 18.64753532 -2.03784275 13 11 1111 19.02800000 3185352933 3185352933 -6.14800000
6.02842140 22.00601387 -2.12990618 5 12 1112 22.91600000 3185352935 3185352935 -5.33300000
21.93237495 80.00664520 0.96579081 28 14 1113 82.96400000 3185352937 3185352937 0.66700000
3.53372574 20.60816956 -1.46209574 5 15 1113 20.96000000 3185352937 3185352937 -4.00000000
5.48707056 24.66905975 -2.06307769 7 16 1114 25.35600000 3185352940 3185352940 -4.66700000
22.14732552 99.57111359 1.78049445 28 18 1114 102.02000000 3185352942 3185352942 1.00000000
3.26199770 26.79881668 -1.73017931 11 19 1114 27.05200000 3185352942 3185352942 -3.66700000
29.64689636 172.53477478 10.19525909 42 21 1115 175.36000000 3185352944 3185352944 3.33300000
5.98914242 34.81834793 -1.64571273 3 23 1116 35.36800000 3185352946 3185352946 -2.66700000
7.23374367 32.44168854 -1.74194992 6 24 1117 33.28400000 3185352949 3185352949 -3.00000000
3.37990689 27.60679626 -1.13312781 27 27 1118 27.83600000 3185352951 3185352951 -2.33300000
10.15179729 36.88100815 -1.33581316 7 28 1119 38.27600000 3185352953 3185352953 -2.00000000
8.37136078 48.46500778 -1.14445341 8 31 1120 49.19600000 3185352956 3185352956 -1.33300000
1.18953168 5.29128456 -2.52894759 14 0 1127 5.98400000 3185352976 3185352976 -25.00000000
7.02887392 56.67308807 -0.99681163 23 1 1127 57.11600000 3185352976 3185352976 -1.00000000
9.78756428 43.50164795 -1.29767048 10 2 1128 44.60800000 3185352979 3185352979 -1.66700000
1.38399172 7.94629145 -2.25796318 15 3 1128 8.37600000 3185352979 3185352979 -15.63900000
2.80808377 12.47059917 -2.55658507 13 4 1129 13.03600000 3185352981 3185352981 -11.31000000
14.39517593 51.94252777 -0.62750095 20 6 1129 53.90400000 3185352983 3185352983 -0.66700000
2.53690791 14.55082035 -2.29791784 14 7 1129 14.94800000 3185352983 3185352983 -8.84300000
3.51642799 15.60362244 -2.03594875 12 8 1130 16.12400000 3185352986 3185352986 -7.25400000
14.62820721 64.85769653 -0.38642251 28 10 1131 66.48800000 3185352988 3185352988 -0.33300000
3.27096176 18.72247124 -2.04726720 13 11 1131 19.11600000 3185352988 3185352988 -6.14800000
6.08495235 21.91192627 -2.12284255 5 12 1132 22.84000000 3185352990 3185352990 -5.33300000
21.91166496 78.85056305 0.95275283 28 14 1133 81.84400000 3185352992 3185352992 0.66700000
3.59256625 20.52103043 -1.45679414 15 15 1133 20.88400000 3185352992 3185352992 -4.00000000
5.56787300 24.62642479 -2.06112480 3 16 1134 25.33200000 3185352995 3185352995 -4.66700000
13.20787811 105.43898010 3.09255648 28 17 1134 106.30800000 3185352995 3185352995 1.66700000
22.05465317 97.54663086 1.74565947 28 18 1134 100.02400000 3185352997 3185352997 1.00000000
3.35949254 26.81895256 -1.73222601 23 19 1134 27.08400000 3185352997 3185352997 -3.66700000
7.93777943 28.52601814 -1.72440338 4 20 1135 29.66000000 3185352999 3185352999 -3.33300000
30.25380516 172.45776367 10.19688702 42 21 1135 175.38800000 3185352999 3185352999 3.33300000
47.17353821 208.30813599 8.70158863 28 22 1136 213.76000000 3185353002 3185353002 2.33300000
6.09682322 34.71851730 -1.64199030 3 23 1136 35.28800000 3185353002 3185353002 -2.66700000
7.33369827 32.35780716 -1.73880982 6 24 1137 33.22400000 3185353004 3185353004 -3.00000000
3.37035084 26.75417519 -1.09860814 10 27 1138 26.98800000 3185353006 3185353006 -2.33300000
10.23427677 36.67977524 -1.32981038 7 28 1139 38.10400000 3185353009 3185353009 -2.00000000
8.53562260 48.40792465 -1.14380205 8 31 1140 49.16800000 3185353011 3185353011 -1.33300000
1.23114252 5.39708900 -2.58135223 14 0 1145 6.10800000 3185353032 3185353032 -25.00000000
7.15641069 56.25398254 -0.98983067 22 1 1145 56.71600000 3185353032 3185353032 -1.00000000
9.87256622 43.24459839 -1.29092157 10 2 1146 44.37600000 3185353034 3185353034 -1.66700000
1.40625751 7.92673349 -2.25364995 16 3 1146 8.36000000 3185353034 3185353034 -15.63900000
2.84637380 12.45789146 -2.55580044 21 4 1147 13.03200000 3185353036 3185353036 -11.31000000
14.55828667 51.89704895 -0.62750095 20 6 1147 53.90400000 3185353039 3185353039 -0.66700000
2.59712100 14.62450123 -2.31083107 17 7 1147 15.03200000 3185353039 3185353039 -8.84300000
3.50705361 15.33720016 -2.00261402 21 8 1148 15.86000000 3185353041 3185353041 -7.25400000
14.80958366 64.71393585 -0.38584134 28 10 1149 66.38800000 3185353043 3185353043 -0.33300000
3.31861591 18.64945602 -2.04041290 14 11 1149 19.05200000 3185353043 3185353043 -6.14800000
6.14513922 21.86202812 -2.11986828 5 12 1150 22.80800000 3185353045 3185353045 -5.33300000
21.87877464 77.78410339 0.94069266 28 14 1151 80.80800000 3185353048 3185353048 0.66700000
4.02825212 22.59164047 -1.60467792 18 15 1151 23.00400000 3185353048 3185353048 -4.00000000
5.61757803 24.48835182 -2.05103564 7 16 1152 25.20800000 3185353050 3185353050 -4.66700000
22.06142998 96.17098999 1.72227323 28 18 1152 98.68400000 3185353052 3185353052 1.00000000
3.44169569 26.79242897 -1.73120272 11 19 1152 27.06800000 3185353052 3185353052 -3.66700000
8.06849575 28.64699936 -1.73324049 4 20 1153 29.81200000 3185353055 3185353055 -3.33300000
30.82143211 172.50732422 10.20549107 42 21 1153 175.53600000 3185353055 3185353055 3.33300000
6.19320202 34.62839508 -1.63864005 3 23 1154 35.21600000 3185353057 3185353057 -2.66700000
7.40667105 32.21003342 -1.73211086 6 24 1155 33.09600000 3185353059 3185353059 -3.00000000
3.46769643 26.84651375 -1.10284162 21 27 1156 27.09200000 3185353062 3185353062 -2.33300000
10.34185410 36.62051392 -1.32883322 7 28 1157 38.07600000 3185353064 3185353064 -2.00000000
8.62413979 48.07537079 -1.13654399 8 31 1157 48.85600000 3185353066 3185353066 -1.33300000
1.23523986 5.32918978 -2.55092382 14 0 1165 6.03600000 3185353087 3185353087 -25.00000000
7.35273027 56.22866058 -0.98983067 22 1 1165 56.71600000 3185353087 3185353087 -1.00000000
10.01532650 43.17481995 -1.28987432 10 2 1166 44.34000000 3185353089 3185353089 -1.66700000
1.44695401 7.99379253 -2.27413774 20 3 1166 8.43600000 3185353089 3185353089 -15.63900000
2.74526167 11.82510376 -2.42793202 10 4 1167 12.38000000 3185353092 3185353092 -11.31000000
14.63895893 51.45863342 -0.62284452 19 6 1168 53.50400000 3185353094 3185353094 -0.66700000
2.69232059 14.84433556 -2.34711075 14 7 1168 15.26800000 3185353094 3185353094 -8.84300000
3.74376106 16.11333275 -2.10564899 11 8 1168 16.67600000 3185353096 3185353096 -7.25400000
15.01274014 64.56445312 -0.38526013 28 10 1169 66.28800000 3185353098 3185353098 -0.33300000
3.33396554 18.36384583 -2.01042581 12 11 1169 18.77200000 3185353098 3185353098 -6.14800000
6.21705008 21.82512283 -2.11838126 5 12 1170 22.79200000 3185353101 3185353101 -5.33300000
21.87605095 76.74563599 0.92905158 28 14 1171 79.80800000 3185353103 3185353103 0.66700000
4.10994387 22.59314537 -1.60579407 38 15 1171 23.02000000 3185353103 3185353103 -4.00000000
5.69849968 24.44917870 -2.04940844 7 16 1172 25.18800000 3185353105 3185353105 -4.66700000
22.06126595 94.57828522 1.69518709 28 18 1173 97.13200000 3185353108 3185353108 1.00000000
3.54405665 26.81129456 -1.73324931 11 19 1173 27.10000000 3185353108 3185353108 -3.66700000
8.16077137 28.59178162 -1.73161256 4 20 1173 29.78400000 3185353110 3185353110 -3.33300000
31.45419884 172.56761169 10.21549129 42 21 1173 175.70800000 3185353110 3185353110 3.33300000
6.29395914 34.49650574 -1.63342857 3 23 1174 35.10400000 3185353112 3185353112 -2.66700000
7.50906372 32.14119339 -1.72980797 6 24 1175 33.05200000 3185353115 3185353115 -3.00000000
3.65077686 27.50777626 -1.13052261 18 27 1176 27.77200000 3185353117 3185353117 -2.33300000
10.42012691 36.41124344 -1.32255137 7 28 1177 37.89600000 3185353119 3185353119 -2.00000000
8.77750492 47.96630096 -1.13468289 8 31 1177 48.77600000 3185353122 3185353122 -1.33300000
1.24137115 5.27191496 -2.52556682 12 0 1185 5.97600000 3185353142 3185353142 -25.00000000
7.48613644 55.73492432 -0.98159313 21 1 1185 56.24400000 3185353142 3185353142 -1.00000000
10.12928963 42.98392868 -1.28521979 10 2 1186 44.18000000 3185353145 3185353145 -1.66700000
1.52030396 8.23490715 -2.34422731 17 3 1186 8.69600000 3185353145 3185353145 -15.63900000
2.76221347 11.71237373 -2.40675139 15 4 1187 12.27200000 3185353147 3185353147 -11.31000000
14.79744530 51.33419800 -0.62195981 19 6 1188 53.42800000 3185353149 3185353149 -0.66700000
2.74699616 14.85039330 -2.34957027 14 7 1188 15.28400000 3185353149 3185353149 -8.84300000
3.78266621 16.02679062 -2.09605241 15 8 1188 16.60000000 3185353151 3185353151 -7.25400000
15.16170120 64.18854523 -0.38333058 28 10 1189 65.95600000 3185353154 3185353154 -0.33300000
3.46972966 18.73923874 -2.05283618 13 11 1189 19.16800000 3185353154 3185353154 -6.14800000
6.28104687 21.76119804 -2.11429167 5 12 1190 22.74800000 3185353156 3185353156 -5.33300000
21.91073990 75.86184692 0.91927308 28 14 1191 78.96800000 3185353158 3185353158 0.66700000
5.77737904 24.40198326 -2.04713011 3 16 1192 25.16000000 3185353161 3185353161 -4.66700000
22.03569603 93.07242584 1.66949725 28 18 1192 95.66000000 3185353163 3185353163 1.00000000
3.50907779 25.88564301 -1.67415249 10 19 1192 26.17600000 3185353163 3185353163 -3.66700000
8.24943161 28.52476120 -1.72928703 4 20 1193 29.74400000 3185353165 3185353165 -3.33300000
32.04397202 172.39001465 10.21153736 42 21 1193 175.64000000 3185353165 3185353165 3.33300000
49.27976990 207.81993103 8.70158863 28 22 1194 213.76000000 3185353168 3185353168 2.33300000
6.39752531 34.38397598 -1.62914765 3 23 1194 35.01200000 3185353168 3185353168 -2.66700000
7.58800793 31.97487068 -1.72227168 6 24 1195 32.90800000 3185353170 3185353170 -3.00000000
3.79264474 27.83147240 -1.14436305 7 27 1196 28.11200000 3185353172 3185353172 -2.33300000
10.54604912 36.37080765 -1.32241178 7 28 1197 37.89200000 3185353175 3185353175 -2.00000000
8.90894127 47.74274826 -1.13012338 8 31 1197 48.58000000 3185353177 3185353177 -1.33300000
1.26566851 5.29223013 -2.53740001 15 0 1205 6.00400000 3185353198 3185353198 -25.00000000
7.65332985 55.51035690 -0.97810268 21 1 1205 56.04400000 3185353198 3185353198 -1.00000000
10.27182484 42.91720200 -1.28428888 10 2 1206 44.14800000 3185353200 3185353200 -1.66700000
1.52196383 8.08570290 -2.30325198 16 3 1206 8.54400000 3185353200 3185353200 -15.63900000
2.87799978 12.01544380 -2.47107792 12 4 1207 12.60000000 3185353203 3185353203 -11.31000000
14.96087074 51.26181030 -0.62168038 19 6 1207 53.40400000 3185353205 3185353205 -0.66700000
2.79842234 14.85285473 -2.35141516 15 7 1207 15.29600000 3185353205 3185353205 -8.84300000
3.81361318 15.90930462 -2.08241558 15 8 1208 16.49200000 3185353207 3185353207 -7.25400000
15.32315254 63.87463379 -0.38177299 28 10 1209 65.68800000 3185353210 3185353210 -0.33300000
3.52479267 18.67230034 -2.04683876 13 11 1209 19.11200000 3185353210 3185353210 -6.14800000
6.35249805 21.72385025 -2.11280465 5 12 1210 22.73200000 3185353212 3185353212 -5.33300000
21.85191536 74.67933655 0.90586251 28 14 1211 77.81600000 3185353214 3185353214 0.66700000
4.21863079 22.30513191 -1.58737826 4 15 1211 22.75600000 3185353214 3185353214 -4.00000000
5.85599804 24.35453415 -2.04485202 3 16 1212 25.13200000 3185353216 3185353216 -4.66700000
22.05657196 91.73115540 1.64680910 28 18 1212 94.36000000 3185353219 3185353219 1.00000000
3.50700855 25.20900917 -1.63117313 23 19 1212 25.50400000 3185353219 3185353219 -3.66700000
8.31639099 28.38465881 -1.72254288 4 20 1213 29.62800000 3185353221 3185353221 -3.33300000
32.69534302 172.53997803 10.22711849 42 21 1213 175.90800000 3185353221 3185353221 3.33300000
6.49517059 34.24366379 -1.62356400 3 23 1214 34.89200000 3185353223 3185353223 -2.66700000
7.69302368 31.92100525 -1.72080624 6 24 1215 32.88000000 3185353226 3185353226 -3.00000000
3.84438729 27.49349213 -1.13101113 11 27 1216 27.78400000 3185353228 3185353228 -2.33300000
10.66618252 36.31076050 -1.32157409 7 28 1217 37.86800000 3185353230 3185353230 -2.00000000
9.04564953 47.55421829 -1.12640131 7 31 1217 48.42000000 3185353233 3185353233 -1.33300000
1.29012275 5.31243992 -2.54923344 15 0 1225 6.03200000 3185353253 3185353253 -25.00000000
7.80112553 55.15858459 -0.97237825 20 1 1225 55.71600000 3185353253 3185353253 -1.00000000
10.37813663 42.70236588 -1.27893627 9 2 1226 43.96400000 3185353256 3185353256 -1.66700000
1.53421259 7.99711657 -2.27952933 15 3 1226 8.45600000 3185353256 3185353256 -15.63900000
2.95422149 12.14633942 -2.50010324 12 4 1227 12.74800000 3185353258 3185353258 -11.31000000
15.07507992 50.99064255 -0.61902624 19 6 1227 53.17600000 3185353260 3185353260 -0.66700000
2.87186670 14.95556068 -2.36924744 12 7 1227 15.41200000 3185353260 3185353260 -8.84300000
3.86161637 15.86505222 -2.07837486 8 8 1228 16.46000000 3185353263 3185353263 -7.25400000
15.53466320 63.77412033 -0.38149402 28 10 1229 65.64000000 3185353265 3185353265 -0.33300000
3.59220386 18.67160034 -2.04812407 13 11 1229 19.12400000 3185353265 3185353265 -6.14800000
6.42037201 21.67481232 -2.11020207 5 12 1230 22.70400000 3185353267 3185353267 -5.33300000
21.87490082 73.80112457 0.89613056 28 14 1231 76.98000000 3185353269 3185353269 0.66700000
4.20281649 21.80442238 -1.55277908 4 15 1231 22.26000000 3185353269 3185353269 -4.00000000
5.91639090 24.23324585 -2.03639007 3 16 1232 25.02800000 3185353272 3185353272 -4.66700000
22.05792046 90.34815216 1.62335300 28 18 1232 93.01600000 3185353274 3185353274 1.00000000
3.55269599 24.90023041 -1.61198580 13 19 1232 25.20400000 3185353274 3185353274 -3.66700000
8.41087627 28.34014320 -1.72161269 4 20 1233 29.61200000 3185353276 3185353276 -3.33300000
33.31634903 172.52282715 10.23293304 42 21 1233 176.00800000 3185353276 3185353276 3.33300000
6.60404778 34.16585922 -1.62095821 3 23 1234 34.83600000 3185353279 3185353279 -2.66700000
7.78731203 31.82411766 -1.71703804 19 24 1235 32.80800000 3185353281 3185353281 -3.00000000
3.80588841 26.54228210 -1.09242058 14 27 1236 26.83600000 3185353283 3185353283 -2.33300000
10.74498367 36.11238480 -1.31571102 6 28 1237 37.70000000 3185353286 3185353286 -2.00000000
9.17430210 47.32999039 -1.12184167 7 31 1237 48.22400000 3185353288 3185353288 -1.33300000
1.33122194 5.39941978 -2.59318566 14 0 1245 6.13600000 3185353309 3185353309 -25.00000000
7.97926998 55.03207016 -0.97063303 20 1 1245 55.61600000 3185353309 3185353309 -1.00000000
10.48977757 42.51448441 -1.27439809 9 2 1246 43.80800000 3185353311 3185353311 -1.66700000
1.59167600 8.14292717 -2.32266140 19 3 1246 8.61600000 3185353311 3185353311 -15.63900000
2.91291928 11.79704571 -2.43028545 16 4 1247 12.39200000 3185353313 3185353313 -11.31000000
15.26904202 50.99135590 -0.61967814 19 6 1247 53.23200000 3185353316 3185353316 -0.66700000
2.91570592 14.90277672 -2.36248350 17 7 1247 15.36800000 3185353316 3185353316 -8.84300000
3.69804049 14.96548843 -1.96220815 12 8 1248 15.54000000 3185353318 3185353318 -7.25400000
15.52864933 62.79535675 -0.37596107 28 10 1249 64.68800000 3185353320 3185353320 -0.33300000
3.66959763 18.72138977 -2.05497813 13 11 1249 19.18800000 3185353320 3185353320 -6.14800000
6.47539139 21.58360481 -2.10351014 5 12 1250 22.63200000 3185353322 3185353322 -5.33300000
21.84372330 72.76277924 0.88444293 28 14 1251 75.97600000 3185353325 3185353325 0.66700000
5.41994333 27.60018349 -1.96685350 3 15 1251 28.19600000 3185353325 3185353325 -4.00000000
5.99231291 24.17761993 -2.03346086 7 16 1252 24.99200000 3185353327 3185353327 -4.66700000
21.99127960 88.66352844 1.59452164 28 18 1253 91.36400000 3185353329 3185353329 1.00000000
3.64798403 24.91469002 -1.61377668 13 19 1253 25.23200000 3185353329 3185353329 -3.66700000
8.49825573 28.27236938 -1.71928716 4 20 1253 29.57200000 3185353332 3185353332 -3.33300000
33.93763733 172.50343323 10.23874664 42 21 1253 176.10800000 3185353332 3185353332 3.33300000
6.69856453 34.01714706 -1.61500227 3 23 1254 34.70800000 3185353334 3185353334 -2.66700000
7.83960962 31.56026077 -1.70426810 12 24 1255 32.56400000 3185353336 3185353336 -3.00000000
3.89619064 26.51301765 -1.09176922 7 27 1256 26.82000000 3185353339 3185353339 -2.33300000
10.82599068 35.92538071 -1.31026673 6 28 1257 37.54400000 3185353341 3185353341 -2.00000000
9.28987980 47.04659271 -1.11588633 7 31 1257 47.96800000 3185353343 3185353343 -1.33300000
1.35974228 5.43342447 -2.61178088 18 0 1265 6.18000000 3185353364 3185353364 -25.00000000
8.14428520 54.82190704 -0.96742177 20 1 1265 55.43200000 3185353364 3185353364 -1.00000000
10.62743282 42.43494415 -1.27311814 9 2 1266 43.76400000 3185353366 3185353366 -1.66700000
1.62986815 8.18643284 -2.33667922 24 3 1266 8.66800000 3185353366 3185353366 -15.63900000
2.96075559 11.81343842 -2.43577671 19 4 1267 12.42000000 3185353368 3185353368 -11.31000000
14.91307640 74.83656311 0.00000000 26 5 1267 76.30800000 3185353368 3185353368 0.00000000
15.40240765 50.75898743 -0.61753619 18 6 1268 53.04800000 3185353371 3185353371 -0.66700000
2.96180344 14.84935284 -2.35571933 13 7 1268 15.32400000 3185353371 3185353371 -8.84300000
3.75218797 14.96018600 -1.96321833 12 8 1268 15.54800000 3185353373 3185353373 -7.25400000
15.79644012 62.93474960 -0.37712345 28 10 1269 64.88800000 3185353375 3185353375 -0.33300000
3.75906157 18.82936859 -2.06825829 11 11 1269 19.31200000 3185353375 3185353375 -6.14800000
6.53795767 21.51895142 -2.09942055 5 12 1270 22.58800000 3185353378 3185353378 -5.33300000
