# .PCD v0.7 - Point Cloud Data file format
VERSION 0.7
FIELDS x y z intensity laser_id azimuth distance_m adjustedtime timestamp vertical_angle
SIZE 4 4 4 1 1 2 8 8 4 8
TYPE F F F U U U F U U F
COUNT 1 1 1 1 1 1 1 1 1 1
WIDTH 523
HEIGHT 1
VIEWPOINT 0 0 0 1 0 0 0
POINTS 523
DATA ascii
6.11203384 33.69921112 -1.79491401 7 24 888 34.29600000 3182252281 3182252281 -3.00000000
3.07343316 37.46295929 -1.53140783 20 27 889 37.62000000 3182252283 3182252283 -2.33300000
8.91284275 38.30065918 -1.37322545 7 28 890 39.34800000 3182252286 3182252286 -2.00000000
1.00197649 5.47009373 -2.59318566 14 0 898 6.13600000 3182252309 3182252309 -25.00000000
5.04769564 60.36409378 -1.05733657 28 1 898 60.58400000 3182252309 3182252309 -1.00000000
8.35232258 45.55300522 -1.34782267 10 2 899 46.33200000 3182252311 3182252311 -1.66700000
1.08368921 8.13269997 -2.29678202 25 3 899 8.52000000 3182252311 3182252311 -15.63900000
2.24665594 12.24106503 -2.48912072 13 4 900 12.69200000 3182252313 3182252313 -11.31000000
12.76394844 54.41937256 -0.65073657 22 6 900 55.90000000 3182252316 3182252316 -0.66700000
1.91740000 14.37024498 -2.25548911 17 7 900 14.67200000 3182252316 3182252316 -8.84300000
3.24145913 17.64397621 -2.28343463 15 8 901 18.08400000 3182252318 3182252318 -7.25400000
12.56683540 68.33694458 -0.40383500 28 10 902 69.48400000 3182252320 3182252320 -0.33300000
2.39315486 17.88822746 -1.94402564 10 11 902 18.15200000 3182252320 3182252320 -6.14800000
5.31210423 22.59504890 -2.16671205 5 12 903 23.31200000 3182252322 3182252322 -5.33300000
22.08803749 93.87797546 1.12275922 28 14 904 96.44800000 3182252325 3182252325 0.66700000
3.58510542 26.72677231 -1.88565695 9 15 904 27.03200000 3182252325 3182252325 -4.00000000
3.79701972 20.58713341 -1.70897937 23 16 905 21.00400000 3182252327 3182252327 -4.66700000
14.54425240 78.85775757 1.39968300 28 18 905 80.20000000 3182252329 3182252329 1.00000000
2.37631822 28.00570107 -1.80130017 8 19 905 28.16400000 3182252329 3182252329 -3.66700000
6.98304415 29.63274384 -1.77300763 4 20 906 30.49600000 3182252332 3182252332 -3.33300000
3.59544730 26.69777298 -1.25485134 14 23 907 26.96800000 3182252334 3182252334 -2.66700000
6.21655083 33.60697174 -1.79114580 7 24 908 34.22400000 3182252336 3182252336 -3.00000000
3.19464517 37.34049988 -1.52684867 20 27 909 37.50800000 3182252339 3182252339 -2.33300000
8.99682236 38.05923843 -1.36568713 7 28 910 39.13200000 3182252341 3182252341 -2.00000000
6.85180664 50.67705536 -1.18995619 8 31 910 51.15200000 3182252343 3182252343 -1.33300000
1.00880551 5.40615797 -2.56444764 14 0 917 6.06800000 3182252364 3182252364 -25.00000000
5.21561956 59.97647858 -1.05084431 28 1 917 60.21200000 3182252364 3182252364 -1.00000000
8.48057842 45.40321732 -1.34421539 10 2 918 46.20800000 3182252366 3182252366 -1.66700000
1.13568103 8.31225204 -2.34854054 15 3 918 8.71200000 3182252366 3182252366 -15.63900000
2.24686909 12.01763916 -2.44519043 13 4 919 12.46800000 3182252369 3182252369 -11.31000000
11.31835365 82.73338318 0.00000000 28 5 919 83.50400000 3182252369 3182252369 0.00000000
12.90748310 54.17994308 -0.64840835 22 6 920 55.70000000 3182252371 3182252371 -0.66700000
1.96111298 14.31647301 -2.24811029 16 7 920 14.62400000 3182252371 3182252371 -8.84300000
3.23133874 17.26650620 -2.23595762 12 8 920 17.70800000 3182252373 3182252373 -7.25400000
12.83020401 68.49147034 -0.40499741 28 10 921 69.68400000 3182252375 3182252375 -0.33300000
2.55892539 18.65639305 -2.02841806 15 11 921 18.94000000 3182252375 3182252375 -6.14800000
5.37313795 22.51920128 -2.16113544 5 12 922 23.25200000 3182252378 3182252378 -5.33300000
22.05922508 92.38034821 1.10571659 28 14 923 94.98400000 3182252380 3182252380 0.66700000
3.47312307 25.25605965 -1.78269649 25 15 923 25.55600000 3182252380 3182252380 -4.00000000
3.88661528 20.68805695 -1.71841764 26 16 924 21.12000000 3182252382 3182252382 -4.66700000
14.93029690 79.39608002 1.41015446 28 18 925 80.80000000 3182252385 3182252385 1.00000000
2.48425198 28.11254883 -1.80871916 12 19 925 28.28000000 3182252385 3182252385 -3.66700000
7.07848501 29.59777451 -1.77230990 4 20 925 30.48400000 3182252387 3182252387 -3.33300000
3.70581722 26.84402847 -1.26229632 14 23 926 27.12800000 3182252389 3182252389 -2.66700000
6.30651283 33.47233200 -1.78507483 7 24 927 34.10800000 3182252392 3182252392 -3.00000000
3.34711862 37.65216064 -1.54003787 21 27 928 37.83200000 3182252394 3182252394 -2.33300000
9.11179161 37.98254395 -1.36401188 7 28 929 39.08400000 3182252396 3182252396 -2.00000000
6.99237299 50.45600128 -1.18530357 8 31 929 50.95200000 3182252399 3182252399 -1.33300000
1.00531495 5.28507853 -2.50866199 13 0 937 5.93600000 3182252419 3182252419 -25.00000000
5.39323044 59.60739136 -1.04470110 27 1 937 59.86000000 3182252419 3182252419 -1.00000000
8.59489155 45.14160156 -1.33735001 10 2 938 45.97200000 3182252422 3182252422 -1.66700000
1.19142687 8.49896812 -2.40245557 14 3 938 8.91200000 3182252422 3182252422 -15.63900000
2.25943303 11.85560417 -2.41381168 16 4 939 12.30800000 3182252424 3182252424 -11.31000000
13.05044365 53.94406891 -0.64612669 22 6 940 55.50400000 3182252426 3182252426 -0.66700000
1.94506574 13.83986187 -2.17432117 14 7 940 14.14400000 3182252426 3182252426 -8.84300000
3.30199957 17.30968857 -2.24302864 16 8 940 17.76400000 3182252428 3182252428 -7.25400000
12.95667553 67.85692596 -0.40151024 28 10 941 69.08400000 3182252431 3182252431 -0.33300000
2.60685325 18.52526283 -2.01513815 12 11 941 18.81600000 3182252431 3182252431 -6.14800000
5.43764400 22.44224739 -2.15555882 5 12 942 23.19200000 3182252433 3182252433 -5.33300000
23.40993309 166.14949036 3.90439248 8 13 942 167.83600000 3182252433 3182252433 1.33300000
22.03470230 90.87232971 1.08858097 28 14 943 93.51200000 3182252435 3182252435 0.66700000
3.55791759 25.22007561 -1.78102231 14 15 943 25.53200000 3182252435 3182252435 -4.00000000
3.96330500 20.69785690 -1.72037041 28 16 944 21.14400000 3182252438 3182252438 -4.66700000
22.35099602 116.72523499 2.07446289 28 18 944 118.86400000 3182252440 3182252440 1.00000000
2.58329582 28.16775894 -1.81281245 8 19 944 28.34400000 3182252440 3182252440 -3.66700000
7.19777727 29.63885307 -1.77626336 5 20 945 30.55200000 3182252442 3182252442 -3.33300000
6.41126204 33.38734818 -1.78172529 7 24 947 34.04400000 3182252447 3182252447 -3.00000000
3.47521877 37.60443115 -1.53857243 21 27 948 37.79600000 3182252449 3182252449 -2.33300000
9.20458412 37.78738022 -1.35814881 7 28 949 38.91600000 3182252452 3182252452 -2.00000000
7.14819527 50.28875732 -1.18195367 8 31 949 50.80800000 3182252454 3182252454 -1.33300000
1.04307330 5.38118839 -2.55599523 15 0 957 6.04800000 3182252474 3182252474 -25.00000000
5.56233978 59.17409134 -1.03744090 27 1 957 59.44400000 3182252474 3182252474 -1.00000000
8.74403572 45.06814957 -1.33607006 10 2 958 45.92800000 3182252476 3182252476 -1.66700000
1.19368339 8.30412102 -2.34854054 15 3 958 8.71200000 3182252476 3182252476 -15.63900000
2.35164952 12.10947132 -2.46715546 12 4 959 12.58000000 3182252479 3182252479 -11.31000000
13.19493484 53.76065445 -0.64445037 22 6 959 55.36000000 3182252481 3182252481 -0.66700000
2.05851579 14.30279350 -2.24811029 17 7 959 14.62400000 3182252481 3182252481 -8.84300000
3.37830138 17.37985420 -2.25363517 21 8 960 17.84800000 3182252483 3182252483 -7.25400000
13.19346142 67.81128693 -0.40151024 28 10 961 69.08400000 3182252486 3182252486 -0.33300000
2.64992166 18.36647415 -1.99885929 22 11 961 18.66400000 3182252486 3182252486 -6.14800000
5.51024103 22.39992523 -2.15332818 5 12 962 23.16800000 3182252488 3182252488 -5.33300000
24.00691414 166.18550110 3.90718389 28 13 962 167.95600000 3182252488 3182252488 1.33300000
22.02478600 89.46661377 1.07265592 28 14 963 92.14400000 3182252490 3182252490 0.66700000
3.60537553 24.92711258 -1.76121140 19 15 963 25.24800000 3182252490 3182252490 -4.00000000
4.03858376 20.69954872 -1.72167230 31 16 964 21.16000000 3182252492 3182252492 -4.66700000
22.27275085 114.15781403 2.03020358 28 18 964 116.32800000 3182252495 3182252495 1.00000000
2.78302503 29.22355652 -1.88137496 13 19 964 29.41600000 3182252495 3182252495 -3.66700000
7.23619127 29.34990120 -1.76044953 4 20 965 30.28000000 3182252497 3182252497 -3.33300000
3.84950519 26.51698303 -1.24815083 16 23 966 26.82400000 3182252499 3182252499 -2.66700000
6.49938822 33.21971893 -1.77397954 6 24 967 33.89600000 3182252502 3182252502 -3.00000000
3.59844637 37.50852585 -1.53515291 20 27 968 37.71200000 3182252504 3182252504 -2.33300000
9.32683372 37.71621323 -1.35675287 7 28 969 38.87600000 3182252506 3182252506 -2.00000000
7.29082775 50.03794479 -1.17664969 8 31 969 50.58000000 3182252509 3182252509 -1.33300000
1.07800329 5.45931578 -2.59487605 15 0 977 6.14000000 3182252529 3182252529 -25.00000000
5.76614475 59.12645340 -1.03695214 27 1 977 59.41600000 3182252529 3182252529 -1.00000000
8.87184048 44.88829803 -1.33164823 10 2 978 45.77600000 3182252532 3182252532 -1.66700000
1.18168294 8.02171612 -2.26982450 21 3 978 8.42000000 3182252532 3182252532 -15.63900000
2.40760636 12.17044830 -2.48127604 16 4 979 12.65200000 3182252534 3182252534 -11.31000000
11.97982502 81.22531128 0.00000000 28 5 979 82.10400000 3182252534 3182252534 0.00000000
13.36897659 53.65993118 -0.64379847 22 6 979 55.30400000 3182252536 3182252536 -0.66700000
2.09689522 14.21731758 -2.23581195 16 7 979 14.54400000 3182252536 3182252536 -8.84300000
3.43046975 17.32513809 -2.24807954 15 8 980 17.80400000 3182252539 3182252539 -7.25400000
2.73495603 18.49874496 -2.01428127 13 11 981 18.80800000 3182252541 3182252541 -6.14800000
5.58357334 22.36123466 -2.15146923 5 12 982 23.14800000 3182252543 3182252543 -5.33300000
22.00823593 88.07373047 1.05687070 28 14 983 90.78800000 3182252545 3182252545 0.66700000
3.69178033 24.91042709 -1.76093245 13 15 983 25.24400000 3182252545 3182252545 -4.00000000
4.11236811 20.69314575 -1.72232318 18 16 984 21.16800000 3182252548 3182252548 -4.66700000
22.30860519 112.25532532 1.99774206 28 18 984 114.46800000 3182252550 3182252550 1.00000000
2.87324810 29.09449005 -1.87370002 13 19 984 29.29600000 3182252550 3182252550 -3.66700000
7.36671066 29.43680382 -1.76719368 4 20 985 30.39600000 3182252552 3182252552 -3.33300000
3.94145536 26.49943161 -1.24796474 4 23 986 26.82000000 3182252555 3182252555 -2.66700000
6.60359716 33.13806915 -1.77083945 6 24 987 33.83600000 3182252557 3182252557 -3.00000000
3.52168369 35.40777969 -1.44966769 18 27 988 35.61200000 3182252559 3182252559 -2.33300000
9.41950321 37.52833557 -1.35116887 7 28 989 38.71600000 3182252562 3182252562 -2.00000000
7.43592882 49.81443405 -1.17199695 8 31 989 50.38000000 3182252564 3182252564 -1.33300000
1.10705900 5.50527668 -2.61854267 14 0 997 6.19600000 3182252585 3182252585 -25.00000000
5.92223930 58.60857391 -1.02822602 26 1 997 58.91600000 3182252585 3182252585 -1.00000000
8.98666286 44.64931107 -1.32548106 10 2 998 45.56400000 3182252587 3182252587 -1.66700000
1.21312475 8.04039478 -2.27629447 15 3 998 8.44400000 3182252587 3182252587 -15.63900000
2.45627117 12.19272995 -2.48755169 18 4 999 12.68400000 3182252589 3182252589 -11.31000000
13.50717926 53.41905594 -0.64147025 21 6 999 55.10400000 3182252592 3182252592 -0.66700000
2.16599178 14.33887863 -2.25610399 16 7 999 14.67600000 3182252592 3182252592 -8.84300000
3.37563276 16.74127197 -2.17383385 9 8 1000 17.21600000 3182252594 3182252594 -7.25400000
2.81915975 18.61884689 -2.02841806 13 11 1001 18.94000000 3182252596 3182252596 -6.14800000
5.65572453 22.31844330 -2.14923859 5 12 1002 23.12400000 3182252598 3182252598 -5.33300000
22.02746010 86.86040497 1.04322731 28 14 1003 89.61600000 3182252601 3182252601 0.66700000
3.78948903 24.96840096 -1.76595485 11 15 1003 25.31600000 3182252601 3182252601 -4.00000000
2.73615432 26.70512009 -1.72045779 11 19 1005 26.90000000 3182252605 3182252605 -3.66700000
7.45369244 29.34898376 -1.76347280 4 20 1005 30.33200000 3182252608 3182252608 -3.33300000
5.38940477 35.38512039 -1.66730320 3 23 1006 35.83200000 3182252610 3182252610 -2.66700000
6.69937229 33.01694489 -1.76560581 6 24 1007 33.73600000 3182252612 3182252612 -3.00000000
3.64730573 35.41514587 -1.45048177 12 27 1008 35.63200000 3182252615 3182252615 -2.33300000
9.54551125 37.47585678 -1.35047090 7 28 1009 38.69600000 3182252617 3182252617 -2.00000000
7.60191393 49.73678589 -1.17078733 8 31 1009 50.32800000 3182252619 3182252619 -1.33300000
1.12408805 5.49072409 -2.61347127 16 0 1017 6.18400000 3182252640 3182252640 -25.00000000
6.11638641 58.48810196 -1.02648079 26 1 1017 58.81600000 3182252640 3182252640 -1.00000000
9.11116123 44.46491241 -1.32094300 10 2 1018 45.40800000 3182252642 3182252642 -1.66700000
1.26176214 8.16934872 -2.31403494 21 3 1018 8.58400000 3182252642 3182252642 -15.63900000
2.51221323 12.24940205 -2.50088763 15 4 1019 12.75200000 3182252644 3182252644 -11.31000000
12.39377403 80.15143585 0.00000000 28 5 1019 81.10400000 3182252644 3182252644 0.00000000
13.60340977 52.98178482 -0.63681382 21 6 1020 54.70400000 3182252647 3182252647 -0.66700000
2.24816060 14.52223396 -2.28623462 17 7 1020 14.87200000 3182252647 3182252647 -8.84300000
3.43724155 16.74493599 -2.17585397 16 8 1020 17.23200000 3182252649 3182252649 -7.25400000
13.74184704 66.88578796 -0.39686072 28 10 1021 68.28400000 3182252651 3182252651 -0.33300000
2.85124254 18.39666939 -2.00528502 15 11 1021 18.72400000 3182252651 3182252651 -6.14800000
5.71177626 22.21370697 -2.14105964 5 12 1022 23.03600000 3182252654 3182252654 -5.33300000
21.88997459 85.07087708 1.02264583 28 14 1023 87.84800000 3182252656 3182252656 0.66700000
3.76698136 24.24922943 -1.71600926 23 15 1023 24.60000000 3182252656 3182252656 -4.00000000
4.17066431 20.24612236 -1.68749917 5 16 1024 20.74000000 3182252658 3182252658 -4.66700000
22.20493698 107.79190826 1.92102122 28 18 1024 110.07200000 3182252661 3182252661 1.00000000
2.78857422 26.35451126 -1.69845641 7 19 1024 26.55600000 3182252661 3182252661 -3.66700000
7.52321100 29.19517899 -1.75579846 4 20 1025 30.20000000 3182252663 3182252663 -3.33300000
5.51412010 35.37398529 -1.66767550 3 23 1026 35.84000000 3182252665 3182252665 -2.66700000
6.80165434 32.93076706 -1.76225626 6 24 1027 33.67200000 3182252668 3182252668 -3.00000000
3.83059311 35.96256256 -1.47344077 25 27 1028 36.19600000 3182252670 3182252670 -2.33300000
9.67126656 37.42295837 -1.34977293 7 28 1029 38.67600000 3182252672 3182252672 -2.00000000
7.73590040 49.40042877 -1.16352928 8 31 1030 50.01600000 3182252674 3182252674 -1.33300000
1.15286076 5.53290367 -2.63544750 14 0 1037 6.23600000 3182252695 3182252695 -25.00000000
6.26677942 57.96936798 -1.01775455 25 1 1037 58.31600000 3182252695 3182252695 -1.00000000
9.21489239 44.18624878 -1.31361210 10 2 1038 45.15600000 3182252697 3182252697 -1.66700000
1.28966951 8.16108990 -2.31295657 22 3 1038 8.58000000 3182252697 3182252697 -15.63900000
2.56777906 12.30199146 -2.51343918 15 4 1039 12.81600000 3182252700 3182252700 -11.31000000
13.83867836 53.12750244 -0.63914204 21 6 1040 54.90400000 3182252702 3182252702 -0.66700000
2.23700905 14.12391949 -2.22474360 14 7 1040 14.47200000 3182252702 3182252702 -8.84300000
3.48755693 16.69399452 -2.17080331 12 8 1040 17.19200000 3182252704 3182252704 -7.25400000
13.81232643 66.05827332 -0.39223444 28 10 1041 67.48800000 3182252707 3182252707 -0.33300000
2.92602968 18.45337868 -2.01256776 12 11 1041 18.79200000 3182252707 3182252707 -6.14800000
5.78325033 22.17051125 -2.13882899 5 12 1042 23.01200000 3182252709 3182252709 -5.33300000
21.92110252 83.97612762 1.01039946 28 14 1043 86.79600000 3182252711 3182252711 0.66700000
3.87352371 24.37386131 -1.72577512 26 15 1043 24.74000000 3182252711 3182252711 -4.00000000
4.19795752 20.02463913 -1.67024994 5 16 1044 20.52800000 3182252714 3182252714 -4.66700000
22.19866943 105.88967896 1.88848996 28 18 1044 108.20800000 3182252716 3182252716 1.00000000
2.87968397 26.33667946 -1.69794476 10 19 1044 26.54800000 3182252716 3182252716 -3.66700000
7.62103558 29.15328598 -1.75486827 4 20 1045 30.18400000 3182252718 3182252718 -3.33300000
5.61931801 35.24009323 -1.66227782 3 23 1046 35.72400000 3182252721 3182252721 -2.66700000
6.90259504 32.84037018 -1.75869751 6 24 1047 33.60400000 3182252723 3182252723 -3.00000000
3.95566535 35.94499969 -1.47327793 19 27 1048 36.19200000 3182252725 3182252725 -2.33300000
9.76939869 37.26522827 -1.34530580 7 28 1049 38.54800000 3182252727 3182252727 -2.00000000
7.88893557 49.30737686 -1.16194737 8 31 1049 49.94800000 3182252730 3182252730 -1.33300000
1.17968583 5.56431007 -2.65235209 14 0 1057 6.27600000 3182252750 3182252750 -25.00000000
6.43403769 57.63313675 -1.01223958 24 1 1057 58.00000000 3182252750 3182252750 -1.00000000
9.34334755 44.03256607 -1.31000495 10 2 1058 45.03200000 3182252753 3182252753 -1.66700000
1.33842838 8.28202343 -2.34854054 26 3 1058 8.71200000 3182252753 3182252753 -15.63900000
2.61152029 12.29679012 -2.51422358 12 4 1059 12.82000000 3182252755 3182252755 -11.31000000
13.93820095 52.79127884 -0.63564968 21 6 1059 54.60400000 3182252757 3182252757 -0.66700000
2.37725711 14.69387817 -2.31575036 15 7 1059 15.06400000 3182252757 3182252757 -8.84300000
3.66460729 17.24062157 -2.24353385 39 8 1060 17.76800000 3182252760 3182252760 -7.25400000
14.12522793 66.39698792 -0.39453596 28 10 1061 67.88400000 3182252762 3182252762 -0.33300000
3.00761247 18.54904747 -2.02413416 12 11 1061 18.90000000 3182252762 3182252762 -6.14800000
5.85143661 22.11553764 -2.13548303 5 12 1062 22.97600000 3182252764 3182252764 -5.33300000
13.01321793 80.16870880 1.88989747 28 13 1062 81.24000000 3182252764 3182252764 1.33300000
21.91312027 82.76234436 0.99670953 28 14 1063 85.62000000 3182252767 3182252767 0.66700000
3.97458148 24.45865631 -1.73275077 13 15 1063 24.84000000 3182252767 3182252767 -4.00000000
5.27324915 24.72380066 -2.06372857 3 16 1064 25.36400000 3182252769 3182252769 -4.66700000
22.20692635 104.11790466 1.85826242 28 18 1064 106.47600000 3182252771 3182252771 1.00000000
2.99577594 26.54066467 -1.71175957 3 19 1064 26.76400000 3182252771 3182252771 -3.66700000
7.71456575 29.09562683 -1.75300777 4 20 1065 30.15200000 3182252774 3182252774 -3.33300000
45.29232025 211.99177551 8.83168888 28 22 1066 216.95600000 3182252776 3182252776 2.33300000
5.72750664 35.12956238 -1.65799701 3 23 1066 35.63200000 3182252776 3182252776 -2.66700000
6.98878765 32.68326569 -1.75157976 6 24 1067 33.46800000 3182252778 3182252778 -3.00000000
3.64990759 32.13455200 -1.31761324 10 27 1068 32.36800000 3182252780 3182252780 -2.33300000
9.88811970 37.18840408 -1.34377027 7 28 1069 38.50400000 3182252783 3182252783 -2.00000000
8.01273441 48.93085098 -1.15375865 8 31 1070 49.59600000 3182252785 3182252785 -1.33300000
1.19528043 5.54243946 -2.64389992 14 0 1077 6.25600000 3182252806 3182252806 -25.00000000
6.62556601 57.52688980 -1.01077354 24 1 1077 57.91600000 3182252806 3182252806 -1.00000000
9.45818806 43.81990051 -1.30465221 10 2 1078 44.84800000 3182252808 3182252808 -1.66700000
1.36858547 8.28490162 -2.35069704 23 3 1078 8.72000000 3182252808 3182252808 -15.63900000
2.69832349 12.49079514 -2.55580044 13 4 1079 13.03200000 3182252810 3182252810 -11.31000000
13.03729153 78.83728790 0.00000000 28 5 1079 79.90800000 3182252810 3182252810 0.00000000
14.07066631 52.54912567 -0.63332146 20 6 1079 54.40400000 3182252813 3182252813 -0.66700000
2.40983295 14.57240486 -2.29791784 14 7 1079 14.94800000 3182252813 3182252813 -8.84300000
3.57969952 16.55676651 -2.15615630 22 8 1080 17.07600000 3182252815 3182252815 -7.25400000
14.23086071 65.76477051 -0.39107203 28 10 1081 67.28800000 3182252817 3182252817 -0.33300000
3.07949495 18.58159447 -2.02884650 16 11 1081 18.94400000 3182252817 3182252817 -6.14800000
5.92240572 22.07189751 -2.13325214 5 12 1082 22.95200000 3182252820 3182252820 -5.33300000
13.22425652 79.70857239 1.88012695 28 13 1082 80.82000000 3182252820 3182252820 1.33300000
21.94257545 81.71962738 0.98506844 28 14 1083 84.62000000 3182252822 3182252822 0.66700000
3.39700747 20.45319176 -1.44981849 10 15 1083 20.78400000 3182252822 3182252822 -4.00000000
5.36374521 24.72472382 -2.06535578 7 16 1084 25.38400000 3182252824 3182252824 -4.66700000
22.18867683 102.28093719 1.82684815 28 18 1084 104.67600000 3182252827 3182252827 1.00000000
7.73624086 28.77158928 -1.73510098 13 20 1085 29.84400000 3182252829 3182252829 -3.33300000
5.83302212 35.00688171 -1.65315771 3 23 1086 35.52800000 3182252831 3182252831 -2.66700000
7.09603977 32.62744522 -1.74990499 6 24 1087 33.43600000 3182252833 3182252833 -3.00000000
3.18510199 27.19540215 -1.11554229 15 27 1088 27.40400000 3182252836 3182252836 -2.33300000
10.01058578 37.12664413 -1.34279299 7 28 1089 38.47600000 3182252838 3182252838 -2.00000000
8.15510559 48.73298645 -1.14975739 16 31 1090 49.42400000 3182252840 3182252840 -1.33300000
1.19520462 5.44970655 -2.60163808 11 0 1097 6.15600000 3182252861 3182252861 -25.00000000
6.78767204 57.17774963 -1.00504923 23 1 1097 57.58800000 3182252861 3182252861 -1.00000000
9.59137440 43.69679642 -1.30197597 10 2 1098 44.75600000 3182252863 3182252863 -1.66700000
1.35326421 8.01799870 -2.27629447 21 3 1098 8.44400000 3182252863 3182252863 -15.63900000
2.76883912 12.60389137 -2.58090353 16 4 1099 13.16000000 3182252866 3182252866 -11.31000000
14.21523476 52.35686874 -0.63159859 20 6 1099 54.25600000 3182252868 3182252868 -0.66700000
2.47385478 14.64184856 -2.31021619 15 7 1099 15.02800000 3182252868 3182252868 -8.84300000
3.71330571 16.88908195 -2.20110774 12 8 1100 17.43200000 3182252870 3182252870 -7.25400000
3.12442040 18.45309639 -2.01599479 16 11 1101 18.82400000 3182252873 3182252873 -6.14800000
5.99314117 22.02803230 -2.13102150 5 12 1102 22.92800000 3182252875 3182252875 -5.33300000
13.49372292 79.61067200 1.87891734 28 13 1102 80.76800000 3182252875 3182252875 1.33300000
21.95030975 80.62369537 0.97277546 28 14 1103 83.56400000 3182252877 3182252877 0.66700000
3.46504426 20.42153931 -1.44842339 7 15 1103 20.76400000 3182252877 3182252877 -4.00000000
5.44486523 24.68249130 -2.06340313 7 16 1104 25.36000000 3182252880 3182252880 -4.66700000
22.14236832 100.37509155 1.79417717 28 18 1104 102.80400000 3182252882 3182252882 1.00000000
3.19382644 26.62611580 -1.71866703 11 19 1104 26.87200000 3182252882 3182252882 -3.66700000
7.80091381 28.61342049 -1.72719407 9 20 1105 29.70800000 3182252884 3182252884 -3.33300000
46.34089279 209.72303772 8.75043678 28 22 1106 214.96000000 3182252886 3182252886 2.33300000
5.94110298 34.90358734 -1.64924920 3 23 1106 35.44400000 3182252886 3182252886 -2.66700000
7.18401146 32.48546600 -1.74362469 6 24 1107 33.31600000 3182252889 3182252889 -3.00000000
3.32549477 27.56106949 -1.13101113 11 27 1108 27.78400000 3182252891 3182252891 -2.33300000
10.09162903 36.91409302 -1.33637154 7 28 1109 38.29200000 3182252893 3182252893 -2.00000000
8.31034279 48.61750412 -1.14771032 8 31 1110 49.33600000 3182252896 3182252896 -1.33300000
1.18187273 5.30042934 -2.53232861 13 0 1117 5.99200000 3182252916 3182252916 -25.00000000
6.94208288 56.78451538 -0.99855691 23 1 1117 57.21600000 3182252916 3182252916 -1.00000000
9.74471664 43.66695023 -1.30209231 10 2 1118 44.76000000 3182252919 3182252919 -1.66700000
1.37600946 7.98285818 -2.26766801 15 3 1118 8.41200000 3182252919 3182252919 -15.63900000
2.80426836 12.55586910 -2.57305884 13 4 1119 13.12000000 3182252921 3182252921 -11.31000000
14.34164906 52.10254669 -0.62913072 20 6 1119 54.04400000 3182252923 3182252923 -0.66700000
2.51150799 14.55522633 -2.29791784 17 7 1119 14.94800000 3182252923 3182252923 -8.84300000
3.77223682 16.87601852 -2.20110774 24 8 1120 17.43200000 3182252926 3182252926 -7.25400000
14.60231113 65.27346802 -0.38874727 28 10 1121 66.88800000 3182252928 3182252928 -0.33300000
3.24573350 18.77125931 -2.05197954 13 11 1121 19.16000000 3182252928 3182252928 -6.14800000
6.06787920 21.99929810 -2.13027811 5 12 1122 22.92000000 3182252930 3182252930 -5.33300000
13.77289772 79.57096100 1.87910342 28 13 1122 80.77600000 3182252930 3182252930 1.33300000
21.92193031 79.42461395 0.95922524 28 14 1123 82.40000000 3182252932 3182252932 0.66700000
3.91780090 22.61105537 -1.60467792 4 15 1123 23.00400000 3182252932 3182252932 -4.00000000
5.52924538 24.65555573 -2.06275201 7 16 1124 25.35200000 3182252935 3182252935 -4.66700000
22.09353256 98.51766205 1.76234400 28 18 1124 100.98000000 3182252937 3182252937 1.00000000
3.34105563 27.05455589 -1.74706411 11 19 1124 27.31600000 3182252937 3182252937 -3.66700000
7.89649057 28.57061958 -1.72626376 4 20 1125 29.69200000 3182252939 3182252939 -3.33300000
29.93705177 172.41981506 10.19153786 3 21 1125 175.29600000 3182252939 3182252939 3.33300000
6.04579782 34.78422165 -1.64459598 3 23 1126 35.34400000 3182252942 3182252942 -2.66700000
7.28246880 32.39393997 -1.74006593 6 24 1127 33.24800000 3182252944 3182252944 -3.00000000
3.42562151 27.58102226 -1.13231373 23 27 1128 27.81600000 3182252946 3182252946 -2.33300000
10.21615124 36.86323547 -1.33581316 7 28 1129 38.27600000 3182252949 3182252949 -2.00000000
8.45249748 48.43062592 -1.14398813 8 31 1130 49.17600000 3182252951 3182252951 -1.33300000
1.20104444 5.30355263 -2.53570962 17 0 1136 6.00000000 3182252972 3182252972 -25.00000000
7.09395933 56.47150040 -0.99346077 22 1 1136 56.92400000 3182252972 3182252972 -1.00000000
9.85588455 43.48621750 -1.29767048 10 2 1137 44.60800000 3182252974 3182252974 -1.66700000
1.39313757 7.92513895 -2.25257182 18 3 1137 8.35600000 3182252974 3182252974 -15.63900000
2.82593393 12.45852184 -2.55501604 16 4 1138 13.02800000 3182252976 3182252976 -11.31000000
14.46600628 51.88132477 -0.62703532 20 6 1138 53.86400000 3182252979 3182252979 -0.66700000
2.57346058 14.62467003 -2.31021619 16 7 1138 15.02800000 3182252979 3182252979 -8.84300000
3.70519948 16.32168198 -2.13039756 11 8 1139 16.87200000 3182252981 3182252981 -7.25400000
14.77437687 65.02966309 -0.38758489 28 10 1140 66.68800000 3182252983 3182252983 -0.33300000
3.28241134 18.61548042 -2.03612900 14 11 1140 19.01200000 3182252983 3182252983 -6.14800000
6.11507750 21.88699722 -2.12135553 5 12 1141 22.82400000 3182252985 3182252985 -5.33300000
14.02973843 79.48547363 1.87817287 28 13 1141 80.73600000 3182252985 3182252985 1.33300000
21.91380119 78.38076782 0.94749105 28 14 1142 81.39200000 3182252988 3182252988 0.66700000
3.98998332 22.58222198 -1.60356176 27 15 1142 22.98800000 3182252988 3182252988 -4.00000000
5.58441687 24.52046776 -2.05298829 7 16 1143 25.23200000 3182252990 3182252990 -4.66700000
22.08795929 96.98542786 1.73623526 28 18 1143 99.48400000 3182252992 3182252992 1.00000000
3.39960599 26.79780197 -1.73120272 11 19 1143 27.06800000 3182252992 3182252992 -3.66700000
8.01810455 28.64041138 -1.73207772 4 20 1144 29.79200000 3182252995 3182252995 -3.33300000
30.52744675 172.42576599 10.19781685 42 21 1144 175.40400000 3182252995 3182252995 3.33300000
47.41180420 207.84411621 8.68530560 28 22 1145 213.36000000 3182252997 3182252997 2.33300000
6.14647007 34.68135834 -1.64068747 3 23 1145 35.26000000 3182252997 3182252997 -2.66700000
7.38362741 32.34235001 -1.73860049 6 24 1146 33.22000000 3182252999 3182252999 -3.00000000
3.41793537 26.79245949 -1.10039926 29 27 1147 27.03200000 3182253002 3182253002 -2.33300000
10.29620266 36.67905045 -1.33036876 7 28 1148 38.12000000 3182253004 3182253004 -2.00000000
8.60320473 48.39595795 -1.14380205 8 31 1148 49.16800000 3182253006 3182253006 -1.33300000
1.24556708 5.41238022 -2.58980465 13 0 1156 6.12800000 3182253027 3182253027 -25.00000000
7.25158882 56.14097977 -0.98808545 22 1 1156 56.61600000 3182253027 3182253027 -1.00000000
9.95916080 43.24114990 -1.29138696 10 2 1157 44.39200000 3182253029 3182253029 -1.66700000
1.42147315 7.92401886 -2.25364995 27 3 1157 8.36000000 3182253029 3182253029 -15.63900000
2.86764288 12.44093800 -2.55344701 16 4 1158 13.02000000 3182253032 3182253032 -11.31000000
14.64735699 51.79716492 -0.62666279 20 6 1159 53.83200000 3182253034 3182253034 -0.66700000
2.62914324 14.62681007 -2.31206083 14 7 1159 15.04000000 3182253034 3182253034 -8.84300000
3.52757335 15.29177475 -1.99756324 13 8 1159 15.82000000 3182253036 3182253036 -7.25400000
14.86631393 64.39308167 -0.38409775 28 10 1160 66.08800000 3182253038 3182253038 -0.33300000
3.30722833 18.38080215 -2.01171088 12 11 1160 18.78400000 3182253038 3182253038 -6.14800000
6.18384457 21.83869362 -2.11875296 5 12 1161 22.79600000 3182253041 3182253041 -5.33300000
14.30569077 79.42814636 1.87798679 28 13 1161 80.72800000 3182253041 3182253041 1.33300000
21.88304710 77.23014069 0.93449962 28 14 1162 80.27600000 3182253043 3182253043 0.66700000
4.07090950 22.57993889 -1.60439885 29 15 1162 23.00000000 3182253043 3182253043 -4.00000000
5.66278458 24.46975327 -2.05038476 7 16 1163 25.20000000 3182253045 3182253045 -4.66700000
22.08232498 95.34532166 1.70831132 28 18 1164 97.88400000 3182253048 3182253048 1.00000000
3.50193715 26.81682777 -1.73324931 11 19 1164 27.10000000 3182253048 3182253048 -3.66700000
8.06898117 28.43937683 -1.72161269 4 20 1164 29.61200000 3182253050 3182253050 -3.33300000
31.15682602 172.47140503 10.20688629 42 21 1164 175.56000000 3182253050 3182253050 3.33300000
6.24545240 34.53780365 -1.63491762 3 23 1165 35.13600000 3182253052 3182253052 -2.66700000
7.46578836 32.18408203 -1.73148274 6 24 1166 33.08400000 3182253055 3182253055 -3.00000000
3.52858448 26.91113663 -1.10577261 10 27 1167 27.16400000 3182253057 3182253057 -2.33300000
10.42198563 36.63519669 -1.33008957 7 28 1168 38.11200000 3182253059 3182253059 -2.00000000
8.69929409 47.96429062 -1.13431072 8 31 1168 48.76000000 3182253062 3182253062 -1.33300000
1.25867474 5.38328886 -2.57797146 15 0 1176 6.10000000 3182253082 3182253082 -25.00000000
7.41752100 55.88933945 -0.98410630 21 1 1176 56.38800000 3182253082 3182253082 -1.00000000
10.06813526 43.02703857 -1.28603435 10 2 1177 44.20800000 3182253085 3182253085 -1.66700000
1.48795271 8.13119316 -2.31403494 23 3 1177 8.58400000 3182253085 3182253085 -15.63900000
2.74470663 11.72051716 -2.40753579 12 4 1178 12.27600000 3182253087 3182253087 -11.31000000
14.73772526 51.43043518 -0.62284452 19 6 1179 53.50400000 3182253089 3182253089 -0.66700000
2.72152758 14.84302711 -2.34772563 14 7 1179 15.27200000 3182253089 3182253089 -8.84300000
3.71583748 15.85500050 -2.07281923 12 8 1179 16.41600000 3182253091 3182253091 -7.25400000
15.07729626 64.28237915 -0.38374904 28 10 1180 66.02800000 3182253094 3182253094 -0.33300000
3.41803432 18.62340355 -2.03955626 16 11 1180 19.04400000 3182253094 3182253094 -6.14800000
6.24905348 21.77869415 -2.11503530 5 12 1181 22.75600000 3182253096 3182253096 -5.33300000
14.58864021 79.40918732 1.87873125 28 13 1181 80.76000000 3182253096 3182253096 1.33300000
21.89862061 76.26907349 0.92378980 28 14 1182 79.35600000 3182253098 3182253098 0.66700000
4.15475559 22.59306145 -1.60635209 15 15 1182 23.02800000 3182253098 3182253098 -4.00000000
5.74086618 24.41878891 -2.04778099 3 16 1183 25.16800000 3182253101 3182253101 -4.66700000
22.10731316 94.03351593 1.68611193 28 18 1183 96.61200000 3182253103 3182253103 1.00000000
3.46576238 25.87134171 -1.67287338 10 19 1183 26.15600000 3182253103 3182253103 -3.66700000
8.21675205 28.57989883 -1.73184514 4 20 1184 29.78800000 3182253105 3182253105 -3.33300000
31.75288391 172.33018494 10.20502567 42 21 1184 175.52800000 3182253105 3182253105 3.33300000
6.34930515 34.42541504 -1.63063669 3 23 1185 35.04400000 3182253108 3182253108 -2.66700000
7.56159449 32.08784103 -1.72771454 6 24 1186 33.01200000 3182253110 3182253110 -3.00000000
3.70304775 27.49675560 -1.13035977 11 27 1187 27.76800000 3182253112 3182253112 -2.33300000
10.48669052 36.37964630 -1.32213259 7 28 1188 37.88400000 3182253115 3182253115 -2.00000000
8.83320904 47.75275040 -1.13003027 8 31 1188 48.57600000 3182253117 3182253117 -1.33300000
1.24897718 5.25894070 -2.52049541 11 0 1196 5.96400000 3182253138 3182253138 -25.00000000
7.56990528 55.55004883 -0.97859132 21 1 1196 56.07200000 3182253138 3182253138 -1.00000000
10.20809650 42.94884109 -1.28475440 10 2 1197 44.16400000 3182253140 3182253140 -1.66700000
1.52692544 8.18274784 -2.33020949 27 3 1197 8.64400000 3182253140 3182253140 -15.63900000
2.81737018 11.84442043 -2.43499231 13 4 1198 12.41600000 3182253143 3182253143 -11.31000000
14.88813210 51.31213379 -0.62200636 19 6 1198 53.43200000 3182253145 3182253145 -0.66700000
2.77000809 14.83003521 -2.34711075 14 7 1198 15.26800000 3182253145 3182253145 -8.84300000
3.82629299 16.07353973 -2.10312343 20 8 1199 16.65600000 3182253147 3182253147 -7.25400000
15.24041176 63.97255325 -0.38221470 28 10 1200 65.76400000 3182253150 3182253150 -0.33300000
3.50350547 18.72081566 -2.05155110 14 11 1200 19.15600000 3182253150 3182253150 -6.14800000
6.32281399 21.74909973 -2.11429167 5 12 1201 22.74800000 3182253152 3182253152 -5.33300000
14.87236786 79.39315796 1.87956870 28 13 1201 80.79600000 3182253152 3182253152 1.33300000
21.89099503 75.25124359 0.91238153 28 14 1202 78.37600000 3182253154 3182253154 0.66700000
5.82143879 24.37921333 -2.04615378 7 16 1203 25.14800000 3182253156 3182253156 -4.66700000
22.03599548 92.28306580 1.65609372 28 18 1203 94.89200000 3182253159 3182253159 1.00000000
3.47937012 25.30148888 -1.63680136 42 19 1203 25.59200000 3182253159 3182253159 -3.66700000
8.27626133 28.41302299 -1.72347319 4 20 1204 29.64400000 3182253161 3182253161 -3.33300000
32.39036179 172.41059875 10.21642113 42 21 1204 175.72400000 3182253161 3182253161 3.33300000
6.45466471 34.32450485 -1.62691426 3 23 1205 34.96400000 3182253163 3182253163 -2.66700000
7.65124083 31.96801376 -1.72269034 6 24 1206 32.91600000 3182253166 3182253166 -3.00000000
3.84935379 27.84789276 -1.14534009 3 27 1207 28.13600000 3182253168 3182253168 -2.33300000
10.61585617 36.35049438 -1.32241178 7 28 1208 37.89200000 3182253170 3182253170 -2.00000000
8.97390461 47.58408737 -1.12677348 7 31 1208 48.43600000 3182253173 3182253173 -1.33300000
1.27752650 5.29683876 -2.54078102 16 0 1216 6.01200000 3182253193 3182253193 -25.00000000
7.75213432 55.44010925 -0.97712535 21 1 1216 55.98800000 3182253193 3182253193 -1.00000000
10.31292343 42.72638702 -1.27916896 9 2 1217 43.97200000 3182253196 3182253196 -1.66700000
1.52092910 7.99573278 -2.27845097 21 3 1217 8.45200000 3182253196 3182253196 -15.63900000
2.93053365 12.13190174 -2.49618077 12 4 1218 12.72800000 3182253198 3182253198 -11.31000000
14.97466278 50.94518661 -0.61818808 18 6 1218 53.10400000 3182253200 3182253200 -0.66700000
2.84097838 14.92122650 -2.36309838 13 7 1218 15.37200000 3182253200 3182253200 -8.84300000
3.84694672 15.91352367 -2.08393073 13 8 1219 16.50400000 3182253203 3182253203 -7.25400000
15.47961426 63.98505402 -0.38260990 28 10 1220 65.83200000 3182253205 3182253205 -0.33300000
3.53678751 18.54048920 -2.03313041 14 11 1220 18.98400000 3182253205 3182253205 -6.14800000
6.38856745 21.69251060 -2.11094570 5 12 1221 22.71200000 3182253207 3182253207 -5.33300000
35.92313385 188.13725281 4.45693827 28 13 1221 191.58800000 3182253207 3182253207 1.33300000
21.88557816 74.26509094 0.90134579 28 14 1222 77.42800000 3182253209 3182253209 0.66700000
4.24047184 22.18725014 -1.57956564 4 15 1222 22.64400000 3182253209 3182253209 -4.00000000
5.90274477 24.34324646 -2.04485202 3 16 1223 25.13200000 3182253212 3182253212 -4.66700000
22.10446739 91.16004181 1.63731492 28 18 1223 93.81600000 3182253214 3182253214 1.00000000
3.54424763 25.12317657 -1.62605643 10 19 1223 25.42400000 3182253214 3182253214 -3.66700000
8.36634922 28.35332108 -1.72161269 4 20 1224 29.61200000 3182253216 3182253216 -3.33300000
33.03404617 172.51611328 10.22944450 42 21 1224 175.94800000 3182253216 3182253216 3.33300000
6.55789328 34.21543503 -1.62281942 3 23 1225 34.87600000 3182253219 3182253219 -2.66700000
7.75334978 31.90229607 -1.72059691 6 24 1226 32.87600000 3182253221 3182253221 -3.00000000
10.69504929 36.15221786 -1.31654859 6 28 1228 37.72400000 3182253226 3182253226 -2.00000000
9.13240147 47.51320267 -1.12584293 7 31 1228 48.39600000 3182253228 3182253228 -1.33300000
1.30721784 5.33812284 -2.56275725 14 0 1236 6.06400000 3182253249 3182253249 -25.00000000
7.92119932 55.24248123 -0.97412354 20 1 1236 55.81600000 3182253249 3182253249 -1.00000000
10.45153427 42.64741135 -1.27788901 9 2 1237 43.92800000 3182253251 3182253251 -1.66700000
1.55689311 8.03197193 -2.29031229 18 3 1237 8.49600000 3182253251 3182253251 -15.63900000
2.88504219 11.76351166 -2.42244077 18 4 1238 12.35200000 3182253253 3182253253 -11.31000000
15.11359787 50.76226807 -0.61660486 18 6 1238 52.96800000 3182253256 3182253256 -0.66700000
2.88777637 14.88405800 -2.35879397 13 7 1238 15.34400000 3182253256 3182253256 -8.84300000
3.68966150 15.03293610 -1.97028935 5 8 1239 15.60400000 3182253258 3182253258 -7.25400000
15.63035679 63.63541412 -0.38084307 28 10 1240 65.52800000 3182253260 3182253260 -0.33300000
3.63107944 18.68028450 -2.04983759 16 11 1240 19.14000000 3182253260 3182253260 -6.14800000
6.44603395 21.60901451 -2.10499716 5 12 1241 22.64800000 3182253262 3182253262 -5.33300000
36.58650970 188.04603577 4.45777607 30 13 1241 191.62400000 3182253262 3182253262 1.33300000
21.85867500 73.23008728 0.88970470 28 14 1242 76.42800000 3182253265 3182253265 0.66700000
5.35980225 27.52249527 -1.96071494 3 15 1242 28.10800000 3182253265 3182253265 -4.00000000
5.95909262 24.20635796 -2.03508830 3 16 1243 25.01200000 3182253267 3182253267 -4.66700000
21.97826385 89.21055603 1.60373652 28 18 1244 91.89200000 3182253269 3182253269 1.00000000
3.60083413 24.86507988 -1.61019504 16 19 1244 25.17600000 3182253269 3182253269 -3.66700000
8.46527004 28.32394409 -1.72161269 4 20 1244 29.61200000 3182253272 3182253272 -3.33300000
33.64751053 172.45854187 10.23293304 42 21 1244 176.00800000 3182253272 3182253272 3.33300000
6.66580009 34.13351059 -1.62002754 3 23 1245 34.81600000 3182253274 3182253274 -2.66700000
3.85109019 26.49537468 -1.09079230 10 27 1247 26.79600000 3182253279 3182253279 -2.33300000
10.77184010 35.95000076 -1.31054592 6 28 1248 37.55200000 3182253281 3182253281 -2.00000000
9.21596718 47.06112671 -1.11588633 7 31 1248 47.96800000 3182253283 3182253283 -1.33300000
1.35208035 5.43907166 -2.61347127 15 0 1256 6.18400000 3182253304 3182253304 -25.00000000
8.08083916 54.98894882 -0.97014439 20 1 1256 55.58800000 3182253304 3182253304 -1.00000000
10.56076241 42.45158768 -1.27311814 9 2 1257 43.76400000 3182253306 3182253306 -1.66700000
1.60581398 8.13229847 -2.32050467 21 3 1257 8.60800000 3182253306 3182253306 -15.63900000
2.93745756 11.79904366 -2.43185449 18 4 1258 12.40000000 3182253308 3182253308 -11.31000000
15.34807491 50.86736298 -0.61856061 19 6 1259 53.13600000 3182253311 3182253311 -0.66700000
2.94844580 14.90439224 -2.36371326 14 7 1259 15.37600000 3182253311 3182253311 -8.84300000
3.73060250 14.97376156 -1.96422851 12 8 1259 15.55600000 3182253313 3182253313 -7.25400000
15.74594593 63.15354156 -0.37828583 28 10 1260 65.08800000 3182253315 3182253315 -0.33300000
3.74570179 18.91717529 -2.07725430 13 11 1260 19.39600000 3182253315 3182253315 -6.14800000
6.51220989 21.55588341 -2.10202312 5 12 1261 22.61600000 3182253318 3182253318 -5.33300000
37.25823593 187.99563599 4.45963717 57 13 1261 191.70400000 3182253318 3182253318 1.33300000
21.86995316 72.34550476 0.87987965 28 14 1262 75.58400000 3182253320 3182253320 0.66700000
5.47369814 27.59364128 -1.96713257 7 15 1262 28.20000000 3182253320 3182253320 -4.00000000
6.03775311 24.16220284 -2.03313541 3 16 1263 24.98800000 3182253322 3182253322 -4.66700000
22.05582237 88.26416779 1.58802938 28 18 1263 90.99200000 3182253325 3182253325 1.00000000
3.69907045 24.95961761 -1.61710238 10 19 1263 25.28400000 3182253325 3182253325 -3.66700000
8.55714607 28.27128983 -1.72021735 4 20 1264 29.58800000 3182253327 3182253327 -3.33300000
34.27498245 172.46928406 10.24060726 42 21 1264 176.14000000 3182253327 3182253327 3.33300000
6.75528574 33.96111679 -1.61295485 3 23 1265 34.66400000 3182253329 3182253329 -2.66700000
5.71723890 38.39244080 -1.58139646 7 27 1267 38.84800000 3182253334 3182253334 -2.33300000
10.88797760 35.88158035 -1.30942917 6 28 1268 37.52000000 3182253336 3182253336 -2.00000000
9.36020947 46.88585663 -1.11253643 7 31 1269 47.82400000 3182253338 3182253338 -1.33300000
1.37194490 5.43783426 -2.61516190 16 0 1276 6.18800000 3182253359 3182253359 -25.00000000
8.23106670 54.68356705 -0.96525770 19 1 1276 55.30800000 3182253359 3182253359 -1.00000000
10.67070961 42.26327515 -1.26857996 9 2 1277 43.60800000 3182253361 3182253361 -1.66700000
1.64710069 8.19084167 -2.33883595 24 3 1277 8.67600000 3182253361 3182253361 -15.63900000
2.96037006 11.71646404 -2.41694951 19 4 1278 12.32400000 3182253364 3182253364 -11.31000000
15.09618759 75.00386047 0.00000000 26 5 1278 76.50800000 3182253364 3182253364 0.00000000
15.38763046 50.36210632 -0.61306602 18 6 1279 52.66400000 3182253366 3182253366 -0.66700000
3.00279570 14.90563297 -2.36555791 13 7 1279 15.38800000 3182253366 3182253366 -8.84300000
3.78090239 14.95295429 -1.96321833 12 8 1279 15.54800000 3182253368 3182253368 -7.25400000
15.96629715 63.09819412 -0.37828583 28 10 1280 65.08800000 3182253371 3182253371 -0.33300000
3.79284620 18.81042099 -2.06697297 16 11 1280 19.30000000 3182253371 3182253371 -6.14800000
6.57809353 21.50255203 -2.09904885 5 12 1281 22.58400000 3182253373 3182253373 -5.33300000
21.84020424 71.34700775 0.86865765 28 14 1282 74.62000000 3182253375 3182253375 0.66700000
5.53917217 27.42182732 -1.95625055 7 15 1282 28.04400000 3182253375 3182253375 -4.00000000
6.11323833 24.10619926 -2.03020644 3 16 1283 24.95200000 3182253378 3182253378 -4.66700000
21.97644234 86.65922546 1.56052434 28 18 1283 89.41600000 3182253380 3182253380 1.00000000
3.71130037 24.45322609 -1.58512366 13 19 1283 24.78400000 3182253380 3182253380 -3.66700000
8.64875889 28.21833992 -1.71882200 4 20 1284 29.56400000 3182253382 3182253382 -3.33300000
34.86967468 172.31336975 10.23851395 42 21 1284 176.10400000 3182253382 3182253382 3.33300000
6.86110020 33.87467194 -1.60997689 3 23 1285 34.60000000 3182253385 3182253385 -2.66700000
8.01025105 31.51738358 -1.70426810 6 24 1286 32.56400000 3182253387 3182253387 -3.00000000
5.85061646 38.36829758 -1.58123362 7 27 1287 38.84400000 3182253389 3182253389 -2.33300000
10.99672413 35.78985596 -1.30747473 6 28 1288 37.46400000 3182253391 3182253391 -2.00000000
9.49016857 46.72915649 -1.10955870 7 31 1288 47.69600000 3182253394 3182253394 -1.33300000
1.38547742 5.41569424 -2.60670948 12 0 1295 6.16800000 3182253414 3182253414 -25.00000000
8.38376427 54.47018814 -0.96197665 19 1 1295 55.12000000 3182253414 3182253414 -1.00000000
10.79790974 42.17730331 -1.26706731 9 2 1296 43.55600000 3182253417 3182253417 -1.66700000
1.67579722 8.19288158 -2.34099245 29 3 1296 8.68400000 3182253417 3182253417 -15.63900000
2.97779107 11.62299156 -2.39969110 7 4 1297 12.23600000 3182253419 3182253419 -11.31000000
15.14506340 73.97762299 0.00000000 26 5 1297 75.51200000 3182253419 3182253419 0.00000000
15.47374535 50.08040619 -0.61022556 17 6 1297 52.42000000 3182253421 3182253421 -0.66700000
3.05912089 14.94259167 -2.37293696 15 7 1297 15.43600000 3182253421 3182253421 -8.84300000
3.83243847 14.94802189 -1.96422851 12 8 1298 15.55600000 3182253424 3182253424 -7.25400000
16.02634048 62.46373367 -0.37479869 28 10 1299 64.48800000 3182253426 3182253426 -0.33300000
3.84401679 18.74319649 -2.06097555 17 11 1299 19.24400000 3182253426 3182253426 -6.14800000
6.64700699 21.47301102 -2.09830523 5 12 1300 22.57600000 3182253428 3182253428 -5.33300000
21.83289528 70.48713684 0.85906535 28 14 1301 73.79600000 3182253431 3182253431 0.66700000
5.63087893 27.40721703 -1.95652962 3 15 1301 28.04800000 3182253431 3182253431 -4.00000000
6.19016552 24.07421112 -2.02922988 7 16 1302 24.94000000 3182253433 3182253433 -4.66700000
12.69286823 81.80206299 2.40916157 28 17 1302 82.81600000 3182253433 3182253433 1.66700000
21.95992661 85.40448761 1.53923249 28 18 1302 88.19600000 3182253435 3182253435 1.00000000
3.79298186 24.44472885 -1.58537948 26 19 1302 24.78800000 3182253435 3182253435 -3.66700000
8.69733906 28.04457092 -1.70998490 4 20 1303 29.41200000 3182253438 3182253438 -3.33300000
6.95082188 33.74215317 -1.60476542 3 23 1304 34.48800000 3182253440 3182253440 -2.66700000
8.10076809 31.43649292 -1.70133722 6 24 1305 32.50800000 3182253442 3182253442 -3.00000000
5.96920013 38.29339981 -1.57895398 7 27 1306 38.78800000 3182253444 3182253444 -2.33300000
11.07262325 35.61576843 -1.30244923 6 28 1307 37.32000000 3182253447 3182253447 -2.00000000
9.63298702 46.59784317 -1.10723245 7 31 1308 47.59600000 3182253449 3182253449 -1.33300000
1.42810154 5.49829960 -2.64897132 13 0 1316 6.26800000 3182253470 3182253470 -25.00000000
8.58335114 54.43909454 -0.96197665 19 1 1316 55.12000000 3182253470 3182253470 -1.00000000
10.90313911 41.94782639 -1.26136553 9 2 1317 43.36000000 3182253472 3182253472 -1.66700000
1.70267153 8.17160130 -2.33667922 22 3 1317 8.66800000 3182253472 3182253472 -15.63900000
2.98581338 11.47913933 -2.37223482 13 4 1318 12.09600000 3182253474 3182253474 -11.31000000
15.45693398 74.11740875 0.00000000 26 5 1318 75.71200000 3182253474 3182253474 0.00000000
15.64405346 49.98136902 -0.60971338 17 6 1318 52.37600000 3182253477 3182253477 -0.66700000
3.05819082 14.66430378 -2.33050823 14 7 1318 15.16000000 3182253477 3182253477 -8.84300000
3.89419651 14.96075535 -1.96776402 11 8 1319 15.58400000 3182253479 3182253479 -7.25400000
16.17955399 62.11426544 -0.37305513 28 10 1320 64.18800000 3182253481 3182253481 -0.33300000
3.74108624 17.90756989 -1.97058570 15 11 1320 18.40000000 3182253481 3182253481 -6.14800000
6.71732330 21.42190170 -2.09570289 5 12 1321 22.54800000 3182253484 3182253484 -5.33300000
30.73183060 146.97682190 3.49403071 85 13 1321 150.19600000 3182253484 3182253484 1.33300000
21.80970383 69.50981140 0.84812278 28 14 1322 72.85600000 3182253486 3182253486 0.66700000
5.72802401 27.37077141 -1.95541346 3 15 1322 28.03200000 3182253486 3182253486 -4.00000000
6.25016546 23.94335365 -2.02011704 7 16 1323 24.82800000 3182253488 3182253488 -4.66700000
12.80685043 80.58615875 2.37471843 28 17 1323 81.63200000 3182253488 3182253488 1.66700000
21.97480774 84.18186188 1.51863861 28 18 1323 87.01600000 3182253491 3182253491 1.00000000
3.88568330 24.45037460 -1.58665860 6 19 1323 24.80800000 3182253491 3182253491 -3.66700000
8.78810120 27.97440910 -1.70765936 4 20 1324 29.37200000 3182253493 3182253493 -3.33300000
49.92826843 190.99412537 8.04278183 28 22 1325 197.57600000 3182253495 3182253495 2.33300000
7.06295919 33.66170502 -1.60215962 3 23 1325 34.43200000 3182253495 3182253495 -2.66700000
8.20380306 31.36021614 -1.69882512 6 24 1326 32.46000000 3182253497 3182253497 -3.00000000
6.08683062 38.12918472 -1.57309210 7 27 1327 38.64400000 3182253500 3182253500 -2.33300000
11.19348049 35.54444504 -1.30133247 6 28 1328 37.28800000 3182253502 3182253502 -2.00000000
9.74274254 46.27265167 -1.10034657 7 31 1329 47.30000000 3182253504 3182253504 -1.33300000
1.44444561 5.49028015 -2.64728069 13 0 1334 6.26400000 3182253525 3182253525 -25.00000000
8.67047501 53.89064407 -0.95276177 18 1 1334 54.59200000 3182253525 3182253525 -1.00000000
11.02672482 41.88243484 -1.26043463 9 2 1335 43.32800000 3182253527 3182253527 -1.66700000
1.71397865 8.09838009 -2.31726980 18 3 1335 8.59600000 3182253527 3182253527 -15.63900000
3.03385282 11.51521683 -2.38164830 13 4 1336 12.14400000 3182253530 3182253530 -11.31000000
15.52392101 73.28585052 0.00000000 26 5 1336 74.91200000 3182253530 3182253530 0.00000000
15.71893883 49.67266846 -0.60654700 17 6 1336 52.10400000 3182253532 3182253532 -0.66700000
3.06247282 14.45742416 -2.29914784 15 7 1336 14.95600000 3182253532 3182253532 -8.84300000
3.94320107 14.95612144 -1.96877420 12 8 1337 15.59200000 3182253534 3182253534 -7.25400000
16.34910202 61.96644211 -0.37247393 28 10 1338 64.08800000 3182253537 3182253537 -0.33300000
3.81796360 17.99298859 -1.98129535 10 11 1338 18.50000000 3182253537 3182253537 -6.14800000
