# .PCD v0.7 - Point Cloud Data file format
VERSION 0.7
FIELDS x y z intensity laser_id azimuth distance_m adjustedtime timestamp vertical_angle
SIZE 4 4 4 1 1 2 8 8 4 8
TYPE F F F U U U F U U F
COUNT 1 1 1 1 1 1 1 1 1 1
WIDTH 522
HEIGHT 1
VIEWPOINT 0 0 0 1 0 0 0
POINTS 522
DATA ascii
39.12258148 35.83668137 -0.30835688 15 10 4611 53.05600000 3186462668 3186462668 -0.33300000
12.46180248 12.58859444 -1.90804100 2 11 4611 17.81600000 3186462668 3186462668 -6.14800000
15.00091362 12.44515514 -1.81947303 2 12 4612 19.57600000 3186462671 3186462671 -5.33300000
40.09115601 40.48492813 1.32581294 14 13 4612 56.99200000 3186462671 3186462671 1.33300000
40.38058472 33.48890686 0.61073780 19 14 4613 52.46400000 3186462673 3186462673 0.66700000
16.19213676 16.34546852 -1.60886335 2 15 4613 23.06400000 3186462673 3186462673 -4.00000000
15.54430008 14.22377491 -1.72004497 2 16 4614 21.14000000 3186462675 3186462675 -4.66700000
40.65067291 45.24233246 1.77010083 28 17 4614 60.84800000 3186462675 3186462675 1.66700000
40.18643188 36.77250290 0.95080709 40 18 4614 54.48000000 3186462678 3186462678 1.00000000
16.12499619 17.94638062 -1.54623747 3 19 4614 24.17600000 3186462678 3186462678 -3.66700000
18.96423912 15.71647835 -1.43440592 3 20 4615 24.67200000 3186462680 3186462680 -3.33300000
39.67581558 40.02357101 3.28206396 28 21 4615 56.45200000 3186462680 3186462680 3.33300000
39.99804688 36.57447433 2.20812583 36 22 4616 54.24400000 3186462682 3186462682 2.33300000
19.05586243 19.21617699 -1.26062119 4 23 4616 27.09200000 3186462682 3186462682 -2.66700000
19.49162483 17.81702423 -1.38397205 4 24 4617 26.44400000 3186462685 3186462685 -3.00000000
95.79275513 96.56493378 16.70097542 28 25 4617 137.04000000 3186462685 3186462685 7.00000000
103.66148376 94.72232056 11.46327782 28 26 4618 140.88800000 3186462687 3186462687 4.66700000
19.63781929 21.82532310 -1.19614267 4 27 4618 29.38400000 3186462687 3186462687 -2.33300000
20.83745766 17.24437141 -0.94452000 18 28 4619 27.06400000 3186462689 3186462689 -2.00000000
20.93887901 21.08557320 -0.69147360 23 31 4620 29.72400000 3186462691 3186462691 -1.33300000
3.87000060 3.52513552 -2.44104314 10 0 4627 5.77600000 3186462712 3186462712 -25.00000000
20.95023727 23.21050644 -0.54577166 14 1 4627 31.27200000 3186462712 3186462712 -1.00000000
20.87170982 19.00511742 -0.82151669 12 2 4628 28.24000000 3186462714 3186462714 -1.66700000
6.38459682 6.41139650 -2.53293014 6 3 4628 9.39600000 3186462714 3186462714 -15.63900000
8.71633434 7.93403530 -2.35732985 1 4 4629 12.02000000 3186462717 3186462717 -11.31000000
39.70537949 39.85813141 0.00000000 33 5 4629 56.26000000 3186462717 3186462717 0.00000000
20.96207619 17.27980232 -0.31626496 9 6 4630 27.16800000 3186462719 3186462719 -0.66700000
9.82611370 9.86047268 -2.16571236 2 7 4630 14.08800000 3186462719 3186462719 -8.84300000
11.88905621 10.81820869 -2.04605031 2 8 4630 16.20400000 3186462721 3186462721 -7.25400000
40.32950211 44.63354492 0.34962147 56 9 4630 60.15600000 3186462721 3186462721 0.33300000
39.09653091 35.56263351 -0.30717126 14 10 4631 52.85200000 3186462724 3186462724 -0.33300000
12.50286102 12.54220200 -1.90761268 2 11 4631 17.81200000 3186462724 3186462724 -6.14800000
15.03504181 12.38511944 -1.81835771 2 12 4632 19.56400000 3186462726 3186462726 -5.33300000
40.01198196 40.12387085 1.31855476 29 13 4632 56.68000000 3186462726 3186462726 1.33300000
40.16377258 33.07315445 0.60570884 38 14 4633 52.03200000 3186462728 3186462728 0.66700000
16.23218727 16.27189827 -1.60718918 2 15 4633 23.04000000 3186462728 3186462728 -4.00000000
15.59680557 14.17210960 -1.72037041 2 16 4634 21.14400000 3186462731 3186462731 -4.66700000
40.04916382 44.26112747 1.73717034 27 17 4634 59.71600000 3186462731 3186462731 1.66700000
40.27014923 36.59165955 0.94975996 20 18 4634 54.42000000 3186462733 3186462733 1.00000000
16.17415237 17.87518501 -1.54495835 3 19 4634 24.15600000 3186462733 3186462733 -3.66700000
19.00048256 15.63496113 -1.43301058 3 20 4635 24.64800000 3186462735 3186462735 -3.33300000
39.67422104 39.74352646 3.27043629 42 21 4635 56.25200000 3186462735 3186462735 3.33300000
40.09883881 36.41044998 2.20666027 36 22 4636 54.20800000 3186462738 3186462738 2.33300000
19.10588264 19.13257790 -1.25950444 4 23 4636 27.06800000 3186462738 3186462738 -2.66700000
19.54186821 17.73813820 -1.38313460 4 24 4637 26.42800000 3186462740 3186462740 -3.00000000
96.79704285 96.89846802 16.81699371 28 25 4637 137.99200000 3186462740 3186462740 7.00000000
94.60562897 85.84334564 10.42864704 28 26 4638 128.17200000 3186462742 3186462742 4.66700000
19.62800789 21.66186714 -1.19093215 4 27 4638 29.25600000 3186462742 3186462742 -2.33300000
20.83266449 17.11823273 -0.94158840 15 28 4639 26.98000000 3186462744 3186462744 -2.00000000
20.92952538 20.93683243 -0.68886811 19 31 4639 29.61200000 3186462747 3186462747 -1.33300000
3.90647912 3.53349185 -2.45625734 10 0 4647 5.81200000 3186462767 3186462767 -25.00000000
20.95580673 23.05437088 -0.54381698 14 1 4647 31.16000000 3186462767 3186462767 -1.00000000
20.86971092 18.87046814 -0.81884032 12 2 4648 28.14800000 3186462770 3186462770 -1.66700000
6.40148258 6.38363123 -2.53077340 6 3 4648 9.38800000 3186462770 3186462770 -15.63900000
8.74979591 7.90882158 -2.35889888 1 4 4649 12.02800000 3186462772 3186462772 -11.31000000
39.83293533 39.70799255 0.00000000 33 5 4649 56.24400000 3186462772 3186462772 0.00000000
20.99760056 17.19245720 -0.31593901 9 6 4649 27.14000000 3186462774 3186462774 -0.66700000
9.85875797 9.82783413 -2.16571236 2 7 4649 14.08800000 3186462774 3186462774 -8.84300000
11.92380238 10.77398205 -2.04554534 2 8 4650 16.20000000 3186462777 3186462777 -7.25400000
40.36930084 44.36528397 0.34862185 83 9 4650 59.98400000 3186462777 3186462777 0.33300000
39.21152496 35.41790009 -0.30710152 29 10 4651 52.84000000 3186462779 3186462779 -0.33300000
12.54656506 12.49848175 -1.90761268 2 11 4651 17.81200000 3186462779 3186462779 -6.14800000
15.07818222 12.33256245 -1.81835771 2 12 4652 19.56400000 3186462781 3186462781 -5.33300000
39.99311447 39.82594299 1.31334388 28 13 4652 56.45600000 3186462781 3186462781 1.33300000
40.07770538 32.76819229 0.60268217 38 14 4653 51.77200000 3186462784 3186462784 0.66700000
16.28323174 16.20950699 -1.60663116 2 15 4653 23.03200000 3186462784 3186462784 -4.00000000
15.56330299 14.04279995 -1.71125758 2 16 4654 21.03200000 3186462786 3186462786 -4.66700000
40.29767227 44.22449875 1.74124300 83 17 4654 59.85600000 3186462786 3186462786 1.66700000
40.26401138 36.33029938 0.94661850 20 18 4654 54.24000000 3186462788 3186462788 1.00000000
16.23107147 17.81271744 -1.54444671 3 19 4654 24.14800000 3186462788 3186462788 -3.66700000
18.95908165 15.49021912 -1.42580140 3 20 4655 24.52400000 3186462791 3186462791 -3.33300000
39.68248367 39.47525024 3.25973868 27 21 4655 56.06800000 3186462791 3186462791 3.33300000
40.19601059 36.24349594 2.20503187 36 22 4656 54.16800000 3186462793 3186462793 2.33300000
19.16405106 19.05731773 -1.25894606 4 23 4656 27.05600000 3186462793 3186462793 -2.66700000
19.60070038 17.66714096 -1.38292527 4 24 4657 26.42400000 3186462795 3186462795 -3.00000000
95.92114258 95.35362244 16.60689163 28 25 4657 136.26800000 3186462795 3186462795 7.00000000
44.23140335 39.85409927 4.86038828 27 26 4658 59.73600000 3186462797 3186462797 4.66700000
19.70350266 21.59322166 -1.19093215 4 27 4658 29.25600000 3186462797 3186462797 -2.33300000
20.83653641 16.99992180 -0.93907565 11 28 4659 26.90800000 3186462800 3186462800 -2.00000000
20.94085884 20.79517365 -0.68672788 18 31 4660 29.52000000 3186462802 3186462802 -1.33300000
3.92688060 3.52710152 -2.46132874 10 0 4667 5.82400000 3186462823 3186462823 -25.00000000
20.94974136 22.88667870 -0.54158306 14 1 4667 31.03200000 3186462823 3186462823 -1.00000000
20.87595367 18.74407959 -0.81651312 12 2 4668 28.06800000 3186462825 3186462825 -1.66700000
6.42372656 6.36124706 -2.53077340 6 3 4668 9.38800000 3186462825 3186462825 -15.63900000
8.76859283 7.87037086 -2.35654545 1 4 4669 12.01600000 3186462827 3186462827 -11.31000000
39.68703079 39.28730011 0.00000000 48 5 4669 55.84400000 3186462827 3186462827 0.00000000
21.06058884 17.12158012 -0.31598556 4 6 4669 27.14400000 3186462830 3186462830 -0.66700000
9.88738537 9.78779984 -2.16448259 2 7 4669 14.08000000 3186462830 3186462830 -8.84300000
11.95247746 10.72434425 -2.04402995 2 8 4670 16.18800000 3186462832 3186462832 -7.25400000
40.35097122 44.03535843 0.34713399 54 9 4670 59.72800000 3186462832 3186462832 0.33300000
39.29918289 35.24876404 -0.30682254 14 10 4671 52.79200000 3186462834 3186462834 -0.33300000
12.57880783 12.44342232 -1.90589905 2 11 4671 17.79600000 3186462834 3186462834 -6.14800000
15.11495590 12.27483273 -1.81761420 2 12 4672 19.55600000 3186462837 3186462837 -5.33300000
40.25131226 39.80419540 1.31725204 29 13 4672 56.62400000 3186462837 3186462837 1.33300000
40.21357727 32.64574051 0.60300809 19 14 4673 51.80000000 3186462839 3186462839 0.66700000
16.34255219 16.15537453 -1.60691011 2 15 4673 23.03600000 3186462839 3186462839 -4.00000000
15.60925770 13.98572731 -1.71093214 2 16 4674 21.02800000 3186462841 3186462841 -4.66700000
39.32994080 42.86098480 1.69295275 24 17 4674 58.19600000 3186462841 3186462841 1.66700000
40.26845932 36.08010864 0.94375634 19 18 4674 54.07600000 3186462844 3186462844 1.00000000
16.29315186 17.75595093 -1.54444671 3 19 4674 24.14800000 3186462844 3186462844 -3.66700000
19.01303673 15.42394543 -1.42580140 3 20 4675 24.52400000 3186462846 3186462846 -3.33300000
39.70072174 39.21862411 3.24997139 27 21 4675 55.90000000 3186462846 3186462846 3.33300000
40.11087036 35.91367722 2.19347119 35 22 4676 53.88400000 3186462848 3186462848 2.33300000
19.21339798 18.97346115 -1.25782931 4 23 4676 27.03200000 3186462848 3186462848 -2.66700000
19.66522598 17.60127831 -1.38313460 4 24 4677 26.42800000 3186462850 3186462850 -3.00000000
97.40052795 96.15061188 16.80480766 28 25 4677 137.89200000 3186462850 3186462850 7.00000000
44.32865524 39.66224289 4.85583162 27 26 4678 59.68000000 3186462853 3186462853 4.66700000
19.76523590 21.50959778 -1.19011807 8 27 4678 29.23600000 3186462853 3186462853 -2.33300000
20.82430649 16.86920929 -0.93586493 10 28 4679 26.81600000 3186462855 3186462855 -2.00000000
20.93359566 20.64332962 -0.68412244 15 31 4680 29.40800000 3186462857 3186462857 -1.33300000
4.10690784 3.66298056 -2.56613803 13 0 4687 6.07200000 3186462878 3186462878 -25.00000000
20.94547272 22.72224998 -0.53941900 13 1 4687 30.90800000 3186462878 3186462878 -1.00000000
20.86963081 18.60723495 -0.81372041 12 2 4688 27.97200000 3186462880 3186462880 -1.66700000
6.44314623 6.33608437 -2.52969527 6 3 4688 9.38400000 3186462880 3186462880 -15.63900000
8.80772400 7.85015392 -2.35968328 1 4 4689 12.03200000 3186462883 3186462883 -11.31000000
39.83818817 39.16254807 0.00000000 32 5 4689 55.86400000 3186462883 3186462883 0.00000000
21.16068649 17.08061981 -0.31659091 4 6 4689 27.19600000 3186462885 3186462885 -0.66700000
9.91585350 9.74768543 -2.16325259 2 7 4689 14.07200000 3186462885 3186462885 -8.84300000
11.98983955 10.68255711 -2.04402995 2 8 4690 16.18800000 3186462887 3186462887 -7.25400000
40.40135956 43.78253174 0.34625056 54 9 4690 59.57600000 3186462887 3186462887 0.33300000
39.35029984 35.04751968 -0.30626461 14 10 4691 52.69600000 3186462890 3186462890 -0.33300000
12.60514355 12.38271618 -1.90332878 2 11 4691 17.77200000 3186462890 3186462890 -6.14800000
15.15461063 12.21949768 -1.81724238 2 12 4692 19.55200000 3186462892 3186462892 -5.33300000
40.40713120 39.68025970 1.31781042 29 13 4692 56.64800000 3186462892 3186462892 1.33300000
40.16847229 32.37715912 0.60063332 37 14 4693 51.59600000 3186462894 3186462894 0.66700000
16.40738678 16.10661697 -1.60774720 2 15 4693 23.04800000 3186462894 3186462894 -4.00000000
15.74137974 14.00535679 -1.72004497 2 16 4694 21.14000000 3186462897 3186462897 -4.66700000
39.40604782 42.64414978 1.68981099 24 17 4694 58.08800000 3186462897 3186462897 1.66700000
40.35830307 35.90742493 0.94291860 39 18 4694 54.02800000 3186462899 3186462899 1.00000000
16.34419441 17.68724251 -1.54342330 3 19 4694 24.13200000 3186462899 3186462899 -3.66700000
19.07298088 15.36249352 -1.42626643 3 20 4695 24.53200000 3186462901 3186462901 -3.33300000
39.72050095 38.96515274 3.24043655 27 21 4695 55.73600000 3186462901 3186462901 3.33300000
39.96418381 35.53178787 2.17865372 33 22 4696 53.52000000 3186462903 3186462903 2.33300000
19.26810074 18.89508629 -1.25708485 4 23 4696 27.01600000 3186462903 3186462903 -2.66700000
19.71460342 17.52191162 -1.38229728 4 24 4697 26.41200000 3186462906 3186462906 -3.00000000
97.45204926 95.53210449 16.75605965 28 25 4697 137.49200000 3186462906 3186462906 7.00000000
42.21666718 37.50807190 4.61011124 22 26 4698 56.66000000 3186462908 3186462908 4.66700000
19.84291267 21.44340515 -1.19028091 8 27 4698 29.24000000 3186462908 3186462908 -2.33300000
20.82699394 16.75131989 -0.93335211 10 28 4699 26.74400000 3186462910 3186462910 -2.00000000
20.94266891 20.50857735 -0.68207526 18 31 4700 29.32000000 3186462913 3186462913 -1.33300000
4.14409399 3.67025471 -2.58135223 16 0 4707 6.10800000 3186462933 3186462933 -25.00000000
20.94303131 22.56106377 -0.53732467 13 1 4707 30.78800000 3186462933 3186462933 -1.00000000
20.87458229 18.48126411 -0.81139320 12 2 4708 27.89200000 3186462936 3186462936 -1.66700000
6.45695639 6.30548143 -2.52646041 6 3 4708 9.37200000 3186462936 3186462936 -15.63900000
8.82626057 7.81156254 -2.35732985 1 4 4709 12.02000000 3186462938 3186462938 -11.31000000
39.96892548 39.01766205 0.00000000 32 5 4709 55.85600000 3186462938 3186462938 0.00000000
21.39183807 17.14422417 -0.31915194 4 6 4709 27.41600000 3186462940 3186462940 -0.66700000
9.94981956 9.71301270 -2.16325259 2 7 4709 14.07200000 3186462940 3186462940 -8.84300000
12.02705574 10.64064026 -2.04402995 2 8 4710 16.18800000 3186462943 3186462943 -7.25400000
40.43958282 43.51817322 0.34527418 53 9 4710 59.40800000 3186462943 3186462943 0.33300000
39.42445755 34.86754990 -0.30589265 14 10 4711 52.63200000 3186462945 3186462945 -0.33300000
12.67960548 12.36918926 -1.90804100 2 11 4711 17.81600000 3186462945 3186462945 -6.14800000
15.18784523 12.15905666 -1.81612706 2 12 4712 19.54000000 3186462947 3186462947 -5.33300000
40.74007797 39.72882080 1.32413793 14 13 4712 56.92000000 3186462947 3186462947 1.33300000
40.17194366 32.14927673 0.59900355 37 14 4713 51.45600000 3186462949 3186462949 0.66700000
16.45208168 16.03810501 -1.60663116 2 15 4713 23.03200000 3186462949 3186462949 -4.00000000
15.71547794 13.88433361 -1.71190846 2 16 4714 21.04000000 3186462952 3186462952 -4.66700000
39.68812943 42.64976501 1.69551265 25 17 4714 58.28400000 3186462952 3186462952 1.66700000
39.82700729 35.18642044 0.92763031 18 18 4714 53.15200000 3186462954 3186462954 1.00000000
16.39223862 17.61547089 -1.54214418 3 19 4714 24.11200000 3186462954 3186462954 -3.66700000
19.11401558 15.28584671 -1.42533624 3 20 4715 24.51600000 3186462956 3186462956 -3.33300000
39.76760101 38.73988342 3.23322725 27 21 4715 55.61200000 3186462956 3186462956 3.33300000
40.06100464 35.36826324 2.17718816 16 22 4716 53.48400000 3186462959 3186462959 2.33300000
19.30817604 18.80262566 -1.25540972 4 23 4716 26.98000000 3186462959 3186462959 -2.66700000
19.69777679 17.38426590 -1.37685430 4 24 4717 26.30800000 3186462961 3186462961 -3.00000000
96.38526917 93.82882690 16.51622009 28 25 4717 135.52400000 3186462961 3186462961 7.00000000
42.36228561 37.37366867 4.61173820 45 26 4718 56.68000000 3186462963 3186462963 4.66700000
19.91219330 21.36816216 -1.18995523 8 27 4718 29.23200000 3186462963 3186462963 -2.33300000
20.82911301 16.63361549 -0.93083936 10 28 4719 26.67200000 3186462966 3186462966 -2.00000000
20.93959236 20.36286354 -0.67965591 18 31 4720 29.21600000 3186462968 3186462968 -1.33300000
4.13510227 3.63661408 -2.56782866 16 0 4727 6.07600000 3186462989 3186462989 -25.00000000
20.94518471 22.40601730 -0.53536999 13 1 4727 30.67600000 3186462989 3186462989 -1.00000000
20.86689758 18.34492683 -0.80860049 12 2 4728 27.79600000 3186462991 3186462991 -1.66700000
6.47892714 6.28290415 -2.52646041 8 3 4728 9.37200000 3186462991 3186462991 -15.63900000
8.85052872 7.77811670 -2.35654545 1 4 4729 12.01600000 3186462993 3186462993 -11.31000000
40.09339142 38.86676788 0.00000000 32 5 4729 55.84000000 3186462993 3186462993 0.00000000
21.35139847 16.98975563 -0.31766188 4 6 4729 27.28800000 3186462996 3186462996 -0.66700000
9.97231197 9.66721821 -2.16079307 2 7 4729 14.05600000 3186462996 3186462996 -8.84300000
12.05816269 10.59335518 -2.04301977 2 8 4730 16.18000000 3186462998 3186462998 -7.25400000
40.47098923 43.24824142 0.34425128 53 9 4730 59.23200000 3186462998 3186462998 0.33300000
39.53390503 34.71916199 -0.30579966 14 10 4731 52.61600000 3186463000 3186463000 -0.33300000
12.72556114 12.32762051 -1.90846944 2 11 4731 17.82000000 3186463000 3186463000 -6.14800000
15.23331356 12.10844517 -1.81649888 2 12 4732 19.54400000 3186463002 3186463002 -5.33300000
40.25513077 38.98270035 1.30394554 28 13 4732 56.05200000 3186463002 3186463002 1.33300000
39.98016357 31.76749420 0.59448683 36 14 4733 51.06800000 3186463005 3186463005 0.66700000
16.40762138 15.88344002 -1.59686518 2 15 4733 22.89200000 3186463005 3186463005 -4.00000000
15.75185966 13.81887531 -1.71060669 2 16 4734 21.02400000 3186463007 3186463007 -4.66700000
40.11016083 42.80271530 1.70714891 25 17 4734 58.68400000 3186463007 3186463007 1.66700000
40.00069809 35.09202194 0.92881709 37 18 4734 53.22000000 3186463009 3186463009 1.00000000
16.44816971 17.55231857 -1.54163253 3 19 4734 24.10400000 3186463009 3186463009 -3.66700000
19.17351151 15.22399902 -1.42580140 3 20 4735 24.52400000 3186463012 3186463012 -3.33300000
39.73038483 38.43424606 3.21927381 26 21 4735 55.37200000 3186463012 3186463012 3.33300000
40.13913727 35.18869019 2.17474580 16 22 4736 53.42400000 3186463014 3186463014 2.33300000
19.36220169 18.72400093 -1.25466526 4 23 4736 26.96400000 3186463014 3186463014 -2.66700000
19.74031448 17.29960442 -1.37559831 4 24 4737 26.28400000 3186463016 3186463016 -3.00000000
97.69129181 94.43828583 16.68342590 28 25 4737 136.89600000 3186463016 3186463016 7.00000000
42.40252304 37.14675522 4.60197449 45 26 4738 56.56000000 3186463019 3186463019 4.66700000
19.97025108 21.28104019 -1.18897820 8 27 4738 29.20800000 3186463019 3186463019 -2.33300000
20.82753181 16.51361847 -0.92818701 10 28 4739 26.59600000 3186463021 3186463021 -2.00000000
20.93797684 20.22663307 -0.67742264 18 31 4739 29.12000000 3186463023 3186463023 -1.33300000
4.14504051 3.61977315 -2.56613803 8 0 4747 6.07200000 3186463044 3186463044 -25.00000000
20.94102859 22.24540520 -0.53327572 13 1 4747 30.55600000 3186463044 3186463044 -1.00000000
20.87658882 18.22464561 -0.80650598 12 2 4748 27.72400000 3186463046 3186463046 -1.66700000
6.50359392 6.26292229 -2.52753854 6 3 4748 9.37600000 3186463046 3186463046 -15.63900000
8.88058090 7.74975395 -2.35732985 1 4 4749 12.02000000 3186463049 3186463049 -11.31000000
40.17694473 38.67664719 0.00000000 32 5 4749 55.76800000 3186463049 3186463049 0.00000000
21.50769424 16.98575211 -0.31905881 4 6 4750 27.40800000 3186463051 3186463051 -0.66700000
10.00482941 9.62786198 -2.16017818 2 7 4750 14.05200000 3186463051 3186463051 -8.84300000
12.09506702 10.55119991 -2.04301977 2 8 4750 16.18000000 3186463053 3186463053 -7.25400000
40.49551773 42.97280121 0.34318188 52 9 4750 59.04800000 3186463053 3186463053 0.33300000
39.51618195 34.46002197 -0.30473027 13 10 4751 52.43200000 3186463055 3186463055 -0.33300000
12.77424717 12.28863907 -1.90932620 1 11 4751 17.82800000 3186463055 3186463055 -6.14800000
15.26610756 12.04779530 -1.81538355 2 12 4752 19.53200000 3186463058 3186463058 -5.33300000
40.66767120 39.10804367 1.31287861 42 13 4752 56.43600000 3186463058 3186463058 1.33300000
39.90867996 31.48406029 0.59178609 18 14 4753 50.83600000 3186463060 3186463060 0.66700000
16.46584129 15.82883549 -1.59714425 2 15 4753 22.89600000 3186463060 3186463060 -4.00000000
15.78797626 13.75333214 -1.70930481 2 16 4754 21.00800000 3186463062 3186463062 -4.66700000
39.66659164 42.03432846 1.68201470 48 17 4754 57.82000000 3186463062 3186463062 1.66700000
40.09285355 34.91365814 0.92797935 55 18 4755 53.17200000 3186463065 3186463065 1.00000000
16.50965118 17.48901367 -1.54137671 3 19 4755 24.10000000 3186463065 3186463065 -3.66700000
19.21085548 15.14461708 -1.42463863 3 20 4755 24.50400000 3186463067 3186463067 -3.33300000
39.74623108 38.18190384 3.20973897 26 21 4755 55.20800000 3186463067 3186463067 3.33300000
40.13511658 34.93814850 2.16790700 33 22 4756 53.25600000 3186463069 3186463069 2.33300000
19.41591454 18.64523125 -1.25392067 4 23 4756 26.94800000 3186463069 3186463069 -2.66700000
19.79756927 17.22797203 -1.37538898 4 24 4757 26.28000000 3186463072 3186463072 -3.00000000
99.09151459 95.12499237 16.86574173 28 25 4757 138.39200000 3186463072 3186463072 7.00000000
42.45673370 36.93310165 4.59383821 44 26 4758 56.46000000 3186463074 3186463074 4.66700000
20.03892517 21.20539093 -1.18865263 8 27 4758 29.20000000 3186463074 3186463074 -2.33300000
20.82850838 16.39630699 -0.92567426 10 28 4759 26.52400000 3186463076 3186463076 -2.00000000
20.93342209 20.08144569 -0.67500329 18 31 4759 29.01600000 3186463079 3186463079 -1.33300000
3.99758387 3.46892667 -2.46809053 4 0 4765 5.84000000 3186463099 3186463099 -25.00000000
20.93654823 22.10111427 -0.53139085 13 1 4765 30.44800000 3186463099 3186463099 -1.00000000
20.87031364 18.10395241 -0.80406237 12 2 4766 27.64000000 3186463102 3186463102 -1.66700000
6.52323723 6.24245977 -2.52753854 6 3 4766 9.37600000 3186463102 3186463102 -15.63900000
8.89895630 7.71667719 -2.35576081 1 4 4767 12.01200000 3186463104 3186463104 -11.31000000
40.17974472 38.43687057 0.00000000 31 5 4767 55.60400000 3186463104 3186463104 0.00000000
34.58814240 27.14006996 -0.51183516 11 6 4768 43.96800000 3186463106 3186463106 -0.66700000
10.03502655 9.59638405 -2.16017818 2 7 4768 14.05200000 3186463106 3186463106 -8.84300000
12.11916065 10.50535297 -2.04150462 2 8 4768 16.16800000 3186463108 3186463108 -7.25400000
40.47343826 42.67993164 0.34185678 51 9 4768 58.82000000 3186463108 3186463108 0.33300000
39.60308838 34.31737137 -0.30456752 27 10 4769 52.40400000 3186463111 3186463111 -0.33300000
12.80129147 12.23745441 -1.90761268 1 11 4769 17.81200000 3186463111 3186463111 -6.14800000
15.32581997 12.01697826 -1.81798601 2 12 4770 19.56000000 3186463113 3186463113 -5.33300000
40.08201599 38.30320740 1.29008067 27 13 4770 55.45600000 3186463113 3186463113 1.33300000
40.13330841 31.45722580 0.59364867 18 14 4771 50.99600000 3186463115 3186463115 0.66700000
16.50394630 15.76600361 -1.59602809 2 15 4771 22.88000000 3186463115 3186463115 -4.00000000
15.84014893 13.71149254 -1.71028125 2 16 4772 21.02000000 3186463118 3186463118 -4.66700000
39.84250259 41.95589447 1.68387651 24 17 4772 57.88400000 3186463118 3186463118 1.66700000
40.05112076 34.66890717 0.92462850 36 18 4772 52.98000000 3186463120 3186463120 1.00000000
16.49824715 17.37337494 -1.53549266 3 19 4772 24.00800000 3186463120 3186463120 -3.66700000
19.25205231 15.07926559 -1.42417347 3 20 4773 24.49600000 3186463122 3186463122 -3.33300000
39.83710480 38.02927780 3.20741343 26 21 4773 55.16800000 3186463122 3186463122 3.33300000
40.06936264 34.66023636 2.15846276 32 22 4774 53.02400000 3186463125 3186463125 2.33300000
19.46572304 18.57586670 -1.25336230 4 23 4774 26.93600000 3186463125 3186463125 -2.66700000
19.84252930 17.15785217 -1.37476087 4 24 4775 26.26800000 3186463127 3186463127 -3.00000000
97.23821259 92.76064301 16.50062180 28 25 4775 135.39600000 3186463127 3186463127 7.00000000
42.49111557 36.72914505 4.58505058 44 26 4776 56.35200000 3186463129 3186463129 4.66700000
20.00629425 21.03806877 -1.18279076 8 27 4776 29.05600000 3186463129 3186463129 -2.33300000
20.82008934 16.28399849 -0.92302191 10 28 4777 26.44800000 3186463132 3186463132 -2.00000000
20.92983437 19.95211983 -0.67286307 18 31 4777 28.92400000 3186463134 3186463134 -1.33300000
3.97121954 3.42182159 -2.44442391 4 0 4785 5.78400000 3186463154 3186463154 -25.00000000
20.92798996 21.93818855 -0.52922678 13 1 4785 30.32400000 3186463154 3186463154 -1.00000000
20.85764503 17.96575546 -0.80115330 12 2 4786 27.54000000 3186463156 3186463156 -1.66700000
6.53940344 6.21434450 -2.52538204 6 3 4786 9.36800000 3186463156 3186463156 -15.63900000
8.92286587 7.68300772 -2.35497642 1 4 4787 12.00800000 3186463159 3186463159 -11.31000000
40.19476700 38.18342972 0.00000000 31 5 4787 55.44000000 3186463159 3186463159 0.00000000
34.68741608 27.03259850 -0.51197481 11 6 4787 43.98000000 3186463161 3186463161 -0.66700000
10.06106281 9.55760956 -2.15894842 2 7 4787 14.04400000 3186463161 3186463161 -8.84300000
12.14974213 10.45780754 -2.04049444 2 8 4788 16.16000000 3186463163 3186463163 -7.25400000
40.43156052 42.33879089 0.34025267 50 9 4788 58.54400000 3186463163 3186463163 0.33300000
39.58619308 34.06151962 -0.30352139 27 10 4789 52.22400000 3186463166 3186463166 -0.33300000
12.83816147 12.18721962 -1.90675581 1 11 4789 17.80400000 3186463166 3186463166 -6.14800000
15.34567547 11.94628239 -1.81538355 2 12 4790 19.53200000 3186463168 3186463168 -5.33300000
40.33730316 38.27867126 1.29398894 27 13 4790 55.62400000 3186463168 3186463168 1.33300000
40.10713959 31.21131516 0.59164643 54 14 4791 50.82400000 3186463170 3186463170 0.66700000
16.55598450 15.70555115 -1.59574914 2 15 4791 22.87600000 3186463170 3186463170 -4.00000000
15.87279797 13.64312267 -1.70865393 2 16 4792 21.00000000 3186463172 3186463172 -4.66700000
39.83396149 41.65473938 1.67736018 72 17 4792 57.66000000 3186463172 3186463172 1.66700000
40.18706131 34.54192734 0.92497754 54 18 4792 53.00000000 3186463175 3186463175 1.00000000
16.55051422 17.30702400 -1.53472507 3 19 4792 23.99600000 3186463175 3186463175 -3.66700000
19.32033157 15.02422810 -1.42533624 3 20 4793 24.51600000 3186463177 3186463177 -3.33300000
39.76674652 37.69768143 3.19113469 26 21 4793 54.88800000 3186463177 3186463177 3.33300000
39.89601517 34.26755524 2.14266849 30 22 4794 52.63600000 3186463179 3186463179 2.33300000
19.51014519 18.48856544 -1.25205946 4 23 4794 26.90800000 3186463179 3186463179 -2.66700000
19.90229988 17.08848381 -1.37476087 9 24 4795 26.26800000 3186463182 3186463182 -3.00000000
42.53738785 36.51049423 4.57626343 22 26 4796 56.24400000 3186463184 3186463184 4.66700000
20.06855202 20.95656013 -1.18213940 8 27 4796 29.04000000 3186463184 3186463184 -2.33300000
20.81365585 16.16218758 -0.92022991 10 28 4797 26.36800000 3186463186 3186463186 -2.00000000
20.92094231 19.80471230 -0.67035067 18 31 4797 28.81600000 3186463189 3186463189 -1.33300000
3.97763038 3.40322495 -2.44104314 5 0 4805 5.77600000 3186463209 3186463209 -25.00000000
20.92963409 21.78712845 -0.52734190 13 1 4805 30.21600000 3186463209 3186463209 -1.00000000
20.86249924 17.84346199 -0.79894245 12 2 4806 27.46400000 3186463212 3186463212 -1.66700000
6.55825424 6.18883610 -2.52430367 6 3 4806 9.36400000 3186463212 3186463212 -15.63900000
8.94963074 7.65181446 -2.35497642 1 4 4807 12.00800000 3186463214 3186463214 -11.31000000
40.21142197 37.93309784 0.00000000 31 5 4807 55.28000000 3186463214 3186463214 0.00000000
34.78156662 26.91135216 -0.51197481 11 6 4807 43.98000000 3186463216 3186463216 -0.66700000
10.09436417 9.52243137 -2.15894842 2 7 4807 14.04400000 3186463216 3186463216 -8.84300000
12.18918896 10.41791153 -2.04099965 2 8 4808 16.16400000 3186463219 3186463219 -7.25400000
40.49869919 42.11378860 0.33957848 50 9 4808 58.42800000 3186463219 3186463219 0.33300000
39.56191635 33.80101395 -0.30242875 13 10 4809 52.03600000 3186463221 3186463221 -0.33300000
12.88062477 12.14233112 -1.90675581 1 11 4809 17.80400000 3186463221 3186463221 -6.14800000
15.39043331 11.89507866 -1.81575537 2 12 4810 19.53600000 3186463223 3186463223 -5.33300000
40.21165848 37.89355087 1.28570724 40 13 4810 55.26800000 3186463223 3186463223 1.33300000
40.20318222 31.06134415 0.59146017 18 14 4811 50.80800000 3186463225 3186463225 0.66700000
16.61361122 15.65040112 -1.59602809 2 15 4811 22.88000000 3186463225 3186463225 -4.00000000
15.92335701 13.59022141 -1.70897937 2 16 4812 21.00400000 3186463228 3186463228 -4.66700000
39.56033325 41.08055878 1.65978956 45 17 4812 57.05600000 3186463228 3186463228 1.66700000
40.14920044 34.26642609 0.92134744 36 18 4812 52.79200000 3186463230 3186463230 1.00000000
16.60528755 17.24339676 -1.53421342 3 19 4812 23.98800000 3186463230 3186463230 -3.66700000
19.35685539 14.94449425 -1.42417347 3 20 4813 24.49600000 3186463232 3186463232 -3.33300000
39.82831192 37.49294662 3.18555331 38 21 4813 54.79200000 3186463232 3186463232 3.33300000
39.74778748 33.89985657 2.12833953 29 22 4814 52.28400000 3186463235 3186463235 2.33300000
19.56583214 18.41213608 -1.25150108 4 23 4814 26.89600000 3186463235 3186463235 -2.66700000
19.96182823 17.01890755 -1.37476087 9 24 4815 26.26800000 3186463237 3186463237 -3.00000000
97.08819580 91.33145142 16.36656570 28 25 4815 134.29600000 3186463237 3186463237 7.00000000
42.62512589 36.32817078 4.57203245 44 26 4816 56.19200000 3186463239 3186463239 4.66700000
20.14435577 20.88925552 -1.18230224 12 27 4816 29.04400000 3186463239 3186463239 -2.33300000
20.81929016 16.05038452 -0.91799635 10 28 4817 26.30400000 3186463242 3186463242 -2.00000000
20.92293358 19.66856766 -0.66821045 18 31 4817 28.72400000 3186463244 3186463244 -1.33300000
3.98948574 3.38931966 -2.44104314 5 0 4825 5.77600000 3186463265 3186463265 -25.00000000
20.92213631 21.62770271 -0.52524763 13 1 4825 30.09600000 3186463265 3186463265 -1.00000000
20.86065865 17.71617699 -0.79649884 12 2 4826 27.38000000 3186463267 3186463267 -1.66700000
6.58543873 6.17117357 -2.52646041 5 3 4826 9.37200000 3186463267 3186463267 -15.63900000
8.97030544 7.61545086 -2.35340738 1 4 4827 12.00000000 3186463269 3186463269 -11.31000000
40.22389984 37.68038177 0.00000000 30 5 4827 55.11600000 3186463269 3186463269 0.00000000
34.89115143 26.80195999 -0.51220769 11 6 4827 44.00000000 3186463272 3186463272 -0.66700000
10.11888790 9.47903061 -2.15710354 2 7 4827 14.03200000 3186463272 3186463272 -8.84300000
12.21942902 10.37016487 -2.03998947 2 8 4828 16.15600000 3186463274 3186463274 -7.25400000
40.49241638 41.81412506 0.33829987 49 9 4828 58.20800000 3186463274 3186463274 0.33300000
39.55155563 33.55402756 -0.30145234 12 10 4829 51.86800000 3186463276 3186463276 -0.33300000
12.91422081 12.08914185 -1.90547073 1 11 4829 17.79200000 3186463276 3186463276 -6.14800000
15.42870140 11.83885860 -1.81538355 2 12 4830 19.53200000 3186463278 3186463278 -5.33300000
40.07798004 37.50431061 1.27723944 26 13 4830 54.90400000 3186463278 3186463278 1.33300000
40.33992386 30.94272804 0.59187925 18 14 4831 50.84400000 3186463281 3186463281 0.66700000
16.65648270 15.58140945 -1.59491205 2 15 4831 22.86400000 3186463281 3186463281 -4.00000000
15.97069836 13.53455544 -1.70897937 2 16 4832 21.00400000 3186463283 3186463283 -4.66700000
39.82596207 41.06851196 1.66490948 23 17 4832 57.23200000 3186463283 3186463283 1.66700000
40.31114197 34.15006638 0.92218518 36 18 4833 52.84000000 3186463285 3186463285 1.00000000
16.66281891 17.17668915 -1.53370178 3 19 4833 23.98000000 3186463285 3186463285 -3.66700000
19.41841125 14.88412285 -1.42487109 3 20 4833 24.50800000 3186463288 3186463288 -3.33300000
39.80725098 37.21189117 3.17346025 25 21 4833 54.58400000 3186463288 3186463288 3.33300000
39.80487823 33.70924377 2.12508297 14 22 4834 52.20400000 3186463290 3186463290 2.33300000
19.60662842 18.32190132 -1.25001216 4 23 4834 26.86400000 3186463290 3186463290 -2.66700000
20.01501656 16.94396210 -1.37434220 9 24 4835 26.26000000 3186463292 3186463292 -3.00000000
43.37361526 40.51737213 7.28778696 27 25 4835 59.80000000 3186463292 3186463292 7.00000000
42.82471466 36.24096680 4.57984352 22 26 4836 56.28800000 3186463295 3186463295 4.66700000
20.20044327 20.80160904 -1.18132532 12 27 4836 29.02000000 3186463295 3186463295 -2.33300000
20.81170082 15.92901993 -0.91520441 10 28 4837 26.22400000 3186463297 3186463297 -2.00000000
20.91545868 19.52446556 -0.66579109 17 31 4837 28.62000000 3186463299 3186463299 -1.33300000
3.99297953 3.36836076 -2.43597174 6 0 4845 5.76400000 3186463320 3186463320 -25.00000000
20.92215347 21.47719193 -0.52336276 12 1 4845 29.98800000 3186463320 3186463320 -1.00000000
20.87041092 17.59943390 -0.79452068 12 2 4846 27.31200000 3186463322 3186463322 -1.66700000
6.59566021 6.13765240 -2.52214718 7 3 4846 9.35600000 3186463322 3186463322 -15.63900000
8.99983311 7.58662033 -2.35419202 1 4 4847 12.00400000 3186463324 3186463324 -11.31000000
40.23803329 37.43077087 0.00000000 30 5 4847 54.95600000 3186463324 3186463324 0.00000000
34.87782288 26.58902740 -0.51057792 11 6 4848 43.86000000 3186463327 3186463327 -0.66700000
10.14487934 9.43380547 -2.15525889 2 7 4848 14.02000000 3186463327 3186463327 -8.84300000
12.25251961 10.32489109 -2.03948426 2 8 4848 16.15200000 3186463329 3186463329 -7.25400000
40.47336197 41.50357056 0.33692825 72 9 4848 57.97200000 3186463329 3186463329 0.33300000
39.61949539 33.37453079 -0.30108038 25 10 4849 51.80400000 3186463331 3186463331 -0.33300000
12.95925331 12.04669762 -1.90589905 1 11 4849 17.79600000 3186463331 3186463331 -6.14800000
15.46993256 11.78493023 -1.81538355 2 12 4850 19.53200000 3186463334 3186463334 -5.33300000
40.27016830 37.42134857 1.27919352 26 13 4850 54.98800000 3186463334 3186463334 1.33300000
40.46041870 30.81142044 0.59206551 18 14 4851 50.86000000 3186463336 3186463336 0.66700000
16.71661758 15.52860355 -1.59547007 2 15 4851 22.87200000 3186463336 3186463336 -4.00000000
16.01174545 13.47359180 -1.70832849 2 16 4852 20.99600000 3186463338 3186463338 -4.66700000
39.98025131 40.94068527 1.66537488 46 17 4852 57.24800000 3186463338 3186463338 1.66700000
40.26504135 33.88229752 0.91855508 53 18 4852 52.63200000 3186463341 3186463341 1.00000000
16.70853043 17.10991478 -1.53267848 3 19 4852 23.96400000 3186463341 3186463341 -3.66700000
19.45435905 14.80415916 -1.42370832 3 20 4853 24.48800000 3186463343 3186463343 -3.33300000
39.89885712 37.03739548 3.17043710 38 21 4853 54.53200000 3186463343 3186463343 3.33300000
40.08748627 33.70899582 2.13387561 15 22 4854 52.42000000 3186463345 3186463345 2.33300000
19.65582085 18.23975945 -1.24908149 4 23 4854 26.84400000 3186463345 3186463345 -2.66700000
20.07404137 16.87399483 -1.37434220 9 24 4855 26.26000000 3186463348 3186463348 -3.00000000
43.51769638 40.36842346 7.28827429 55 25 4855 59.80400000 3186463348 3186463348 7.00000000
42.63962936 35.82965469 4.54664660 64 26 4856 55.88000000 3186463350 3186463350 4.66700000
20.11086082 20.56523514 -1.17188120 8 27 4856 28.78800000 3186463350 3186463350 -2.33300000
20.80988503 15.81274223 -0.91269165 10 28 4857 26.15200000 3186463352 3186463352 -2.00000000
20.93114853 19.39603233 -0.66402310 21 31 4858 28.54400000 3186463354 3186463354 -1.33300000
3.99915457 3.34974647 -2.43259072 6 0 4865 5.75600000 3186463375 3186463375 -25.00000000
20.91857529 21.32408714 -0.52140808 12 1 4865 29.87600000 3186463375 3186463375 -1.00000000
20.85507774 17.46230316 -0.79161161 12 2 4866 27.21200000 3186463377 3186463377 -1.66700000
6.61987352 6.11720610 -2.52322531 6 3 4866 9.36000000 3186463377 3186463377 -15.63900000
9.03227615 7.56019402 -2.35576081 1 4 4867 12.01200000 3186463380 3186463380 -11.31000000
40.25679398 37.18694687 0.00000000 30 5 4867 54.80400000 3186463380 3186463380 0.00000000
34.96085739 26.45987701 -0.51043820 11 6 4868 43.84800000 3186463382 3186463382 -0.66700000
10.17193985 9.39297295 -2.15402913 2 7 4868 14.01200000 3186463382 3186463382 -8.84300000
12.28544235 10.27951241 -2.03897929 2 8 4868 16.14800000 3186463384 3186463384 -7.25400000
40.36295319 41.10232925 0.33481273 47 9 4868 57.60800000 3186463384 3186463384 0.33300000
39.44734573 32.99480057 -0.29889509 24 10 4869 51.42800000 3186463387 3186463387 -0.33300000
13.00122547 12.00138760 -1.90589905 1 11 4869 17.79600000 3186463387 3186463387 -6.14800000
15.50144577 11.72365189 -1.81426823 2 12 4870 19.52000000 3186463389 3186463389 -5.33300000
40.16837692 37.06631088 1.27184236 26 13 4870 54.67200000 3186463389 3186463389 1.33300000
40.70172501 30.77130890 0.59402120 18 14 4871 51.02800000 3186463391 3186463391 0.66700000
16.77952003 15.47827435 -1.59630716 2 15 4871 22.88400000 3186463391 3186463391 -4.00000000
16.05256081 13.41250515 -1.70767760 2 16 4872 20.98800000 3186463394 3186463394 -4.66700000
40.11730957 40.79517746 1.66514218 46 17 4872 57.24000000 3186463394 3186463394 1.66700000
40.21733475 33.60306549 0.91478533 35 18 4872 52.41600000 3186463396 3186463396 1.00000000
16.75415993 17.03725624 -1.53139937 3 19 4872 23.94400000 3186463396 3186463396 -3.66700000
19.49635887 14.72893906 -1.42301071 3 20 4873 24.47600000 3186463398 3186463398 -3.33300000
39.99853897 36.87083054 3.16811156 25 21 4873 54.49200000 3186463398 3186463398 3.33300000
39.99935913 33.39723587 2.12296605 14 22 4874 52.15200000 3186463401 3186463401 2.33300000
19.70173836 18.15479088 -1.24796474 4 23 4874 26.82000000 3186463401 3186463401 -2.66700000
20.11441994 16.78846169 -1.37308609 9 24 4875 26.23600000 3186463403 3186463403 -3.00000000
42.65729904 35.59120560 4.53525591 42 26 4876 55.74000000 3186463405 3186463405 4.66700000
20.20495796 20.51769257 -1.17318380 8 27 4876 28.82000000 3186463405 3186463405 -2.33300000
20.81070137 15.69907856 -0.91031849 10 28 4877 26.08400000 3186463407 3186463407 -2.00000000
20.91297150 19.25068283 -0.66141760 17 31 4877 28.43200000 3186463410 3186463410 -1.33300000
3.99688697 3.32417583 -2.42413831 6 0 4885 5.73600000 3186463430 3186463430 -25.00000000
20.91980553 21.17696381 -0.51959306 12 1 4885 29.77200000 3186463430 3186463430 -1.00000000
20.85748863 17.34083366 -0.78940076 11 2 4886 27.13600000 3186463433 3186463433 -1.66700000
6.63834810 6.09145641 -2.52214718 6 3 4886 9.35600000 3186463433 3186463433 -15.63900000
9.05257797 7.52360535 -2.35419202 1 4 4887 12.00400000 3186463435 3186463435 -11.31000000
40.26844788 36.93804169 0.00000000 44 5 4887 54.64400000 3186463435 3186463435 0.00000000
35.03881454 26.33658791 -0.51029855 11 6 4887 43.83600000 3186463437 3186463437 -0.66700000
10.19720745 9.35384560 -2.15279913 2 7 4887 14.00400000 3186463437 3186463437 -8.84300000
12.35177040 10.26192284 -2.04402995 2 8 4888 16.18800000 3186463440 3186463440 -7.25400000
40.31211853 40.76494217 0.33320865 46 9 4888 57.33200000 3186463440 3186463440 0.33300000
39.50381470 32.80834579 -0.29845339 11 10 4889 51.35200000 3186463442 3186463442 -0.33300000
13.04597092 11.95861912 -1.90632749 1 11 4889 17.80000000 3186463442 3186463442 -6.14800000
15.53590488 11.66468716 -1.81352460 2 12 4890 19.51200000 3186463444 3186463444 -5.33300000
40.11472321 36.75836945 1.26607311 25 13 4890 54.42400000 3186463444 3186463444 1.33300000
40.70012665 30.54741287 0.59243798 18 14 4891 50.89200000 3186463447 3186463447 0.66700000
16.79225349 15.38187504 -1.59240079 2 15 4891 22.82800000 3186463447 3186463447 -4.00000000
16.09928131 13.35639000 -1.70767760 2 16 4892 20.98800000 3186463449 3186463449 -4.66700000
40.00907516 40.40204239 1.65478599 45 17 4892 56.88400000 3186463449 3186463449 1.66700000
40.17741013 33.33224487 0.91122502 34 18 4892 52.21200000 3186463451 3186463451 1.00000000
16.80791092 16.97299576 -1.53088772 3 19 4892 23.93600000 3186463451 3186463451 -3.66700000
19.53487396 14.65121078 -1.42208040 3 20 4893 24.46000000 3186463454 3186463454 -3.33300000
40.05041504 36.66088104 3.16206503 25 21 4893 54.38800000 3186463454 3186463454 3.33300000
40.04800415 33.20129013 2.11938381 28 22 4894 52.06400000 3186463456 3186463456 2.33300000
19.75320053 18.07511902 -1.24722028 7 23 4894 26.80400000 3186463456 3186463456 -2.66700000
20.16367340 16.71050072 -1.37245810 9 24 4895 26.22400000 3186463458 3186463458 -3.00000000
42.25755692 38.65412903 7.03186131 24 25 4895 57.70000000 3186463458 3186463458 7.00000000
42.60628128 35.29711151 4.51670456 41 26 4896 55.51200000 3186463460 3186463460 4.66700000
20.40028191 20.57190704 -1.18034828 8 27 4896 28.99600000 3186463460 3186463460 -2.33300000
20.80777931 15.58320713 -0.90780568 10 28 4897 26.01200000 3186463463 3186463463 -2.00000000
20.92139435 19.11725426 -0.65946352 21 31 4898 28.34800000 3186463465 3186463465 -1.33300000
4.00846624 3.31020379 -2.42413831 6 0 4905 5.73600000 3186463486 3186463486 -25.00000000
20.92026329 21.03009033 -0.51777798 12 1 4905 29.66800000 3186463486 3186463486 -1.00000000
20.85622406 17.21701431 -0.78707349 19 2 4906 27.05600000 3186463488 3186463488 -1.66700000
6.65102911 6.06046438 -2.51891208 6 3 4906 9.34400000 3186463488 3186463488 -15.63900000
9.08786011 7.49944925 -2.35654545 1 4 4907 12.01600000 3186463490 3186463490 -11.31000000
40.25519943 36.66796112 0.00000000 43 5 4907 54.45200000 3186463490 3186463490 0.00000000
35.14976883 26.22847176 -0.51057792 11 6 4907 43.86000000 3186463493 3186463493 -0.66700000
10.22979641 9.31819439 -2.15279913 2 7 4907 14.00400000 3186463493 3186463493 -8.84300000
12.39975929 10.22884464 -2.04605031 2 8 4908 16.20400000 3186463495 3186463495 -7.25400000
40.32715607 40.49643326 0.33216250 45 9 4908 57.15200000 3186463495 3186463495 0.33300000
39.59340668 32.64989471 -0.29826742 35 10 4909 51.32000000 3186463497 3186463497 -0.33300000
13.07292938 11.89962196 -1.90418553 1 11 4909 17.78000000 3186463497 3186463497 -6.14800000
15.52862930 11.57468319 -1.80794799 2 12 4910 19.45200000 3186463500 3186463500 -5.33300000
40.21617126 36.59389877 1.26523566 25 13 4910 54.38800000 3186463500 3186463500 1.33300000
40.75198364 30.36453056 0.59164643 18 14 4911 50.82400000 3186463502 3186463502 0.66700000
16.86060333 15.33658981 -1.59379590 2 15 4911 22.84800000 3186463502 3186463502 -4.00000000
16.15195847 13.30518150 -1.70832849 2 16 4912 20.99600000 3186463504 3186463504 -4.66700000
39.85906219 39.97052765 1.64280069 43 17 4912 56.47200000 3186463504 3186463504 1.66700000
40.31821060 33.21213913 0.91178352 34 18 4912 52.24400000 3186463507 3186463507 1.00000000
16.86141777 16.90856934 -1.53037596 3 19 4912 23.92800000 3186463507 3186463507 -3.66700000
19.58269501 14.58054733 -1.42184794 3 20 4913 24.45600000 3186463509 3186463509 -3.33300000
39.95356369 36.31672287 3.14439082 24 21 4913 54.08400000 3186463509 3186463509 3.33300000
40.29325485 33.16797638 2.12622261 29 22 4914 52.23200000 3186463511 3186463511 2.33300000
19.79251671 17.98456192 -1.24573123 7 23 4914 26.77200000 3186463511 3186463511 -2.66700000
20.22496414 16.64255333 -1.37266743 9 24 4915 26.22800000 3186463513 3186463513 -3.00000000
43.39435959 39.41666031 7.19809103 52 25 4915 59.06400000 3186463513 3186463513 7.00000000
42.99401855 35.36598206 4.54469395 42 26 4916 55.85600000 3186463516 3186463516 4.66700000
20.46349335 20.49208641 -1.17985988 12 27 4916 28.98400000 3186463516 3186463516 -2.33300000
20.81071854 15.47231770 -0.90557212 10 28 4917 25.94800000 3186463518 3186463518 -2.00000000
20.91396141 18.97693062 -0.65713716 24 31 4918 28.24800000 3186463520 3186463520 -1.33300000
4.01438951 3.29159427 -2.42075729 6 0 4925 5.72800000 3186463541 3186463541 -25.00000000
20.91995239 20.88347244 -0.51596296 12 1 4925 29.56400000 3186463541 3186463541 -1.00000000
20.84816551 17.08834457 -0.78451353 19 2 4926 26.96800000 3186463543 3186463543 -1.66700000
6.67214394 6.03721094 -2.51891208 6 3 4926 9.34400000 3186463543 3186463543 -15.63900000
9.10488129 7.46022320 -2.35419202 1 4 4927 12.00400000 3186463546 3186463546 -11.31000000
40.23759079 36.39574051 0.00000000 28 5 4927 54.25600000 3186463546 3186463546 0.00000000
35.44358826 26.25560760 -0.51351148 11 6 4927 44.11200000 3186463548 3186463548 -0.66700000
10.26519203 9.28507996 -2.15341401 2 7 4927 14.00800000 3186463548 3186463548 -8.84300000
12.42924976 10.18047047 -2.04504013 4 8 4928 16.19600000 3186463550 3186463550 -7.25400000
40.34648132 40.23397064 0.33116284 45 9 4928 56.98000000 3186463550 3186463550 0.33300000
39.56167603 32.39238739 -0.29717478 22 10 4929 51.13200000 3186463553 3186463553 -0.33300000
13.11733723 11.85658264 -1.90461385 1 11 4929 17.78400000 3186463553 3186463553 -6.14800000
15.62656498 11.56305027 -1.81464005 2 12 4930 19.52400000 3186463555 3186463555 -5.33300000
40.21014023 36.33264923 1.26104832 37 13 4930 54.20800000 3186463555 3186463555 1.33300000
40.70016098 30.10554504 0.58936477 17 14 4931 50.62800000 3186463557 3186463557 0.66700000
16.90515137 15.26961803 -1.59295881 2 15 4931 22.83600000 3186463557 3186463557 -4.00000000
16.17053032 13.22600269 -1.70539939 2 16 4932 20.96000000 3186463560 3186463560 -4.66700000
40.00117874 39.83396912 1.64291704 21 17 4932 56.47600000 3186463560 3186463560 1.66700000
40.26053238 32.92940140 0.90787417 33 18 4932 52.02000000 3186463562 3186463562 1.00000000
16.92882347 16.85805893 -1.53114355 3 19 4932 23.94000000 3186463562 3186463562 -3.66700000
19.63989449 14.51684856 -1.42231297 3 20 4933 24.46400000 3186463564 3186463564 -3.33300000
40.02080536 36.12352753 3.13973975 24 21 4933 54.00400000 3186463564 3186463564 3.33300000
40.24786758 32.89560318 2.11775565 28 22 4934 52.02400000 3186463566 3186463566 2.33300000
19.83737373 17.89930344 -1.24461448 7 23 4934 26.74800000 3186463566 3186463566 -2.66700000
20.27056122 16.56174278 -1.37183011 9 24 4935 26.21200000 3186463569 3186463569 -3.00000000
41.68322372 37.59766006 6.89244270 22 25 4935 56.55600000 3186463569 3186463569 7.00000000
42.95973206 35.08707428 4.52809572 42 26 4936 55.65200000 3186463571 3186463571 4.66700000
20.38470078 20.27116776 -1.17122984 8 27 4936 28.77200000 3186463571 3186463571 -2.33300000
20.81313896 15.36159706 -0.90333855 10 28 4937 25.88400000 3186463573 3186463573 -2.00000000
20.91471863 18.84492111 -0.65509003 23 31 4938 28.16000000 3186463576 3186463576 -1.33300000
4.02304363 3.27527261 -2.41906691 7 0 4945 5.72400000 3186463596 3186463596 -25.00000000
20.92171478 20.73993111 -0.51421767 12 1 4945 29.46400000 3186463596 3186463596 -1.00000000
20.85807037 16.97508621 -0.78265172 15 2 4946 26.90400000 3186463599 3186463599 -1.66700000
6.69317675 6.01388407 -2.51891208 6 3 4946 9.34400000 3186463599 3186463599 -15.63900000
9.13390923 7.43087149 -2.35497642 1 4 4947 12.00800000 3186463601 3186463601 -11.31000000
40.27213669 36.17220306 0.00000000 42 5 4947 54.13200000 3186463601 3186463601 0.00000000
35.61557770 26.19096565 -0.51467556 11 6 4947 44.21200000 3186463603 3186463603 -0.66700000
10.28577805 9.23862648 -2.15095448 2 7 4947 13.99200000 3186463603 3186463603 -8.84300000
12.44623947 10.12200069 -2.04200983 2 8 4948 16.17200000 3186463606 3186463606 -7.25400000
40.40141296 40.00845337 0.33046541 44 9 4948 56.86000000 3186463606 3186463606 0.33300000
39.57208252 32.17082977 -0.29640761 22 10 4949 51.00000000 3186463608 3186463608 -0.33300000
13.16160393 11.81337929 -1.90504229 1 11 4949 17.78800000 3186463608 3186463608 -6.14800000
15.65399361 11.49900150 -1.81315291 2 12 4950 19.50800000 3186463610 3186463610 -5.33300000
40.15515900 36.02916336 1.25537205 24 13 4950 53.96400000 3186463610 3186463610 1.33300000
40.79855347 29.95855713 0.58927161 35 14 4951 50.62000000 3186463612 3186463612 0.66700000
16.94349670 15.19719315 -1.59156370 2 15 4951 22.81600000 3186463612 3186463612 -4.00000000
16.21660042 13.16947651 -1.70539939 2 16 4952 20.96000000 3186463615 3186463615 -4.66700000
40.00067520 39.55633926 1.63721526 21 17 4952 56.28000000 3186463615 3186463615 1.66700000
39.98405457 32.47099304 0.89907819 32 18 4952 51.51600000 3186463617 3186463617 1.00000000
16.96485901 16.77640915 -1.52909684 3 19 4952 23.90800000 3186463617 3186463617 -3.66700000
19.69044685 14.44820404 -1.42231297 3 20 4953 24.46400000 3186463619 3186463619 -3.33300000
39.87605667 35.74106979 3.11857700 36 21 4953 53.64000000 3186463619 3186463619 3.33300000
40.05831909 32.50810242 2.10179830 40 22 4954 51.63200000 3186463622 3186463622 2.33300000
19.89675713 17.82728195 -1.24442840 7 23 4954 26.74400000 3186463622 3186463622 -2.66700000
