# .PCD v0.7 - Point Cloud Data file format
VERSION 0.7
FIELDS x y z intensity laser_id azimuth distance_m adjustedtime timestamp vertical_angle
SIZE 4 4 4 1 1 2 8 8 4 8
TYPE F F F U U U F U U F
COUNT 1 1 1 1 1 1 1 1 1 1
WIDTH 525
HEIGHT 1
VIEWPOINT 0 0 0 1 0 0 0
POINTS 525
DATA ascii
20.61127853 2.92240953 -0.96970862 23 23 8333 20.84000000 3179073034 3179073034 -2.66700000
20.57662582 1.89434803 -1.08293557 38 24 8334 20.69200000 3179073037 3179073037 -3.00000000
41.01177216 5.80763054 5.08585167 24 25 8334 41.73200000 3179073037 3179073037 7.00000000
40.89510345 3.75773215 3.35254169 26 26 8335 41.20400000 3179073039 3179073039 4.66700000
20.63104630 3.95424485 -0.85582989 24 27 8335 21.02400000 3179073039 3179073039 -2.33300000
35.30242538 1.50429976 -1.23390663 6 28 8336 35.35600000 3179073041 3179073041 -2.00000000
106.49018860 9.76633072 19.49739456 28 30 8336 108.70000000 3179073044 3179073044 10.33300000
39.36645126 5.56062222 -0.92512858 15 31 8336 39.76800000 3179073044 3179073044 -1.33300000
5.85629511 0.52884257 -2.74194717 6 0 8344 6.48800000 3179073064 3179073064 -25.00000000
39.51468658 7.50924301 -0.70207542 25 1 8344 40.22800000 3179073064 3179073064 -1.00000000
39.28407288 3.54056764 -1.14791250 24 2 8345 39.46000000 3179073067 3179073067 -1.66700000
8.82767200 1.23279357 -2.49518967 2 3 8345 9.25600000 3179073067 3179073067 -15.63900000
11.64542294 1.04752159 -2.33850265 4 4 8346 11.92400000 3179073069 3179073069 -11.31000000
39.95723343 5.57295942 0.00000000 19 5 8346 40.34400000 3179073069 3179073069 0.00000000
39.87601471 1.62947071 -0.46461892 19 6 8346 39.91200000 3179073071 3179073071 -0.66700000
13.72054005 1.91364634 -2.15525889 2 7 8346 14.02000000 3179073071 3179073071 -8.84300000
16.04153442 1.44013548 -2.05009079 2 8 8347 16.23600000 3179073074 3179073074 -7.25400000
39.91303253 7.56329250 0.23610318 25 9 8347 40.62400000 3179073074 3179073074 0.33300000
39.97916412 3.58211231 -0.23329021 22 10 8348 40.14000000 3179073076 3179073076 -0.33300000
17.33973885 2.41225719 -1.88576484 4 11 8348 17.60800000 3179073076 3179073076 -6.14800000
19.69031334 0.79428685 -1.83954895 6 12 8349 19.79200000 3179073078 3179073078 -5.33300000
39.60077286 5.50210667 0.93033952 18 13 8349 39.99200000 3179073078 3179073078 1.33300000
40.07696915 1.60965741 0.46694714 17 14 8350 40.11200000 3179073080 3179073080 0.66700000
20.55636215 2.85243106 -1.45121372 26 15 8350 20.80400000 3179073080 3179073080 -4.00000000
20.51823997 1.82759464 -1.68164098 23 16 8351 20.66800000 3179073083 3179073083 -4.66700000
39.74885559 7.50343943 1.17723572 31 17 8351 40.46800000 3179073083 3179073083 1.66700000
39.45376587 3.51421428 0.69139451 24 18 8351 39.61600000 3179073085 3179073085 1.00000000
20.55015182 3.87927699 -1.34029424 33 19 8351 20.95600000 3179073085 3179073085 -3.66700000
20.55286407 0.81830251 -1.19789636 21 20 8352 20.60400000 3179073087 3179073087 -3.33300000
39.90731430 5.52339983 2.34625840 17 21 8352 40.35600000 3179073087 3179073087 3.33300000
39.43625641 3.49877977 1.61298525 24 22 8353 39.62400000 3179073090 3179073090 2.33300000
20.61343765 2.84935069 -0.96933639 22 23 8353 20.83200000 3179073090 3179073090 -2.66700000
20.59107208 1.82321525 -1.08335423 35 24 8354 20.70000000 3179073092 3179073092 -3.00000000
41.14978027 5.68072557 5.10047579 73 25 8354 41.85200000 3179073092 3179073092 7.00000000
41.33289719 3.65250850 3.38736582 27 26 8355 41.63200000 3179073094 3179073094 4.66700000
20.62901306 3.87925053 -0.85517853 24 27 8355 21.00800000 3179073094 3179073094 -2.33300000
35.37137604 1.38356209 -1.23614013 6 28 8356 35.42000000 3179073097 3179073097 -2.00000000
115.35911560 10.17377186 21.11458588 28 30 8356 117.71600000 3179073099 3179073099 10.33300000
39.39750671 5.42481041 -0.92540771 15 31 8356 39.78000000 3179073099 3179073099 -1.33300000
5.85449409 0.50808358 -2.74025679 6 0 8364 6.48400000 3179073120 3179073120 -25.00000000
39.56818008 7.37639570 -0.70256406 25 1 8364 40.25600000 3179073120 3179073120 -1.00000000
39.30415726 3.40410900 -1.14814520 16 2 8365 39.46800000 3179073122 3179073122 -1.66700000
8.83573818 1.20249116 -2.49626780 2 3 8365 9.26000000 3179073122 3179073122 -15.63900000
11.66854763 1.00855398 -2.34242487 4 4 8366 11.94400000 3179073124 3179073124 -11.31000000
39.92095184 5.42590666 0.00000000 13 5 8366 40.28800000 3179073124 3179073124 0.00000000
39.89744949 1.49086487 -0.46480516 19 6 8366 39.92800000 3179073127 3179073127 -0.66700000
13.73888588 1.86733806 -2.15710354 2 7 8366 14.03200000 3179073127 3179073127 -8.84300000
16.06227684 1.38549531 -2.05211115 2 8 8367 16.25200000 3179073129 3179073129 -7.25400000
39.84874344 7.40711117 0.23556848 25 9 8367 40.53200000 3179073129 3179073129 0.33300000
39.98744202 3.44219422 -0.23326696 22 10 8368 40.13600000 3179073131 3179073131 -0.33300000
17.35199547 2.35224986 -1.88619328 4 11 8368 17.61200000 3179073131 3179073131 -6.14800000
19.69694519 0.72569662 -1.83992076 6 12 8369 19.79600000 3179073133 3179073133 -5.33300000
39.48500443 5.34559965 0.92717570 18 13 8369 39.85600000 3179073133 3179073133 1.33300000
40.06635666 1.46916664 0.46676087 17 14 8370 40.09600000 3179073136 3179073136 0.66700000
20.56224060 2.78012395 -1.45093465 26 15 8370 20.80000000 3179073136 3179073136 -4.00000000
20.51655006 1.75528181 -1.68098998 26 16 8371 20.66000000 3179073138 3179073138 -4.66700000
39.99496841 7.40540934 1.18375206 23 17 8371 40.69200000 3179073138 3179073138 1.66700000
40.08005524 3.42197990 0.70214522 17 18 8372 40.23200000 3179073140 3179073140 1.00000000
20.55245590 3.80175257 -1.33952665 36 19 8372 20.94400000 3179073140 3179073140 -3.66700000
20.55559540 0.74655467 -1.19789636 21 20 8372 20.60400000 3179073143 3179073143 -3.33300000
39.82741928 5.37072229 2.34044433 22 21 8372 40.25600000 3179073143 3179073143 3.33300000
39.61946487 3.37568998 1.61998689 25 22 8373 39.79600000 3179073145 3179073145 2.33300000
20.61137772 2.77577901 -0.96877801 20 23 8373 20.82000000 3179073145 3179073145 -2.66700000
20.58536911 1.75031269 -1.08272624 38 24 8374 20.68800000 3179073147 3179073147 -3.00000000
41.56676865 5.59050083 5.14971113 24 25 8374 42.25600000 3179073147 3179073147 7.00000000
41.17060471 3.49337649 3.37304568 27 26 8375 41.45600000 3179073150 3179073150 4.66700000
20.62670708 3.80431843 -0.85452724 24 27 8375 20.99200000 3179073150 3179073150 -2.33300000
35.50782394 1.26478052 -1.24074686 6 28 8376 35.55200000 3179073152 3179073152 -2.00000000
112.18254852 9.49910641 20.52697182 28 30 8376 114.44000000 3179073154 3179073154 10.33300000
39.44394684 5.29097605 -0.92605907 30 31 8376 39.80800000 3179073154 3179073154 -1.33300000
5.86345720 0.48824617 -2.74363780 6 0 8384 6.49200000 3179073175 3179073175 -25.00000000
39.59761810 7.23895121 -0.70263386 25 1 8384 40.26000000 3179073175 3179073175 -1.00000000
39.28392410 3.26424241 -1.14721429 16 2 8385 39.43600000 3179073177 3179073177 -1.66700000
8.83606243 1.17113519 -2.49518967 2 3 8385 9.25600000 3179073177 3179073177 -15.63900000
11.66808796 0.96749288 -2.34164047 2 4 8386 11.94000000 3179073179 3179073179 -11.31000000
39.90396118 5.28179979 0.00000000 13 5 8386 40.25200000 3179073179 3179073179 0.00000000
40.01057816 1.34826040 -0.46606240 19 6 8387 40.03600000 3179073182 3179073182 -0.66700000
13.74563789 1.81696999 -2.15710354 3 7 8387 14.03200000 3179073182 3179073182 -8.84300000
16.07887840 1.33040059 -2.05362630 2 8 8387 16.26400000 3179073184 3179073184 -7.25400000
39.86648560 7.26653385 0.23552199 25 9 8387 40.52400000 3179073184 3179073184 0.33300000
39.93144226 3.29699564 -0.23287176 22 10 8388 40.06800000 3179073186 3179073186 -0.33300000
17.36404228 2.29218626 -1.88662159 4 11 8388 17.61600000 3179073186 3179073186 -6.14800000
19.70333862 0.65706974 -1.84029257 6 12 8389 19.80000000 3179073189 3179073189 -5.33300000
39.77698135 5.24380207 0.93359631 18 13 8389 40.13200000 3179073189 3179073189 1.33300000
40.06724167 1.32916737 0.46671429 17 14 8390 40.09200000 3179073191 3179073191 0.66700000
20.55599403 2.70624804 -1.44981849 28 15 8390 20.78400000 3179073191 3179073191 -4.00000000
20.51460648 1.68300307 -1.68033910 23 16 8391 20.65200000 3179073193 3179073193 -4.66700000
39.80420303 7.22647381 1.17735207 23 17 8391 40.47200000 3179073193 3179073193 1.66700000
40.01544952 3.28283763 0.70081884 25 18 8391 40.15600000 3179073196 3179073196 1.00000000
20.54531288 3.73001194 -1.33824754 33 19 8391 20.92400000 3179073196 3179073196 -3.66700000
20.55009460 0.67453569 -1.19743133 21 20 8392 20.59600000 3179073198 3179073198 -3.33300000
39.97261810 5.24830055 2.34788632 17 21 8392 40.38400000 3179073198 3179073198 3.33300000
39.55133820 3.23086381 1.61673033 24 22 8393 39.71600000 3179073200 3179073200 2.33300000
20.60905647 2.70225668 -0.96821964 20 23 8393 20.80800000 3179073200 3179073200 -2.66700000
20.57941055 1.67747211 -1.08209825 38 24 8394 20.67600000 3179073203 3179073203 -3.00000000
41.62145996 5.45001078 5.15409803 24 25 8394 42.29200000 3179073203 3179073203 7.00000000
41.00373840 3.33509898 3.35840011 26 26 8395 41.27600000 3179073205 3179073205 4.66700000
20.63199425 3.73087239 -0.85420156 22 27 8395 20.98400000 3179073205 3179073205 -2.33300000
35.55597305 1.14223933 -1.24228251 6 28 8396 35.59600000 3179073207 3179073207 -2.00000000
111.13797760 9.00052071 20.32966614 28 30 8397 113.34000000 3179073209 3179073209 10.33300000
39.47100449 5.14740515 -0.92624521 20 31 8397 39.81600000 3179073209 3179073209 -1.33300000
5.86151218 0.46748769 -2.74194717 7 0 8404 6.48800000 3179073230 3179073230 -25.00000000
39.64626694 7.10491848 -0.70305276 25 1 8404 40.28400000 3179073230 3179073230 -1.00000000
39.36682129 3.13280535 -1.14930880 16 2 8405 39.50800000 3179073232 3179073232 -1.66700000
8.84391689 1.14077723 -2.49626780 2 3 8405 9.26000000 3179073232 3179073232 -15.63900000
11.67530441 0.92706817 -2.34242487 2 4 8406 11.94400000 3179073235 3179073235 -11.31000000
39.92215347 5.14247704 0.00000000 19 5 8406 40.25200000 3179073235 3179073235 0.00000000
40.05102158 1.20967603 -0.46648148 19 6 8407 40.07200000 3179073237 3179073237 -0.66700000
13.75581646 1.76948190 -2.15771842 3 7 8407 14.03600000 3179073237 3179073237 -8.84300000
16.09133530 1.27489352 -2.05463648 2 8 8407 16.27200000 3179073239 3179073239 -7.25400000
39.47816086 7.05346012 0.23308098 25 9 8407 40.10400000 3179073239 3179073239 0.33300000
39.99853516 3.16200185 -0.23319723 22 10 8408 40.12400000 3179073242 3179073242 -0.33300000
17.37588310 2.23206711 -1.88705003 4 11 8408 17.62000000 3179073242 3179073242 -6.14800000
19.72143745 0.58876365 -1.84177971 6 12 8409 19.81600000 3179073244 3179073244 -5.33300000
39.66415405 5.08813143 0.93052560 30 13 8409 40.00000000 3179073244 3179073244 1.33300000
40.07164001 1.18929851 0.46671429 17 14 8410 40.09200000 3179073246 3179073246 0.66700000
20.54948425 2.63244963 -1.44870245 28 15 8410 20.76800000 3179073246 3179073246 -4.00000000
20.50445747 1.61013496 -1.67903721 23 16 8411 20.63600000 3179073249 3179073249 -4.66700000
39.93547058 7.10640001 1.18049383 23 17 8411 40.58000000 3179073249 3179073249 1.66700000
39.99077988 3.14031982 0.70019054 17 18 8411 40.12000000 3179073251 3179073251 1.00000000
20.54641724 3.65617466 -1.33748007 33 19 8411 20.91200000 3179073251 3179073251 -3.66700000
20.54434013 0.60256422 -1.19696617 21 20 8412 20.58800000 3179073253 3179073253 -3.33300000
39.78472137 5.08242559 2.33579326 28 21 8412 40.17600000 3179073253 3179073253 3.33300000
39.57034302 3.09340715 1.61705601 33 22 8413 39.72400000 3179073256 3179073256 2.33300000
20.60647392 2.62878418 -0.96766126 20 23 8413 20.79600000 3179073256 3179073256 -2.66700000
20.57717514 1.60500503 -1.08167958 35 24 8414 20.66800000 3179073258 3179073258 -3.00000000
41.59690857 5.29917288 5.14873600 24 25 8414 42.24800000 3179073258 3179073258 7.00000000
41.04692841 3.19442368 3.36100364 26 26 8415 41.30800000 3179073260 3179073260 4.66700000
20.63308525 3.65673804 -0.85371310 26 27 8415 20.97200000 3179073260 3179073260 -2.33300000
35.73955917 1.02326715 -1.24856436 6 28 8416 35.77600000 3179073262 3179073262 -2.00000000
111.38300323 8.64867973 20.36912727 28 30 8416 113.56000000 3179073265 3179073265 10.33300000
39.47198868 5.01447058 -0.92587298 25 31 8416 39.80000000 3179073265 3179073265 -1.33300000
5.86310816 0.44702435 -2.74194717 7 0 8424 6.48800000 3179073285 3179073285 -25.00000000
39.67870331 6.96786737 -0.70319235 25 1 8424 40.29200000 3179073285 3179073285 -1.00000000
39.42137146 2.99870634 -1.15058875 16 2 8425 39.55200000 3179073288 3179073288 -1.66700000
8.85166740 1.11037874 -2.49734616 2 3 8425 9.26400000 3179073288 3179073288 -15.63900000
11.68629074 0.88690180 -2.34399390 2 4 8426 11.95200000 3179073290 3179073290 -11.31000000
39.90811157 4.99911356 0.00000000 19 5 8426 40.22000000 3179073290 3179073290 0.00000000
40.01882553 1.07588792 -0.46606240 28 6 8426 40.03600000 3179073292 3179073292 -0.66700000
13.76553059 1.72434747 -2.15833330 2 7 8426 14.04000000 3179073292 3179073292 -8.84300000
16.09964561 1.21901608 -2.05514169 2 8 8427 16.27600000 3179073295 3179073295 -7.25400000
39.63256073 6.93837500 0.23384815 16 9 8427 40.23600000 3179073295 3179073295 0.33300000
39.97343063 3.01964998 -0.23298800 22 10 8428 40.08800000 3179073297 3179073297 -0.33300000
17.34015846 2.16597795 -1.88233769 2 11 8428 17.57600000 3179073297 3179073297 -6.14800000
19.73531532 0.52023429 -1.84289503 6 12 8429 19.82800000 3179073299 3179073299 -5.33300000
39.65786362 4.94667721 0.92996728 18 13 8429 39.97600000 3179073299 3179073299 1.33300000
40.07554626 1.04941511 0.46671429 17 14 8430 40.09200000 3179073302 3179073302 0.66700000
20.55062866 2.55971599 -1.44814444 29 15 8430 20.76000000 3179073302 3179073302 -4.00000000
20.50597763 1.53825307 -1.67871177 18 16 8431 20.63200000 3179073304 3179073304 -4.66700000
39.67249680 6.91682386 1.17199945 22 17 8431 40.28800000 3179073304 3179073304 1.66700000
39.58672714 2.96959281 0.69293034 24 18 8431 39.70400000 3179073306 3179073306 1.00000000
20.54332542 3.58168960 -1.33645678 33 19 8431 20.89600000 3179073306 3179073306 -3.66700000
20.55031013 0.53095055 -1.19719875 21 20 8432 20.59200000 3179073309 3179073309 -3.33300000
39.77844238 4.94056702 2.33439803 33 21 8432 40.15200000 3179073309 3179073309 3.33300000
39.56894302 2.95436931 1.61656749 24 22 8433 39.71200000 3179073311 3179073311 2.33300000
20.60362816 2.55536294 -0.96710289 20 23 8433 20.78400000 3179073311 3179073311 -2.66700000
20.57070160 1.53227735 -1.08105147 38 24 8434 20.65600000 3179073313 3179073313 -3.00000000
41.46936798 5.13588524 5.13069916 32 25 8434 42.10000000 3179073313 3179073313 7.00000000
40.46146011 3.00680590 3.31218505 26 26 8435 40.70800000 3179073315 3179073315 4.66700000
20.62997246 3.58195806 -0.85306180 28 27 8435 20.95600000 3179073315 3179073315 -2.33300000
35.77088928 0.89920986 -1.24954152 6 28 8436 35.80400000 3179073318 3179073318 -2.00000000
109.18881226 8.07580662 19.96232033 28 30 8437 111.29200000 3179073320 3179073320 10.33300000
39.56154251 4.87857437 -0.92754793 15 31 8437 39.87200000 3179073320 3179073320 -1.33300000
5.86463308 0.42655557 -2.74194717 7 0 8444 6.48800000 3179073341 3179073341 -25.00000000
39.75008392 6.83745623 -0.70403010 25 1 8444 40.34000000 3179073341 3179073341 -1.00000000
39.46350098 2.86339664 -1.15151966 24 2 8445 39.58400000 3179073343 3179073343 -1.66700000
8.85931301 1.07993996 -2.49842453 2 3 8445 9.26800000 3179073343 3179073343 -15.63900000
11.69713974 0.84666991 -2.34556270 2 4 8446 11.96000000 3179073345 3179073345 -11.31000000
39.99678802 4.86847782 0.00000000 13 5 8446 40.29200000 3179073345 3179073345 0.00000000
40.08631897 0.93768620 -0.46680743 28 6 8446 40.10000000 3179073348 3179073348 -0.66700000
13.77538872 1.67676389 -2.15894842 2 7 8446 14.04400000 3179073348 3179073348 -8.84300000
16.10775948 1.16309619 -2.05564666 2 8 8447 16.28000000 3179073350 3179073350 -7.25400000
39.75904083 6.81756544 0.23445261 33 9 8447 40.34000000 3179073350 3179073350 0.33300000
39.94782257 2.87751198 -0.23277877 15 10 8448 40.05200000 3179073352 3179073352 -0.33300000
17.33576965 2.10399890 -1.88105261 2 11 8448 17.56400000 3179073352 3179073352 -6.14800000
19.75293732 0.45170620 -1.84438205 6 12 8449 19.84400000 3179073355 3179073355 -5.33300000
39.54388428 4.79233837 0.92689657 18 13 8449 39.84400000 3179073355 3179073355 1.33300000
40.06696701 0.90924674 0.46657461 17 14 8450 40.08000000 3179073357 3179073357 0.66700000
20.54755402 2.48652720 -1.44730735 28 15 8450 20.74800000 3179073357 3179073357 -4.00000000
20.50326920 1.46609581 -1.67806089 13 16 8451 20.62400000 3179073359 3179073359 -4.66700000
39.70822144 6.78031778 1.17234850 22 17 8451 40.30000000 3179073359 3179073359 1.66700000
39.63674545 2.83424377 0.69362843 16 18 8451 39.74400000 3179073362 3179073362 1.00000000
20.53996277 3.50727057 -1.33543348 33 19 8451 20.88000000 3179073362 3179073362 -3.66700000
20.54804611 0.45912415 -1.19696617 21 20 8452 20.58800000 3179073364 3179073364 -3.33300000
39.79941177 4.80216217 2.33463049 28 21 8452 40.15600000 3179073364 3179073364 3.33300000
39.69063950 2.82417250 1.62112677 25 22 8453 39.82400000 3179073366 3179073366 2.33300000
20.60448837 2.48247123 -0.96673065 20 23 8453 20.77600000 3179073366 3179073366 -2.66700000
20.57194138 1.46018004 -1.08084214 38 24 8454 20.65200000 3179073368 3179073368 -3.00000000
41.57770538 5.00200605 5.14191151 24 25 8454 42.19200000 3179073368 3179073368 7.00000000
40.65464020 2.87850308 3.32715607 17 26 8455 40.89200000 3179073371 3179073371 4.66700000
20.63053131 3.50791430 -0.85257328 30 27 8455 20.94400000 3179073371 3179073371 -2.33300000
35.89770508 0.77702242 -1.25386918 6 28 8456 35.92800000 3179073373 3179073373 -2.00000000
110.45676422 7.78200912 20.18904114 28 30 8457 112.55600000 3179073375 3179073375 10.33300000
39.59818268 4.74282694 -0.92801321 15 31 8457 39.89200000 3179073375 3179073375 -1.33300000
5.86608601 0.40608159 -2.74194717 7 0 8464 6.48800000 3179073396 3179073396 -25.00000000
39.77370834 6.69866085 -0.70403010 25 1 8464 40.34000000 3179073396 3179073396 -1.00000000
39.46129227 2.72479939 -1.15117061 16 2 8465 39.57200000 3179073398 3179073398 -1.66700000
8.86302853 1.04900861 -2.49842453 2 3 8465 9.26800000 3179073398 3179073398 -15.63900000
11.70785046 0.80637318 -2.34713173 2 4 8466 11.96800000 3179073401 3179073401 -11.31000000
39.95395660 4.72179127 0.00000000 19 5 8466 40.23200000 3179073401 3179073401 0.00000000
40.16532516 0.79926509 -0.46769217 19 6 8466 40.17600000 3179073403 3179073403 -0.66700000
13.78900814 1.62959635 -2.16017818 2 7 8466 14.05200000 3179073403 3179073403 -8.84300000
16.12755585 1.10795045 -2.05766702 2 8 8467 16.29600000 3179073405 3179073405 -7.25400000
39.65636444 6.65754700 0.23370868 16 9 8467 40.21200000 3179073405 3179073405 0.33300000
39.94565201 2.73723006 -0.23270902 15 10 8468 40.04000000 3179073408 3179073408 -0.33300000
17.36275673 2.04579973 -1.88319445 2 11 8468 17.58400000 3179073408 3179073408 -6.14800000
19.75439453 0.38275284 -1.84438205 6 12 8469 19.84400000 3179073410 3179073410 -5.33300000
39.74306107 4.67576885 0.93117696 18 13 8469 40.02800000 3179073410 3179073410 1.33300000
40.06589890 0.76930457 0.46652806 17 14 8470 40.07600000 3179073412 3179073412 0.66700000
20.56007195 2.41525340 -1.44758630 28 15 8470 20.75200000 3179073412 3179073412 -4.00000000
20.50826263 1.39451706 -1.67806089 13 16 8471 20.62400000 3179073415 3179073415 -4.66700000
39.71192932 6.63837290 1.17176676 22 17 8471 40.28000000 3179073415 3179073415 1.66700000
39.88181686 2.71187663 0.69774723 16 18 8471 39.98000000 3179073417 3179073417 1.00000000
20.54420662 3.43423510 -1.33492172 27 19 8471 20.87200000 3179073417 3179073417 -3.66700000
20.54553223 0.38732001 -1.19673359 18 20 8472 20.58400000 3179073419 3179073419 -3.33300000
39.83972931 4.66599417 2.33602595 16 21 8472 40.18000000 3179073419 3179073419 3.33300000
39.64044189 2.68156290 1.61868429 25 22 8473 39.76400000 3179073421 3179073421 2.33300000
20.60509109 2.40960479 -0.96635836 20 23 8473 20.76800000 3179073421 3179073421 -2.66700000
20.57292747 1.38809276 -1.08063281 38 24 8474 20.64800000 3179073424 3179073424 -3.00000000
41.25183487 4.81678295 5.09950066 24 25 8474 41.84400000 3179073424 3179073424 7.00000000
41.60716629 2.80001640 3.40428948 18 26 8475 41.84000000 3179073426 3179073426 4.66700000
20.63476562 3.43456650 -0.85224760 28 27 8475 20.93600000 3179073426 3179073426 -2.33300000
35.94016647 0.65243691 -1.25526512 6 28 8476 35.96800000 3179073428 3179073428 -2.00000000
39.62641144 4.60595989 -0.92829233 25 31 8477 39.90400000 3179073431 3179073431 -1.33300000
5.86746788 0.38560265 -2.74194717 8 0 8484 6.48800000 3179073451 3179073451 -25.00000000
39.61927414 6.53051376 -0.70088863 17 1 8484 40.16000000 3179073451 3179073451 -1.00000000
39.48651886 2.58808327 -1.15163600 24 2 8485 39.58800000 3179073454 3179073454 -1.66700000
8.86663628 1.01806450 -2.49842453 2 3 8485 9.26800000 3179073454 3179073454 -15.63900000
11.71059418 0.76550025 -2.34713173 2 4 8486 11.96800000 3179073456 3179073456 -11.31000000
39.99006271 4.58457518 0.00000000 13 5 8486 40.25200000 3179073456 3179073456 0.00000000
40.17586899 0.65918827 -0.46778530 19 6 8486 40.18400000 3179073458 3179073458 -0.66700000
13.78675938 1.58055353 -2.15894842 2 7 8486 14.04400000 3179073458 3179073458 -8.84300000
16.12736511 1.05138981 -2.05716181 2 8 8487 16.29200000 3179073461 3179073461 -7.25400000
39.73856735 6.52880716 0.23405738 16 9 8487 40.27200000 3179073461 3179073461 0.33300000
39.99487686 2.60037231 -0.23294149 22 10 8488 40.08000000 3179073463 3179073463 -0.33300000
17.37374306 1.98563159 -1.88362288 2 11 8488 17.58800000 3179073463 3179073463 -6.14800000
19.77153778 0.31404778 -1.84586918 6 12 8489 19.86000000 3179073465 3179073465 -5.33300000
39.86641312 4.54925251 0.93368942 18 13 8489 40.13600000 3179073465 3179073465 1.33300000
40.07233810 0.62950665 0.46657461 17 14 8490 40.08000000 3179073467 3179073467 0.66700000
20.55251884 2.34166384 -1.44647026 29 15 8490 20.73600000 3179073467 3179073467 -4.00000000
20.50902557 1.32266486 -1.67773545 13 16 8491 20.62000000 3179073470 3179073470 -4.66700000
39.68356323 6.49132109 1.17025399 22 17 8491 40.22800000 3179073470 3179073470 1.66700000
39.73937607 2.56286550 0.69509447 25 18 8491 39.82800000 3179073472 3179073472 1.00000000
20.54030991 3.35992384 -1.33389843 27 19 8491 20.85600000 3179073472 3179073472 -3.66700000
20.54276657 0.31553903 -1.19650102 21 20 8492 20.58000000 3179073474 3179073474 -3.33300000
39.83196640 4.52419519 2.33463049 16 21 8492 40.15600000 3179073474 3179073474 3.33300000
39.63360977 2.54215240 1.61803293 25 22 8493 39.74800000 3179073477 3179073477 2.33300000
20.60543633 2.33676457 -0.96598613 22 23 8493 20.76000000 3179073477 3179073477 -2.66700000
20.56568909 1.31550646 -1.08000481 38 24 8494 20.63600000 3179073479 3179073479 -3.00000000
41.20528030 4.66561079 5.09170103 24 25 8494 41.78000000 3179073479 3179073479 7.00000000
41.59281540 2.65324044 3.40233684 27 26 8495 41.81600000 3179073481 3179073481 4.66700000
20.63479424 3.36058950 -0.85175914 28 27 8495 20.92400000 3179073481 3179073481 -2.33300000
36.11010742 0.52943975 -1.26112819 6 28 8496 36.13600000 3179073484 3179073484 -2.00000000
39.65814590 4.46940088 -0.92866457 30 31 8497 39.92000000 3179073486 3179073486 -1.33300000
5.86515999 0.36489391 -2.74025679 8 0 8504 6.48400000 3179073507 3179073507 -25.00000000
39.56680679 6.38008022 -0.69956225 17 1 8504 40.08400000 3179073507 3179073507 -1.00000000
39.51526642 2.45147181 -1.15221786 24 2 8505 39.60800000 3179073509 3179073509 -1.66700000
8.87396431 0.98753393 -2.49950266 2 3 8505 9.27200000 3179073509 3179073509 -15.63900000
11.70928001 0.72437578 -2.34634733 2 4 8506 11.96400000 3179073511 3179073511 -11.31000000
40.06148148 4.45113993 0.00000000 13 5 8506 40.30800000 3179073511 3179073511 0.00000000
39.76198959 0.51357198 -0.46294260 28 6 8506 39.76800000 3179073514 3179073514 -0.66700000
13.80790520 1.53416491 -2.16140795 2 7 8506 14.06000000 3179073514 3179073514 -8.84300000
16.14678001 0.99606568 -2.05918217 2 8 8507 16.30800000 3179073516 3179073516 -7.25400000
39.98227692 6.42559624 0.23535925 25 9 8507 40.49600000 3179073516 3179073516 0.33300000
40.00770187 2.46099377 -0.23296475 15 10 8508 40.08400000 3179073518 3179073518 -0.33300000
17.38452148 1.92541158 -1.88405132 2 11 8508 17.59200000 3179073518 3179073518 -6.14800000
19.78047943 0.24512903 -1.84661269 6 12 8509 19.86800000 3179073520 3179073520 -5.33300000
39.89397430 4.41138363 0.93396854 18 13 8509 40.14800000 3179073520 3179073520 1.33300000
40.05829620 0.48942876 0.46638834 25 14 8510 40.06400000 3179073523 3179073523 0.66700000
20.53676987 2.26728058 -1.44479609 29 15 8510 20.71200000 3179073523 3179073523 -4.00000000
20.50953865 1.25082421 -1.67741001 10 16 8511 20.61600000 3179073525 3179073525 -4.66700000
39.52831650 6.32433462 1.16501772 22 17 8511 40.04800000 3179073525 3179073525 1.66700000
39.89578629 2.43314171 0.69767737 25 18 8511 39.97600000 3179073527 3179073527 1.00000000
20.54008865 3.28631234 -1.33313096 29 19 8511 20.84400000 3179073527 3179073527 -3.66700000
20.53974915 0.24378209 -1.19626844 18 20 8512 20.57600000 3179073530 3179073530 -3.33300000
39.81972885 4.38207054 2.33300257 28 21 8512 40.12800000 3179073530 3179073530 3.33300000
39.51856995 2.39629078 1.61298525 24 22 8513 39.62400000 3179073532 3179073532 2.33300000
20.60155296 2.26351476 -0.96542776 23 23 8513 20.74800000 3179073532 3179073532 -2.66700000
20.56217957 1.24322867 -1.07958615 33 24 8514 20.62800000 3179073534 3179073534 -3.00000000
41.09502792 4.50789595 5.07610178 24 25 8514 41.65200000 3179073534 3179073534 7.00000000
41.60580444 2.50827813 3.40266228 18 26 8515 41.82000000 3179073537 3179073537 4.66700000
20.63850594 3.28728294 -0.85143346 24 27 8515 20.91600000 3179073537 3179073537 -2.33300000
36.15970230 0.40392455 -1.26280344 6 28 8516 36.18400000 3179073539 3179073539 -2.00000000
39.72045135 4.34308147 -0.92978120 25 31 8516 39.96800000 3179073541 3179073541 -1.33300000
5.88087368 0.34526834 -2.74701881 7 0 8524 6.50000000 3179073562 3179073562 -25.00000000
39.66785049 6.25438499 -0.70095843 17 1 8524 40.16400000 3179073562 3179073562 -1.00000000
39.47967911 2.31095266 -1.15093791 24 2 8525 39.56400000 3179073564 3179073564 -1.66700000
8.88118744 0.95696467 -2.50058103 2 3 8525 9.27600000 3179073564 3179073564 -15.63900000
11.71173668 0.68349832 -2.34634733 2 4 8526 11.96400000 3179073567 3179073567 -11.31000000
40.06086731 4.30956078 0.00000000 19 5 8526 40.29200000 3179073567 3179073567 0.00000000
40.04757309 0.37046042 -0.46624866 28 6 8527 40.05200000 3179073569 3179073569 -0.66700000
13.81343555 1.48354614 -2.16140795 2 7 8527 14.06000000 3179073569 3179073569 -8.84300000
16.15411949 0.93992734 -2.05968738 2 8 8527 16.31200000 3179073571 3179073571 -7.25400000
39.96889877 6.28040504 0.23515002 16 9 8527 40.46000000 3179073571 3179073571 0.33300000
40.00007629 2.32039928 -0.23287176 15 10 8528 40.06800000 3179073573 3179073573 -0.33300000
17.39509201 1.86514056 -1.88447964 2 11 8528 17.59600000 3179073573 3179073573 -6.14800000
19.79714394 0.17622258 -1.84809983 4 12 8529 19.88400000 3179073576 3179073576 -5.33300000
39.78586960 4.25890636 0.93108392 18 13 8529 40.02400000 3179073576 3179073576 1.33300000
40.22374344 0.35102728 0.46829748 25 14 8530 40.22800000 3179073578 3179073578 0.66700000
20.54852676 2.19600415 -1.44507515 29 15 8530 20.71600000 3179073578 3179073578 -4.00000000
20.50581932 1.17876732 -1.67675900 13 16 8531 20.60800000 3179073580 3179073580 -4.66700000
39.55015182 6.18631649 1.16501772 22 17 8531 40.04800000 3179073580 3179073580 1.66700000
39.84054947 2.28323865 0.69656044 25 18 8532 39.91200000 3179073583 3179073583 1.00000000
20.54805183 3.21039104 -1.33287513 31 19 8532 20.84000000 3179073583 3179073583 -3.66700000
20.55245399 0.17218387 -1.19696617 18 20 8532 20.58800000 3179073585 3179073585 -3.33300000
39.75536728 4.23458815 2.32835150 28 21 8532 40.04800000 3179073585 3179073585 3.33300000
39.61447906 2.26334596 1.61656749 24 22 8533 39.71200000 3179073587 3179073587 2.33300000
20.60138130 2.19074321 -0.96505553 23 23 8533 20.74000000 3179073587 3179073587 -2.66700000
20.56639481 1.17144561 -1.07958615 37 24 8534 20.62800000 3179073590 3179073590 -3.00000000
40.86573410 4.33843374 5.04587841 24 25 8534 41.40400000 3179073590 3179073590 7.00000000
41.72973251 2.36958599 3.41210055 27 26 8535 41.93600000 3179073592 3179073592 4.66700000
20.62615967 3.21153188 -0.85045648 30 27 8535 20.89200000 3179073592 3179073592 -2.33300000
36.18487549 0.27788535 -1.26364100 6 28 8536 36.20800000 3179073594 3179073594 -2.00000000
39.65583420 4.19598913 -0.92792016 20 31 8536 39.88800000 3179073597 3179073597 -1.33300000
5.87118435 0.32413864 -2.74194717 8 0 8544 6.48800000 3179073617 3179073617 -25.00000000
39.67362976 6.11344385 -0.70067924 25 1 8544 40.14800000 3179073617 3179073617 -1.00000000
39.46355057 2.17181063 -1.15023971 24 2 8545 39.54000000 3179073620 3179073620 -1.66700000
8.88447380 0.92595774 -2.50058103 2 3 8545 9.27600000 3179073620 3179073620 -15.63900000
11.72580051 0.64325714 -2.34870076 3 4 8546 11.97600000 3179073622 3179073622 -11.31000000
39.98813629 4.16058922 0.00000000 19 5 8546 40.20400000 3179073622 3179073622 0.00000000
40.36059570 0.23246291 -0.46988067 29 6 8547 40.36400000 3179073624 3179073624 -0.66700000
13.82639313 1.43613589 -2.16263771 2 7 8547 14.06800000 3179073624 3179073624 -8.84300000
16.15730095 0.88353318 -2.05968738 2 8 8547 16.31200000 3179073626 3179073626 -7.25400000
39.99452972 6.14145660 0.23517327 16 9 8547 40.46400000 3179073626 3179073626 0.33300000
39.92405701 2.17618704 -0.23238356 15 10 8548 39.98400000 3179073629 3179073629 -0.33300000
17.40545082 1.80481923 -1.88490808 2 11 8548 17.60000000 3179073629 3179073629 -6.14800000
19.81357002 0.10720278 -1.84958696 6 12 8549 19.90000000 3179073631 3179073631 -5.33300000
39.39875031 4.07841444 0.92168564 18 13 8549 39.62000000 3179073631 3179073631 1.33300000
40.24472046 0.21072279 0.46853033 25 14 8550 40.24800000 3179073633 3179073633 0.66700000
20.53622246 2.12221217 -1.44367993 31 15 8550 20.69600000 3179073633 3179073633 -4.00000000
20.50582886 1.10696661 -1.67643356 15 16 8551 20.60400000 3179073636 3179073636 -4.66700000
39.62288666 6.05607653 1.16653037 22 17 8551 40.10000000 3179073636 3179073636 1.66700000
39.83991623 2.15067887 0.69642085 16 18 8551 39.90400000 3179073638 3179073638 1.00000000
20.53885460 3.13921785 -1.33159602 27 19 8551 20.82000000 3179073638 3179073638 -3.66700000
20.53296471 0.10034379 -1.19580340 18 20 8552 20.56800000 3179073640 3179073640 -3.33300000
39.77388000 4.09619904 2.32858396 28 21 8552 40.05200000 3179073640 3179073640 3.33300000
39.56227493 2.12184119 1.61412513 24 22 8553 39.65200000 3179073643 3179073643 2.33300000
20.60095406 2.11800027 -0.96468323 23 23 8553 20.73200000 3179073643 3179073643 -2.66700000
20.56637001 1.09943521 -1.07937682 33 24 8554 20.62400000 3179073645 3179073645 -3.00000000
40.89247894 4.19697523 5.04734087 24 25 8554 41.41600000 3179073645 3179073645 7.00000000
42.30306625 2.25402927 3.45831561 28 26 8555 42.50400000 3179073647 3179073647 4.66700000
20.63724327 3.13951349 -0.85045648 26 27 8555 20.89200000 3179073647 3179073647 -2.33300000
36.31754303 0.15212746 -1.26824772 6 28 8556 36.34000000 3179073650 3179073650 -2.00000000
39.59863281 4.05021477 -0.92624521 30 31 8556 39.81600000 3179073652 3179073652 -1.33300000
5.87590027 0.30382961 -2.74363780 7 0 8564 6.49200000 3179073673 3179073673 -25.00000000
39.85292053 5.99873161 -0.70347160 34 1 8564 40.30800000 3179073673 3179073673 -1.00000000
39.33912277 2.02725339 -1.14639974 24 2 8565 39.40800000 3179073675 3179073675 -1.66700000
8.88381958 0.89455354 -2.49950266 2 3 8565 9.27200000 3179073675 3179073675 -15.63900000
11.72797489 0.60232252 -2.34870076 4 4 8566 11.97600000 3179073678 3179073678 -11.31000000
39.97853851 4.01857901 0.00000000 19 5 8566 40.18000000 3179073678 3179073678 0.00000000
40.36514282 0.09863085 -0.46992725 29 6 8566 40.36800000 3179073680 3179073680 -0.66700000
13.83501148 1.39067328 -2.16325259 3 7 8566 14.07200000 3179073680 3179073680 -8.84300000
16.16821289 0.82753396 -2.06069732 2 8 8567 16.32000000 3179073682 3179073682 -7.25400000
39.96034622 5.99350595 0.23484781 16 9 8567 40.40800000 3179073682 3179073682 0.33300000
40.05125427 2.04292560 -0.23308098 15 10 8568 40.10400000 3179073685 3179073685 -0.33300000
17.41560364 1.74444818 -1.88533640 2 11 8568 17.60400000 3179073685 3179073685 -6.14800000
19.83373642 0.03807809 -1.85144579 6 12 8569 19.92000000 3179073687 3179073687 -5.33300000
39.83850479 3.98343420 0.93164223 18 13 8569 40.04800000 3179073687 3179073687 1.33300000
40.23721313 0.07022726 0.46843719 17 14 8570 40.24000000 3179073689 3179073689 0.66700000
20.54350471 2.05051446 -1.44367993 31 15 8570 20.69600000 3179073689 3179073689 -4.00000000
20.50558662 1.03518009 -1.67610812 21 16 8571 20.60000000 3179073691 3179073691 -4.66700000
39.63191986 5.91595888 1.16618133 22 17 8571 40.08800000 3179073691 3179073691 1.66700000
39.81921768 2.01018715 0.69593215 16 18 8571 39.87600000 3179073694 3179073694 1.00000000
20.54574013 3.06691551 -1.33134019 31 19 8571 20.81600000 3179073694 3179073694 -3.66700000
20.54516792 0.02868649 -1.19650102 21 20 8572 20.58000000 3179073696 3179073696 -3.33300000
39.75614548 3.95417571 2.32672358 28 21 8572 40.02000000 3179073696 3179073696 3.33300000
39.62133026 1.98633170 1.61624181 16 22 8573 39.70400000 3179073698 3179073698 2.33300000
20.59629250 2.04489231 -0.96412486 21 23 8573 20.72000000 3179073698 3179073698 -2.66700000
20.55811310 1.02704048 -1.07874870 37 24 8574 20.61200000 3179073701 3179073701 -3.00000000
41.33356857 4.09649706 5.09998846 16 25 8574 41.84800000 3179073701 3179073701 7.00000000
42.36642075 2.10912538 3.46287203 18 26 8575 42.56000000 3179073703 3179073703 4.66700000
20.63226318 3.06510782 -0.84980518 26 27 8575 20.87600000 3179073703 3179073703 -2.33300000
36.36982346 0.02539093 -1.27006245 6 28 8576 36.39200000 3179073705 3179073705 -2.00000000
39.61650848 3.91235805 -0.92633826 30 31 8576 39.82000000 3179073708 3179073708 -1.33300000
5.87692499 0.28331703 -2.74363780 7 0 8584 6.49200000 3179073728 3179073728 -25.00000000
39.81821823 5.85144138 -0.70249426 17 1 8584 40.25200000 3179073728 3179073728 -1.00000000
39.20617676 1.88320780 -1.14232707 24 2 8585 39.26800000 3179073731 3179073731 -1.66700000
8.89455509 0.86428285 -2.50165939 2 3 8585 9.28000000 3179073731 3179073731 -15.63900000
11.72608757 0.56119311 -2.34791613 3 4 8586 11.97200000 3179073733 3179073733 -11.31000000
39.93658066 3.87359691 0.00000000 19 5 8586 40.12400000 3179073733 3179073733 0.00000000
40.36924362 -0.04227459 -0.46997380 29 6 8586 40.37200000 3179073735 3179073735 -0.66700000
13.84371567 1.34275317 -2.16386747 2 7 8586 14.07600000 3179073735 3179073735 -8.84300000
16.17496681 0.77128029 -2.06120253 2 8 8587 16.32400000 3179073738 3179073738 -7.25400000
39.99685287 5.85629940 0.23494080 16 9 8587 40.42400000 3179073738 3179073738 0.33300000
39.99421310 1.90007114 -0.23270902 22 10 8588 40.04000000 3179073740 3179073740 -0.33300000
17.43741989 1.68517601 -1.88705003 2 11 8588 17.62000000 3179073740 3179073740 -6.14800000
19.84171295 -0.03116732 -1.85218942 4 12 8589 19.92800000 3179073742 3179073742 -5.33300000
39.83226776 3.84242773 0.93117696 18 13 8589 40.02800000 3179073742 3179073742 1.33300000
40.21721268 -0.07019235 0.46820438 17 14 8590 40.22000000 3179073744 3179073744 0.66700000
20.53465080 1.97726190 -1.44256389 29 15 8590 20.68000000 3179073744 3179073744 -4.00000000
20.51305771 0.96378309 -1.67643356 21 16 8591 20.60400000 3179073747 3179073747 -4.66700000
39.64837265 5.77700520 1.16606498 22 17 8591 40.08400000 3179073747 3179073747 1.66700000
39.88192368 1.87380767 0.69690949 16 18 8591 39.93200000 3179073749 3179073749 1.00000000
20.54446983 2.99345207 -1.33057261 33 19 8591 20.80400000 3179073749 3179073749 -3.66700000
20.53316498 -0.04300462 -1.19580340 21 20 8592 20.56800000 3179073751 3179073751 -3.33300000
39.77368164 3.81575823 2.32695627 45 21 8592 40.02400000 3179073751 3179073751 3.33300000
39.66395569 1.84969091 1.61770737 24 22 8593 39.74000000 3179073754 3179073754 2.33300000
20.59137344 1.97184265 -0.96356648 22 23 8593 20.70800000 3179073754 3179073754 -2.66700000
20.56556320 0.95545840 -1.07895803 33 24 8594 20.61600000 3179073756 3179073756 -3.00000000
42.39344025 1.96214783 3.46449924 9 26 8595 42.58000000 3179073758 3179073758 4.66700000
20.63492775 2.99192190 -0.84947956 20 27 8595 20.86800000 3179073758 3179073758 -2.33300000
36.52959061 -0.10201013 -1.27564645 6 28 8596 36.55200000 3179073761 3179073761 -2.00000000
39.64584732 3.77556324 -0.92671043 25 31 8596 39.83600000 3179073763 3179073763 -1.33300000
5.87787819 0.26280102 -2.74363780 7 0 8604 6.49200000 3179073784 3179073784 -25.00000000
39.88591003 5.71922636 -0.70333201 25 1 8604 40.30000000 3179073784 3179073784 -1.00000000
39.15259933 1.74367285 -1.14058161 24 2 8605 39.20800000 3179073786 3179073786 -1.66700000
8.89368343 0.83287066 -2.50058103 2 3 8605 9.27600000 3179073786 3179073786 -15.63900000
11.72405720 0.52008414 -2.34713173 4 4 8606 11.96800000 3179073788 3179073788 -11.31000000
39.93392944 3.73267961 0.00000000 19 5 8606 40.10800000 3179073788 3179073788 0.00000000
40.36884689 -0.18318929 -0.46997380 29 6 8606 40.37200000 3179073791 3179073791 -0.66700000
13.85225391 1.29478931 -2.16448259 2 7 8606 14.08000000 3179073791 3179073791 -8.84300000
16.18945312 0.71533990 -2.06271768 2 8 8607 16.33600000 3179073793 3179073793 -7.25400000
39.94577789 5.70646667 0.23452234 25 9 8607 40.35200000 3179073793 3179073793 0.33300000
40.04855728 1.76256418 -0.23298800 22 10 8608 40.08800000 3179073795 3179073795 -0.33300000
17.45507622 1.62540400 -1.88833511 2 11 8608 17.63200000 3179073795 3179073795 -6.14800000
19.84944916 -0.10046795 -1.85293293 6 12 8609 19.93600000 3179073797 3179073797 -5.33300000
39.86136246 3.70484400 0.93154919 18 13 8609 40.04400000 3179073797 3179073797 1.33300000
40.22072220 -0.21059714 0.46825093 17 14 8610 40.22400000 3179073800 3179073800 0.66700000
20.52950668 1.90446484 -1.44172680 29 15 8610 20.66800000 3179073800 3179073800 -4.00000000
20.50832939 0.89182687 -1.67578268 21 16 8611 20.59600000 3179073802 3179073802 -4.66700000
39.52579117 5.61831522 1.16187596 22 17 8611 39.94000000 3179073802 3179073802 1.66700000
40.02836990 1.73367739 0.69935286 17 18 8612 40.07200000 3179073804 3179073804 1.00000000
20.54344749 2.91644955 -1.32980514 29 19 8612 20.79200000 3179073804 3179073804 -3.66700000
20.53288841 -0.11467848 -1.19580340 21 20 8612 20.56800000 3179073807 3179073807 -3.33300000
39.84242630 3.68204331 2.33021188 33 21 8612 40.08000000 3179073807 3179073807 3.33300000
39.61825943 1.70898747 1.61559057 24 22 8613 39.68800000 3179073809 3179073809 2.33300000
20.58619499 1.89885235 -0.96300811 22 23 8613 20.69600000 3179073809 3179073809 -2.66700000
20.56478310 0.88349396 -1.07874870 33 24 8614 20.61200000 3179073811 3179073811 -3.00000000
41.75255203 3.84386969 5.14824867 16 25 8614 42.24400000 3179073811 3179073811 7.00000000
96.78120422 4.14094305 7.90797567 28 26 8615 97.19200000 3179073814 3179073814 4.66700000
20.62545776 2.91707611 -0.84866536 22 27 8615 20.84800000 3179073814 3179073814 -2.33300000
36.58897400 -0.22989833 -1.27774036 6 28 8616 36.61200000 3179073816 3179073816 -2.00000000
39.63887405 3.63532424 -0.92624521 30 31 8616 39.81600000 3179073818 3179073818 -1.33300000
5.88242388 0.24140440 -2.74532819 7 0 8625 6.49600000 3179073839 3179073839 -25.00000000
39.90660477 5.57299900 -0.70333201 25 1 8625 40.30000000 3179073839 3179073839 -1.00000000
39.23463058 1.60326147 -1.14279258 24 2 8626 39.28400000 3179073841 3179073841 -1.66700000
8.90051270 0.80061316 -2.50165939 2 3 8626 9.28000000 3179073841 3179073841 -15.63900000
11.73764133 0.47758824 -2.34948516 3 4 8627 11.98000000 3179073843 3179073843 -11.31000000
39.97921371 3.58915067 0.00000000 19 5 8627 40.14000000 3179073843 3179073843 0.00000000
40.27185822 -0.33738860 -0.46885628 19 6 8628 40.27600000 3179073846 3179073846 -0.66700000
13.85318661 1.24123836 -2.16386747 3 7 8628 14.07600000 3179073846 3179073846 -8.84300000
16.19593048 0.65615839 -2.06322289 2 8 8628 16.34000000 3179073848 3179073848 -7.25400000
39.91096115 5.55230379 0.23419687 25 9 8628 40.29600000 3179073848 3179073848 0.33300000
40.04275513 1.61528337 -0.23291825 22 10 8629 40.07600000 3179073850 3179073850 -0.33300000
17.46883774 1.56212556 -1.88919199 2 11 8629 17.64000000 3179073850 3179073850 -6.14800000
19.86089516 -0.17332341 -1.85404825 6 12 8630 19.94800000 3179073853 3179073853 -5.33300000
39.68746948 3.54201221 0.92717570 18 13 8630 39.85600000 3179073853 3179073853 1.33300000
40.19968414 -0.35783404 0.46801811 25 14 8631 40.20400000 3179073855 3179073855 0.66700000
20.54032326 1.82956159 -1.44200587 31 15 8631 20.67200000 3179073855 3179073855 -4.00000000
20.50349426 0.81633687 -1.67513180 25 16 8632 20.58800000 3179073857 3179073857 -4.66700000
39.38769531 5.45148134 1.15722144 22 17 8632 39.78000000 3179073857 3179073857 1.66700000
40.03817368 1.59410095 0.69942266 17 18 8632 40.07600000 3179073860 3179073860 1.00000000
20.54163933 2.84308004 -1.32903767 29 19 8632 20.78000000 3179073860 3179073860 -3.66700000
20.54031754 -0.19000839 -1.19626844 18 20 8633 20.57600000 3179073862 3179073862 -3.33300000
39.77610397 3.52893114 2.32556081 39 21 8633 40.00000000 3179073862 3179073862 3.33300000
39.65221405 1.56487107 1.61673033 24 22 8634 39.71600000 3179073864 3179073864 2.33300000
20.58903503 1.82303500 -0.96282202 22 23 8634 20.69200000 3179073864 3179073864 -2.66700000
20.57187462 0.80827111 -1.07895803 33 24 8635 20.61600000 3179073867 3179073867 -3.00000000
41.28783417 3.64852643 5.08926392 24 25 8635 41.76000000 3179073867 3179073867 7.00000000
96.38541412 3.77014470 7.87445354 28 26 8636 96.78000000 3179073869 3179073869 4.66700000
20.62413406 2.83982491 -0.84817690 26 27 8636 20.83600000 3179073869 3179073869 -2.33300000
36.71580124 -0.36527467 -1.28220749 6 28 8637 36.74000000 3179073871 3179073871 -2.00000000
39.72424316 3.48939395 -0.92792016 25 31 8638 39.88800000 3179073873 3179073873 -1.33300000
5.87594700 0.22162299 -2.74194717 8 0 8644 6.48800000 3179073894 3179073894 -25.00000000
39.90108871 5.43739319 -0.70291311 25 1 8644 40.27600000 3179073894 3179073894 -1.00000000
39.27569199 1.47449589 -1.14383984 24 2 8645 39.32000000 3179073896 3179073896 -1.66700000
8.91079330 0.77175832 -2.50381589 2 3 8645 9.28800000 3179073896 3179073896 -15.63900000
11.75091934 0.43910158 -2.35183859 4 4 8646 11.99200000 3179073899 3179073899 -11.31000000
39.99089813 3.45655513 0.00000000 19 5 8646 40.14000000 3179073899 3179073899 0.00000000
40.27451706 -0.47097984 -0.46890283 29 6 8647 40.28000000 3179073901 3179073901 -0.66700000
13.87297821 1.19665134 -2.16632724 3 7 8647 14.09200000 3179073901 3179073901 -8.84300000
16.19801712 0.60244715 -2.06322289 2 8 8647 16.34000000 3179073903 3179073903 -7.25400000
39.82213593 5.40539742 0.23356919 25 9 8647 40.18800000 3179073903 3179073903 0.33300000
40.10385513 1.48455942 -0.23324372 15 10 8648 40.13200000 3179073906 3179073906 -0.33300000
17.47788429 1.50452924 -1.88962030 2 11 8648 17.64400000 3179073906 3179073906 -6.14800000
19.88808823 -0.23951928 -1.85665071 6 12 8649 19.97600000 3179073908 3179073908 -5.33300000
39.89422607 3.42715573 0.93173528 12 13 8649 40.05200000 3179073908 3179073908 1.33300000
40.16228104 -0.49069923 0.46759903 17 14 8650 40.16800000 3179073910 3179073910 0.66700000
20.53435135 1.76041484 -1.44116879 31 15 8650 20.66000000 3179073910 3179073910 -4.00000000
20.50210381 0.74819493 -1.67480636 25 16 8651 20.58400000 3179073913 3179073913 -4.66700000
39.44517899 5.32618761 1.15838504 22 17 8651 39.82000000 3179073913 3179073913 1.66700000
40.05522919 1.46175838 0.69963205 17 18 8651 40.08800000 3179073915 3179073915 1.00000000
20.53117561 2.77227497 -1.32775855 27 19 8651 20.76000000 3179073915 3179073915 -3.66700000
20.53558159 -0.25807130 -1.19603598 18 20 8652 20.57200000 3179073917 3179073917 -3.33300000
39.65628815 3.38579917 2.31788659 22 21 8652 39.86800000 3179073917 3179073917 3.33300000
39.64919662 1.43308222 1.61640465 24 22 8653 39.70800000 3179073920 3179073920 2.33300000
20.59496689 1.75474930 -0.96282202 22 23 8653 20.69200000 3179073920 3179073920 -2.66700000
20.56246567 0.73961711 -1.07833004 30 24 8654 20.60400000 3179073922 3179073922 -3.00000000
41.09795380 3.49443674 5.06440258 80 25 8654 41.55600000 3179073922 3179073922 7.00000000
109.28224182 3.91170597 8.92698479 28 26 8655 109.71600000 3179073924 3179073924 4.66700000
20.61759377 2.76928902 -0.84752560 22 27 8655 20.82000000 3179073924 3179073924 -2.33300000
36.77035141 -0.48776901 -1.28416193 6 28 8656 36.79600000 3179073926 3179073926 -2.00000000
39.71907425 3.36322999 -0.92754793 25 31 8656 39.87200000 3179073929 3179073929 -1.33300000
5.88755417 0.20148271 -2.74701881 7 0 8664 6.50000000 3179073949 3179073949 -25.00000000
39.88810730 5.29386950 -0.70235467 25 1 8664 40.24400000 3179073949 3179073949 -1.00000000
39.34053802 1.33942997 -1.14558518 24 2 8665 39.38000000 3179073952 3179073952 -1.66700000
8.90575600 0.74001122 -2.50165939 2 3 8665 9.28000000 3179073952 3179073952 -15.63900000
11.75630093 0.39821333 -2.35262299 4 4 8666 11.99600000 3179073954 3179073954 -11.31000000
39.97481537 3.31462598 0.00000000 19 5 8666 40.11200000 3179073954 3179073954 0.00000000
40.27273178 -0.60453236 -0.46890283 29 6 8666 40.28000000 3179073956 3179073956 -0.66700000
13.87687016 1.15064025 -2.16632724 2 7 8666 14.09200000 3179073956 3179073956 -8.84300000
16.20795250 0.54616916 -2.06423283 2 8 8667 16.34800000 3179073959 3179073959 -7.25400000
39.78524399 5.25902081 0.23324372 16 9 8667 40.13200000 3179073959 3179073959 0.33300000
40.10079575 1.34429383 -0.23319723 15 10 8668 40.12400000 3179073961 3179073961 -0.33300000
17.48303032 1.44351089 -1.88962030 2 11 8668 17.64400000 3179073961 3179073961 -6.14800000
19.89111328 -0.30900207 -1.85702252 6 12 8669 19.98000000 3179073963 3179073963 -5.33300000
39.99760818 3.29543018 0.93387550 18 13 8669 40.14400000 3179073963 3179073963 1.33300000
40.22830963 -0.63195682 0.46839061 25 14 8670 40.23600000 3179073966 3179073966 0.66700000
20.53241730 1.68807197 -1.44061065 29 15 8670 20.65200000 3179073966 3179073966 -4.00000000
20.50459099 0.67662472 -1.67480636 25 16 8671 20.58400000 3179073968 3179073968 -4.66700000
39.48731613 5.19159269 1.15908325 22 17 8671 39.84400000 3179073968 3179073968 1.66700000
39.52846146 1.30438745 0.69034737 24 18 8671 39.55600000 3179073970 3179073970 1.00000000
20.53281212 2.69955015 -1.32724690 29 19 8671 20.75200000 3179073970 3179073970 -3.66700000
20.51858330 -0.32949582 -1.19510567 18 20 8672 20.55600000 3179073973 3179073973 -3.33300000
39.73154449 3.25256515 2.32160735 33 21 8672 39.93200000 3179073973 3179073973 3.33300000
39.59403992 1.29271567 1.61396229 24 22 8673 39.64800000 3179073975 3179073975 2.33300000
20.58503723 1.68154752 -0.96207750 22 23 8673 20.67600000 3179073975 3179073975 -2.66700000
20.56891441 0.66796589 -1.07853937 30 24 8674 20.60800000 3179073977 3179073977 -3.00000000
40.87247849 3.33160377 5.03515387 16 25 8674 41.31600000 3179073977 3179073977 7.00000000
109.79331207 3.54630375 8.96766663 28 26 8675 110.21600000 3179073979 3179073979 4.66700000
20.62317085 2.69678497 -0.84736276 22 27 8675 20.81600000 3179073979 3179073979 -2.33300000
36.92830276 -0.61879754 -1.28974581 6 28 8676 36.95600000 3179073982 3179073982 -2.00000000
39.71519089 3.21633863 -0.92717570 20 31 8677 39.85600000 3179073984 3179073984 -1.33300000
5.88459778 0.18081875 -2.74532819 7 0 8684 6.49600000 3179074005 3179074005 -25.00000000
39.96187592 5.16177464 -0.70333201 25 1 8684 40.30000000 3179074005 3179074005 -1.00000000
