# .PCD v0.7 - Point Cloud Data file format
VERSION 0.7
FIELDS x y z intensity laser_id azimuth distance_m adjustedtime timestamp vertical_angle
SIZE 4 4 4 1 1 2 8 8 4 8
TYPE F F F U U U F U U F
COUNT 1 1 1 1 1 1 1 1 1 1
WIDTH 524
HEIGHT 1
VIEWPOINT 0 0 0 1 0 0 0
POINTS 524
DATA ascii
43.47046661 12.21081066 5.54408026 27 25 7571 45.49200000 3182670761 3182670761 7.00000000
41.03678894 9.38360500 3.43650985 18 26 7572 42.23600000 3182670763 3182670763 4.66700000
20.68147469 6.91189814 -0.88839567 23 27 7572 21.82400000 3182670763 3182670763 -2.33300000
20.65995979 3.66893983 -0.73274982 13 28 7573 20.99600000 3182670765 3182670765 -2.00000000
96.28652191 21.99950218 18.00791550 28 30 7573 100.39600000 3182670768 3182670768 10.33300000
38.54526138 10.81281090 -0.93154919 15 31 7573 40.04400000 3182670768 3182670768 -1.33300000
5.70925426 1.29711068 -2.73011398 8 0 7580 6.46000000 3182670788 3182670788 -25.00000000
39.87328720 13.26407719 -0.73348975 17 1 7580 42.02800000 3182670788 3182670788 -1.00000000
38.16050339 8.66284943 -1.13883626 16 2 7581 39.14800000 3182670791 3182670791 -1.66700000
8.54459763 2.38408709 -2.48332834 2 3 7581 9.21200000 3182670791 3182670791 -15.63900000
11.28037548 2.55869794 -2.31339955 4 4 7582 11.79600000 3182670793 3182670793 -11.31000000
40.48759079 11.28910542 0.00000000 14 5 7582 42.03200000 3182670793 3182670793 0.00000000
39.56538773 6.96220589 -0.46769217 19 6 7582 40.17600000 3182670795 3182670795 -0.66700000
13.23010921 3.68893528 -2.13681149 2 7 7582 13.90000000 3182670795 3182670795 -8.84300000
15.54513645 3.52320981 -2.02887774 2 8 7583 16.06800000 3182670798 3182670798 -7.25400000
40.26523972 13.37104988 0.24658787 17 9 7583 42.42800000 3182670798 3182670798 0.33300000
40.43541336 9.15701866 -0.24096194 15 10 7584 41.46000000 3182670800 3182670800 -0.33300000
16.68887138 4.64705992 -1.86605895 2 11 7584 17.42400000 3182670800 3182670800 -6.14800000
19.14317322 3.35823560 -1.81426823 6 12 7585 19.52000000 3182670802 3182670802 -5.33300000
40.41319275 11.24555874 0.97612137 13 13 7585 41.96000000 3182670802 3182670802 1.33300000
39.90117264 6.99257755 0.47160357 17 14 7586 40.51200000 3182670805 3182670805 0.66700000
20.58669281 5.72467566 -1.49418366 24 15 7586 21.42000000 3182670805 3182670805 -4.00000000
20.01534843 4.52166748 -1.67513180 5 16 7587 20.58800000 3182670807 3182670807 -4.66700000
40.22024536 13.32494068 1.23308957 16 17 7587 42.38800000 3182670807 3182670807 1.66700000
40.04461670 9.04647923 0.71659583 27 18 7587 41.06000000 3182670809 3182670809 1.00000000
20.57952499 6.81798315 -1.38941360 27 19 7587 21.72400000 3182670809 3182670809 -3.66700000
20.58810806 3.60060596 -1.21719849 19 20 7588 20.93600000 3182670812 3182670812 -3.33300000
40.17694473 11.15715694 2.42835069 25 21 7588 41.76800000 3182670812 3182670812 3.33300000
40.02846909 9.02814674 1.67176664 25 22 7589 41.06800000 3182670814 3182670814 2.33300000
20.64070892 5.72805500 -0.99781340 27 23 7589 21.44400000 3182670814 3182670814 -2.66700000
20.62181473 4.64732695 -1.10784757 31 24 7590 21.16800000 3182670816 3182670816 -3.00000000
43.58340836 12.08674908 5.55334234 18 25 7590 45.56800000 3182670816 3182670816 7.00000000
41.15713501 9.26761341 3.44399548 27 26 7591 42.32800000 3182670818 3182670818 4.66700000
20.67392349 6.83324385 -0.88709307 25 27 7591 21.79200000 3182670818 3182670818 -2.33300000
20.65626144 3.59766507 -0.73219144 15 28 7592 20.98000000 3182670821 3182670821 -2.00000000
96.27058411 21.64255142 17.99069786 28 30 7593 100.30000000 3182670823 3182670823 10.33300000
38.57891846 10.67713070 -0.93145615 15 31 7593 40.04000000 3182670823 3182670823 -1.33300000
5.71750784 1.27696669 -2.73180437 8 0 7601 6.46400000 3182670844 3182670844 -25.00000000
39.70126343 13.04543304 -0.72944081 17 1 7601 41.79600000 3182670844 3182670844 -1.00000000
38.19980240 8.52466774 -1.13906896 16 2 7602 39.15600000 3182670846 3182670846 -1.66700000
8.54956436 2.35173202 -2.48224998 2 3 7602 9.20800000 3182670846 3182670846 -15.63900000
11.29733372 2.51904321 -2.31496859 4 4 7603 11.80400000 3182670848 3182670848 -11.31000000
40.47084427 11.12473202 0.00000000 14 5 7603 41.97200000 3182670848 3182670848 0.00000000
39.61823273 6.82189608 -0.46801811 19 6 7603 40.20400000 3182670851 3182670851 -0.66700000
13.25116348 3.64251494 -2.13804150 2 7 7603 13.90800000 3182670851 3182670851 -8.84300000
15.57343769 3.46966195 -2.03089809 2 8 7604 16.08400000 3182670853 3182670853 -7.25400000
40.26076508 13.20592785 0.24626240 17 9 7604 42.37200000 3182670853 3182670853 0.33300000
40.30081558 8.97138023 -0.23996229 23 10 7605 41.28800000 3182670855 3182670855 -0.33300000
16.71346283 4.58796644 -1.86691570 2 11 7605 17.43200000 3182670855 3182670855 -6.14800000
19.17105484 3.29074502 -1.81575537 6 12 7606 19.53600000 3182670858 3182670858 -5.33300000
40.41171646 11.08572483 0.97509778 20 13 7606 41.91600000 3182670858 3182670858 1.33300000
39.55596924 6.78274393 0.46722651 25 14 7607 40.13600000 3182670860 3182670860 0.66700000
20.58829498 5.64390850 -1.49278855 24 15 7607 21.40000000 3182670860 3182670860 -4.00000000
20.03957176 4.45000553 -1.67578268 7 16 7608 20.59600000 3182670862 3182670862 -4.66700000
40.22701263 13.16375828 1.23180962 24 17 7608 42.34400000 3182670862 3182670862 1.66700000
39.97599411 8.87710571 0.71478075 27 18 7608 40.95600000 3182670865 3182670865 1.00000000
20.57781792 6.73381901 -1.38762283 27 19 7608 21.69600000 3182670865 3182670865 -3.66700000
20.59329414 3.52377558 -1.21673346 22 20 7609 20.92800000 3182670867 3182670867 -3.33300000
40.13668442 10.98768425 2.42346692 25 21 7609 41.68400000 3182670867 3182670867 3.33300000
40.03397751 8.87531948 1.67062676 17 22 7610 41.04000000 3182670869 3182670869 2.33300000
20.64229584 5.64709282 -0.99688280 23 23 7610 21.42400000 3182670869 3182670869 -2.66700000
20.62701035 4.56912088 -1.10721946 31 24 7611 21.15600000 3182670871 3182670871 -3.00000000
43.05679703 11.77093029 5.48070812 36 25 7611 44.97200000 3182670871 3182670871 7.00000000
41.17136383 9.11239529 3.44236803 18 26 7612 42.30800000 3182670874 3182670874 4.66700000
20.67223358 6.74874163 -0.88595325 23 27 7612 21.76400000 3182670874 3182670874 -2.33300000
20.65748596 3.51991749 -0.73177266 15 28 7613 20.96800000 3182670876 3182670876 -2.00000000
95.49239349 21.10022163 17.83069992 28 30 7614 99.40800000 3182670878 3182670878 10.33300000
38.61393356 10.53460693 -0.93136311 21 31 7614 40.03600000 3182670878 3182670878 -1.33300000
5.72525167 1.25877821 -2.73349500 7 0 7620 6.46800000 3182670899 3182670899 -25.00000000
39.75951767 12.91865063 -0.72972000 26 1 7620 41.81200000 3182670899 3182670899 -1.00000000
38.24348068 8.40137768 -1.13953435 16 2 7621 39.17200000 3182670901 3182670901 -1.66700000
8.56475067 2.32538629 -2.48440647 2 3 7621 9.21600000 3182670901 3182670901 -15.63900000
11.30562496 2.48156619 -2.31496859 4 4 7622 11.80400000 3182670904 3182670904 -11.31000000
40.46890640 10.97999096 0.00000000 21 5 7622 41.93200000 3182670904 3182670904 0.00000000
40.59901428 6.85223341 -0.47933325 20 6 7622 41.17600000 3182670906 3182670906 -0.66700000
13.24409676 3.59337759 -2.13496685 2 7 7622 13.88800000 3182670906 3182670906 -8.84300000
15.57710552 3.41629934 -2.02988791 2 8 7623 16.07600000 3182670908 3182670908 -7.25400000
40.26628876 13.06000519 0.24602993 17 9 7623 42.33200000 3182670908 3182670908 0.33300000
40.27954865 8.82655811 -0.23966007 15 10 7624 41.23600000 3182670911 3182670911 -0.33300000
16.72474670 4.53147745 -1.86648738 2 11 7624 17.42800000 3182670911 3182670911 -6.14800000
19.17793465 3.22649264 -1.81538355 6 12 7625 19.53200000 3182670913 3182670913 -5.33300000
40.32088089 10.91716576 0.97202706 19 13 7625 41.78400000 3182670913 3182670913 1.33300000
39.77151871 6.68401623 0.46950817 26 14 7626 40.33200000 3182670915 3182670915 0.66700000
20.59148979 5.57143545 -1.49167240 24 15 7626 21.38400000 3182670915 3182670915 -4.00000000
20.06200790 4.38523006 -1.67643356 7 16 7627 20.60400000 3182670918 3182670918 -4.66700000
40.22859955 13.01674843 1.23052955 24 17 7627 42.30000000 3182670918 3182670918 1.66700000
39.97395325 8.73765945 0.71422225 18 18 7627 40.92400000 3182670920 3182670920 1.00000000
20.57724762 6.65817022 -1.38608778 27 19 7627 21.67200000 3182670920 3182670920 -3.66700000
20.59305191 3.45348501 -1.21603572 16 20 7628 20.91600000 3182670922 3182670922 -3.33300000
40.18832016 10.85869217 2.42439723 18 21 7628 41.70000000 3182670922 3182670922 3.33300000
39.85232925 8.69649982 1.66183400 25 22 7629 40.82400000 3182670924 3182670924 2.33300000
20.64933586 5.57548475 -0.99632442 22 23 7629 21.41200000 3182670924 3182670924 -2.66700000
20.62253380 4.49643946 -1.10617280 31 24 7630 21.13600000 3182670927 3182670927 -3.00000000
43.08026123 11.62394714 5.47875834 18 25 7630 44.95600000 3182670927 3182670927 7.00000000
41.56362534 9.05473709 3.47263575 18 26 7631 42.68000000 3182670929 3182670929 4.66700000
20.67928696 6.67524195 -0.88530195 25 27 7631 21.74800000 3182670929 3182670929 -2.33300000
20.64933014 3.44810343 -0.73107463 15 28 7632 20.94800000 3182670931 3182670931 -2.00000000
95.63489532 20.79933167 17.84433174 28 30 7633 99.48400000 3182670934 3182670934 10.33300000
38.62548828 10.40026283 -0.93080479 15 31 7633 40.01200000 3182670934 3182670934 -1.33300000
5.72982693 1.23778570 -2.73349500 7 0 7641 6.46800000 3182670954 3182670954 -25.00000000
39.76852036 12.76061916 -0.72902191 26 1 7641 41.77200000 3182670954 3182670954 -1.00000000
38.24275208 8.25440311 -1.13860345 16 2 7642 39.14000000 3182670957 3182670957 -1.66700000
8.56949520 2.29298353 -2.48332834 2 3 7642 9.21200000 3182670957 3182670957 -15.63900000
11.31464481 2.44011235 -2.31496859 4 4 7643 11.80400000 3182670959 3182670959 -11.31000000
40.47023773 10.82125854 0.00000000 21 5 7643 41.89200000 3182670959 3182670959 0.00000000
40.05952835 6.61026382 -0.47267455 19 6 7643 40.60400000 3182670961 3182670961 -0.66700000
13.26481438 3.54685330 -2.13619661 2 7 7643 13.89600000 3182670961 3182670961 -8.84300000
15.59340191 3.36001945 -2.03039312 2 8 7644 16.08000000 3182670964 3182670964 -7.25400000
40.21103287 12.87939072 0.24540225 17 9 7644 42.22400000 3182670964 3182670964 0.33300000
40.29990005 8.67634106 -0.23959033 23 10 7645 41.22400000 3182670966 3182670966 -0.33300000
16.74508476 4.47117376 -1.86691570 2 11 7645 17.43200000 3182670966 3182670966 -6.14800000
19.19356155 3.15682673 -1.81575537 6 12 7646 19.53600000 3182670968 3182670968 -5.33300000
40.31425858 10.75693703 0.97091043 19 13 7646 41.73600000 3182670968 3182670968 1.33300000
39.67734528 6.51874828 0.46811125 25 14 7647 40.21200000 3182670970 3182670970 0.66700000
20.60406113 5.49387026 -1.49111438 26 15 7647 21.37600000 3182670970 3182670970 -4.00000000
20.08184242 4.31250668 -1.67675900 7 16 7648 20.60800000 3182670973 3182670973 -4.66700000
40.21890640 12.85096073 1.22878420 24 17 7648 42.24000000 3182670973 3182670973 1.66700000
40.12301636 8.61627960 0.71631658 18 18 7648 41.04400000 3182670975 3182670975 1.00000000
20.57869911 6.57541609 -1.38455284 27 19 7648 21.64800000 3182670975 3182670975 -3.66700000
20.58980751 3.37540054 -1.21510553 19 20 7649 20.90000000 3182670977 3182670977 -3.33300000
40.01175690 10.65378380 2.41137409 18 21 7649 41.47600000 3182670977 3182670977 3.33300000
39.93473816 8.56126595 1.66395080 25 22 7650 40.87600000 3182670980 3182670980 2.33300000
20.64646339 5.49359941 -0.99520767 22 23 7650 21.38800000 3182670980 3182670980 -2.66700000
20.62325287 4.41747761 -1.10533535 31 24 7651 21.12000000 3182670982 3182670982 -3.00000000
42.81179047 11.38333607 5.43927240 18 25 7651 44.63200000 3182670982 3182670982 7.00000000
41.37432098 8.85478115 3.45408463 46 26 7652 42.45200000 3182670984 3182670984 4.66700000
20.67315102 6.58969355 -0.88399929 23 27 7652 21.71600000 3182670984 3182670984 -2.33300000
20.65788269 3.37175274 -0.73093504 13 28 7653 20.94400000 3182670987 3182670987 -2.00000000
95.98371887 20.50704765 17.89527321 28 30 7654 99.76800000 3182670989 3182670989 10.33300000
38.67107773 10.26067448 -0.93099087 15 31 7654 40.02000000 3182670989 3182670989 -1.33300000
5.73765898 1.21853042 -2.73518538 7 0 7661 6.47200000 3182671010 3182671010 -25.00000000
39.84712982 12.63260078 -0.72965020 26 1 7661 41.80800000 3182671010 3182671010 -1.00000000
38.28306580 8.12335110 -1.13895261 16 2 7662 39.15200000 3182671012 3182671012 -1.66700000
8.58117199 2.26403904 -2.48440647 2 3 7662 9.21600000 3182671012 3182671012 -15.63900000
11.32693100 2.40141535 -2.31575298 4 4 7663 11.80800000 3182671014 3182671014 -11.31000000
40.37625504 10.64525318 0.00000000 21 5 7663 41.75600000 3182671014 3182671014 0.00000000
39.90072250 6.44106865 -0.47053260 29 6 7663 40.42000000 3182671017 3182671017 -0.66700000
13.28857994 3.50355172 -2.13804150 2 7 7663 13.90800000 3182671017 3182671017 -8.84300000
15.62832642 3.31050134 -2.03342342 2 8 7664 16.10400000 3182671019 3182671019 -7.25400000
40.26337433 12.74136353 0.24544874 26 9 7664 42.23200000 3182671019 3182671019 0.33300000
40.14992905 8.49751759 -0.23852094 15 10 7665 41.04000000 3182671021 3182671021 -0.33300000
16.76443672 4.41370773 -1.86734414 2 11 7665 17.43600000 3182671021 3182671021 -6.14800000
19.20053101 3.08917665 -1.81538355 6 12 7666 19.53200000 3182671023 3182671023 -5.33300000
40.01123810 10.52661228 0.96272177 19 13 7666 41.38400000 3182671023 3182671023 1.33300000
39.86177063 6.40622997 0.47002038 17 14 7667 40.37600000 3182671026 3182671026 0.66700000
20.59223938 5.41379881 -1.48888218 28 15 7667 21.34400000 3182671026 3182671026 -4.00000000
20.10457611 4.24402857 -1.67741001 7 16 7668 20.61600000 3182671028 3182671028 -4.66700000
40.23683167 12.70206738 1.22796965 24 17 7668 42.21200000 3182671028 3182671028 1.66700000
40.25850296 8.49847603 0.71820146 18 18 7668 41.15200000 3182671030 3182671030 1.00000000
20.58249283 6.49753475 -1.38327372 27 19 7668 21.62800000 3182671030 3182671030 -3.66700000
20.59357834 3.30224347 -1.21464038 16 20 7669 20.89200000 3182671033 3182671033 -3.33300000
39.99849319 10.50086975 2.40835071 30 21 7669 41.42400000 3182671033 3182671033 3.33300000
40.04259491 8.43829823 1.66720736 25 22 7670 40.95600000 3182671035 3182671035 2.33300000
20.64232445 5.41541243 -0.99409091 20 23 7670 21.36400000 3182671035 3182671035 -2.66700000
20.62291145 4.34216976 -1.10449803 31 24 7671 21.10400000 3182671037 3182671037 -3.00000000
42.83206177 11.22879124 5.43683529 26 25 7671 44.61200000 3182671037 3182671037 7.00000000
41.18650436 8.66434288 3.43585896 27 26 7672 42.22800000 3182671040 3182671040 4.66700000
20.68840218 6.51508951 -0.88367367 25 27 7672 21.70800000 3182671040 3182671040 -2.33300000
20.65768433 3.29773211 -0.73051625 13 28 7673 20.93200000 3182671042 3182671042 -2.00000000
96.06659698 20.19187927 17.89814186 28 30 7673 99.78400000 3182671044 3182671044 10.33300000
38.74744415 10.14352036 -0.93201447 31 31 7673 40.06400000 3182671044 3182671044 -1.33300000
5.73832846 1.19775414 -2.73349500 6 0 7681 6.46800000 3182671065 3182671065 -25.00000000
39.77648544 12.45757198 -0.72755593 8 1 7681 41.68800000 3182671065 3182671065 -1.00000000
38.36598587 8.00109577 -1.14058161 16 2 7682 39.20800000 3182671067 3182671067 -1.66700000
8.58529472 2.23310184 -2.48332834 2 3 7682 9.21200000 3182671067 3182671067 -15.63900000
11.34292412 2.36346269 -2.31732202 4 4 7683 11.81600000 3182671070 3182671070 -11.31000000
40.43252563 10.50928020 0.00000000 21 5 7683 41.77600000 3182671070 3182671070 0.00000000
39.59613419 6.24307823 -0.46666774 28 6 7684 40.08800000 3182671072 3182671072 -0.66700000
13.30898285 3.45681047 -2.13927126 2 7 7684 13.91600000 3182671072 3182671072 -8.84300000
15.63590240 3.25511956 -2.03291845 2 8 7684 16.10000000 3182671074 3182671074 -7.25400000
40.26942825 12.58880615 0.24521627 17 9 7684 42.19200000 3182671074 3182671074 0.33300000
40.36732101 8.39641476 -0.23963682 23 10 7685 41.23200000 3182671076 3182671076 -0.33300000
16.78359032 4.35616112 -1.86777258 2 11 7685 17.44000000 3182671076 3182671076 -6.14800000
19.21906662 3.02337337 -1.81612706 6 12 7686 19.54000000 3182671079 3182671079 -5.33300000
40.13676834 10.40997410 0.96486199 19 13 7686 41.47600000 3182671079 3182671079 1.33300000
39.84042358 6.26021767 0.46950817 17 14 7687 40.33200000 3182671081 3182671081 0.66700000
20.59169960 5.33687973 -1.48748708 28 15 7687 21.32400000 3182671081 3182671081 -4.00000000
20.13097954 4.17625427 -1.67838633 7 16 7688 20.62800000 3182671083 3182671083 -4.66700000
40.22366714 12.54368210 1.22622418 16 17 7688 42.15200000 3182671083 3182671083 1.66700000
39.70196152 8.22910690 0.70773000 26 18 7689 40.55200000 3182671086 3182671086 1.00000000
20.58711433 6.41611385 -1.38199449 22 19 7689 21.60800000 3182671086 3182671086 -3.66700000
20.59314537 3.22848296 -1.21394277 19 20 7689 20.88000000 3182671088 3182671088 -3.33300000
40.08129501 10.37319088 2.41114140 24 21 7689 41.47200000 3182671088 3182671088 3.33300000
40.05223846 8.29442024 1.66639328 25 22 7690 40.93600000 3182671090 3182671090 2.33300000
20.63789177 5.33732176 -0.99297416 20 23 7690 21.34000000 3182671090 3182671090 -2.66700000
20.61056137 4.26449060 -1.10303259 35 24 7691 21.07600000 3182671093 3182671093 -3.00000000
43.28998184 11.18749046 5.48997021 27 25 7691 45.04800000 3182671093 3182671093 7.00000000
40.79874802 8.43416309 3.40103507 27 26 7692 41.80000000 3182671095 3182671095 4.66700000
20.67285538 6.43096209 -0.88204533 25 27 7692 21.66800000 3182671095 3182671095 -2.33300000
20.65327072 3.22313762 -0.72995788 13 28 7693 20.91600000 3182671097 3182671097 -2.00000000
96.36001587 19.90258789 17.93975639 28 30 7693 100.01600000 3182671100 3182671100 10.33300000
38.77487183 10.00620651 -0.93182832 15 31 7693 40.05600000 3182671100 3182671100 -1.33300000
5.74957705 1.17917299 -2.73687577 7 0 7701 6.47600000 3182671120 3182671120 -25.00000000
39.75095749 12.29737473 -0.72629935 17 1 7701 41.61600000 3182671120 3182671120 -1.00000000
38.38976288 7.86632252 -1.14046526 24 2 7702 39.20400000 3182671123 3182671123 -1.66700000
8.58930588 2.20216322 -2.48224998 2 3 7702 9.20800000 3182671123 3182671123 -15.63900000
11.35110474 2.32385397 -2.31732202 4 4 7703 11.81600000 3182671125 3182671125 -11.31000000
40.39146805 10.34822559 0.00000000 20 5 7703 41.69600000 3182671125 3182671125 0.00000000
39.62163925 6.10543299 -0.46671429 19 6 7704 40.09200000 3182671127 3182671127 -0.66700000
13.30948162 3.40739155 -2.13742638 2 7 7704 13.90400000 3182671127 3182671127 -8.84300000
15.64328194 3.19972491 -2.03241324 2 8 7704 16.09600000 3182671129 3182671129 -7.25400000
40.26343918 12.43282032 0.24491404 17 9 7704 42.14000000 3182671129 3182671129 0.33300000
40.05543518 8.18577862 -0.23761427 23 10 7705 40.88400000 3182671132 3182671132 -0.33300000
16.79098701 4.29557753 -1.86691570 2 11 7705 17.43200000 3182671132 3182671132 -6.14800000
19.24131203 2.95808339 -1.81724238 6 12 7706 19.55200000 3182671134 3182671134 -5.33300000
40.20385361 10.27773094 0.96560645 19 13 7706 41.50800000 3182671134 3182671134 1.33300000
39.77901459 6.10836220 0.46853033 17 14 7707 40.24800000 3182671136 3182671136 0.66700000
20.58700562 5.25904322 -1.48581290 26 15 7707 21.30000000 3182671136 3182671136 -4.00000000
20.14933968 4.10675478 -1.67871177 7 16 7708 20.63200000 3182671139 3182671139 -4.66700000
40.21371460 12.38672066 1.22459507 16 17 7708 42.09600000 3182671139 3182671139 1.66700000
39.67808533 8.08702278 0.70682245 26 18 7708 40.50000000 3182671141 3182671141 1.00000000
20.57394218 6.33723354 -1.37969208 12 19 7708 21.57200000 3182671141 3182671141 -3.66700000
20.59244728 3.15476561 -1.21324503 22 20 7709 20.86800000 3182671143 3182671143 -3.33300000
40.14821243 10.24111366 2.41300201 30 21 7709 41.50400000 3182671143 3182671143 3.33300000
40.01045227 8.14021873 1.66346228 25 22 7710 40.86400000 3182671146 3182671146 2.33300000
20.64090919 5.26130199 -0.99222970 20 23 7710 21.32400000 3182671146 3182671146 -2.66700000
20.60966301 4.18933773 -1.10219526 35 24 7711 21.06000000 3182671148 3182671148 -3.00000000
42.03606415 10.70704556 5.32617760 25 25 7711 43.70400000 3182671148 3182671148 7.00000000
40.62868500 8.25123119 3.38443661 27 26 7712 41.59600000 3182671150 3182671150 4.66700000
20.67225456 6.35171795 -0.88106841 25 27 7712 21.64400000 3182671150 3182671150 -2.33300000
20.65254021 3.14921689 -0.72953910 13 28 7713 20.90400000 3182671153 3182671153 -2.00000000
100.37799835 20.36740685 18.67445183 28 30 7713 104.11200000 3182671155 3182671155 10.33300000
38.73980331 9.85305309 -0.93015337 20 31 7713 39.98400000 3182671155 3182671155 -1.33300000
5.74655056 1.15766418 -2.73349500 6 0 7721 6.46800000 3182671176 3182671176 -25.00000000
39.75921631 12.14802456 -0.72567105 17 1 7721 41.58000000 3182671176 3182671176 -1.00000000
38.37387085 7.72359085 -1.13918531 16 2 7722 39.16000000 3182671178 3182671178 -1.66700000
8.60440922 2.17405486 -2.48440647 2 3 7722 9.21600000 3182671178 3182671178 -15.63900000
11.37068367 2.28653693 -2.31967521 2 4 7723 11.82800000 3182671181 3182671181 -11.31000000
40.38468170 10.19639969 0.00000000 20 5 7723 41.65200000 3182671181 3182671181 0.00000000
39.68912888 5.98116159 -0.46727309 19 6 7723 40.14000000 3182671183 3182671183 -0.66700000
13.32837200 3.36517215 -2.13865638 2 7 7723 13.91200000 3182671183 3182671183 -8.84300000
15.66602612 3.14744496 -2.03392863 2 8 7724 16.10800000 3182671185 3182671185 -7.25400000
40.41754532 12.32603645 0.24558823 17 9 7724 42.25600000 3182671185 3182671185 0.33300000
40.04062653 8.03725052 -0.23735856 23 10 7725 40.84000000 3182671188 3182671188 -0.33300000
16.80973625 4.23791218 -1.86734414 2 11 7725 17.43600000 3182671188 3182671188 -6.14800000
19.25152016 2.89090061 -1.81724238 6 12 7726 19.55200000 3182671190 3182671190 -5.33300000
40.02621078 10.08360100 0.96048856 19 13 7726 41.28800000 3182671190 3182671190 1.33300000
39.74471664 5.96116447 0.46787840 17 14 7727 40.19200000 3182671192 3182671192 0.66700000
20.58588982 5.18227863 -1.48441780 26 15 7727 21.28000000 3182671192 3182671192 -4.00000000
20.17137146 4.03796053 -1.67936277 7 16 7728 20.64000000 3182671194 3182671194 -4.66700000
40.40971375 12.29281998 1.22924960 16 17 7728 42.25600000 3182671194 3182671194 1.66700000
39.70999527 7.94925594 0.70689225 17 18 7728 40.50400000 3182671197 3182671197 1.00000000
20.57302475 6.25840759 -1.37815702 22 19 7728 21.54800000 3182671197 3182671197 -3.66700000
20.59148598 3.08109260 -1.21254742 19 20 7729 20.85600000 3182671199 3182671199 -3.33300000
40.14111710 10.09019947 2.41044378 30 21 7729 41.46000000 3182671199 3182671199 3.33300000
39.90929031 7.97466278 1.65808892 25 22 7730 40.73200000 3182671201 3182671201 2.33300000
20.63977242 5.18435287 -0.99129903 20 23 7730 21.30400000 3182671201 3182671201 -2.66700000
20.61240959 4.11502457 -1.10156715 35 24 7731 21.04800000 3182671204 3182671204 -3.00000000
42.01156998 10.54478264 5.31837797 25 25 7731 43.64000000 3182671204 3182671204 7.00000000
40.59859467 8.09766293 3.37955475 27 26 7732 41.53600000 3182671206 3182671206 4.66700000
20.67135429 6.27255678 -0.88009143 27 27 7732 21.62000000 3182671206 3182671206 -2.33300000
20.65154457 3.07534027 -0.72912031 11 28 7733 20.89200000 3182671208 3182671208 -2.00000000
100.05097961 19.93768501 18.60055161 28 30 7733 103.70000000 3182671211 3182671211 10.33300000
38.70413971 9.70026684 -0.92847848 15 31 7733 39.91200000 3182671211 3182671211 -1.33300000
5.75035810 1.13860154 -2.73349500 7 0 7740 6.46800000 3182671231 3182671231 -25.00000000
39.79928207 12.01611137 -0.72567105 26 1 7740 41.58000000 3182671231 3182671231 -1.00000000
38.37181473 7.59086466 -1.13837075 8 2 7741 39.13200000 3182671234 3182671234 -1.66700000
8.60783386 2.14457846 -2.48332834 2 3 7741 9.21200000 3182671234 3182671234 -15.63900000
11.38205147 2.24957824 -2.32045984 2 4 7742 11.83200000 3182671236 3182671236 -11.31000000
40.27465439 10.02666855 0.00000000 20 5 7742 41.50400000 3182671236 3182671236 0.00000000
39.72457123 5.85184669 -0.46745932 19 6 7742 40.15600000 3182671238 3182671238 -0.66700000
13.34329414 3.32190990 -2.13927126 2 7 7742 13.91600000 3182671238 3182671238 -8.84300000
15.68027020 3.09624600 -2.03443360 2 8 7743 16.11200000 3182671241 3182671241 -7.25400000
40.53862381 12.21617508 0.24607642 26 9 7743 42.34000000 3182671241 3182671241 0.33300000
39.78451157 7.84868526 -0.23568472 22 10 7744 40.55200000 3182671243 3182671243 -0.33300000
16.82369614 4.18214560 -1.86734414 2 11 7744 17.43600000 3182671243 3182671243 -6.14800000
19.26100159 2.82704449 -1.81724238 6 12 7745 19.55200000 3182671245 3182671245 -5.33300000
39.98957062 9.93346119 0.95881361 19 13 7745 41.21600000 3182671245 3182671245 1.33300000
39.76822281 5.82991362 0.46792498 17 14 7746 40.19600000 3182671247 3182671247 0.66700000
20.57972527 5.10821724 -1.48274362 24 15 7746 21.25600000 3182671247 3182671247 -4.00000000
20.18856239 3.97181726 -1.67968822 7 16 7747 20.64400000 3182671250 3182671250 -4.66700000
40.41579437 12.14838982 1.22820234 16 17 7747 42.22000000 3182671250 3182671250 1.66700000
39.88133240 7.84609365 0.70947522 17 18 7747 40.65200000 3182671252 3182671252 1.00000000
20.57455063 6.18440533 -1.37687790 35 19 7747 21.52800000 3182671252 3182671252 -3.66700000
20.59368896 3.01163626 -1.21208227 16 20 7748 20.84800000 3182671254 3182671254 -3.33300000
40.12397003 9.94454288 2.40742064 18 21 7748 41.40800000 3182671254 3182671254 3.33300000
39.84139252 7.82379198 1.65418100 25 22 7749 40.63600000 3182671257 3182671257 2.33300000
20.63745880 5.11107731 -0.99036843 20 23 7749 21.28400000 3182671257 3182671257 -2.66700000
20.61418343 4.04434204 -1.10093915 31 24 7750 21.03600000 3182671259 3182671259 -3.00000000
42.18119431 10.43879032 5.33543968 17 25 7750 43.78000000 3182671259 3182671259 7.00000000
40.67216873 7.97219086 3.38346028 27 26 7751 41.58400000 3182671261 3182671261 4.66700000
20.66141510 6.19479084 -0.87878877 27 27 7751 21.58800000 3182671261 3182671261 -2.33300000
20.65767479 3.00626469 -0.72898066 11 28 7752 20.88800000 3182671264 3182671264 -2.00000000
95.93038177 18.78602028 17.82280731 28 30 7752 99.36400000 3182671266 3182671266 10.33300000
38.65457153 9.55172062 -0.92652434 25 31 7752 39.82800000 3182671266 3182671266 -1.33300000
5.75785589 1.11921382 -2.73518538 6 0 7760 6.47200000 3182671287 3182671287 -25.00000000
39.68767548 11.83140945 -0.72287869 17 1 7760 41.42000000 3182671287 3182671287 -1.00000000
38.40985489 7.45916271 -1.13871992 24 2 7761 39.14400000 3182671289 3182671289 -1.66700000
8.61526775 2.11451840 -2.48332834 2 3 7761 9.21200000 3182671289 3182671289 -15.63900000
11.38213348 2.20833969 -2.31889081 2 4 7762 11.82400000 3182671291 3182671291 -11.31000000
40.46092224 9.92318058 0.00000000 20 5 7762 41.66000000 3182671291 3182671291 0.00000000
39.79226685 5.71997547 -0.46801811 19 6 7762 40.20400000 3182671294 3182671294 -0.66700000
13.35480785 3.27531290 -2.13927126 2 7 7762 13.91600000 3182671294 3182671294 -8.84300000
15.68708706 3.04073763 -2.03392863 2 8 7763 16.10800000 3182671296 3182671296 -7.25400000
40.44300079 12.03352833 0.24523951 17 9 7763 42.19600000 3182671296 3182671296 0.33300000
39.96874619 7.74018288 -0.23661463 22 10 7764 40.71200000 3182671298 3182671298 -0.33300000
16.83819199 4.12339449 -1.86734414 4 11 7764 17.43600000 3182671298 3182671298 -6.14800000
19.27469444 2.76035833 -1.81761420 6 12 7765 19.55600000 3182671300 3182671300 -5.33300000
39.90358734 9.76434517 0.95592898 19 13 7765 41.09200000 3182671300 3182671300 1.33300000
39.58639908 5.66217804 0.46555018 16 14 7766 39.99200000 3182671303 3182671303 0.66700000
20.58192825 5.03255844 -1.48162746 9 15 7766 21.24000000 3182671303 3182671303 -4.00000000
20.21013260 3.90283370 -1.68033910 7 16 7767 20.65200000 3182671305 3182671305 -4.66700000
40.41579056 11.99472523 1.22692239 24 17 7767 42.17600000 3182671305 3182671305 1.66700000
39.89018631 7.69608068 0.70912617 26 18 7768 40.63200000 3182671307 3182671307 1.00000000
20.57411766 6.10214376 -1.37534297 28 19 7768 21.50400000 3182671307 3182671307 -3.66700000
20.58826256 2.93747640 -1.21115208 16 20 7768 20.83200000 3182671310 3182671310 -3.33300000
40.04981613 9.77790546 2.40090895 18 21 7768 41.29600000 3182671310 3182671310 3.33300000
39.78604507 7.66878653 1.65076160 25 22 7769 40.55200000 3182671312 3182671312 2.33300000
20.63576508 5.03427315 -0.98943782 20 23 7769 21.26400000 3182671312 3182671312 -2.66700000
20.60463905 3.96782827 -1.09968317 31 24 7770 21.01200000 3182671314 3182671314 -3.00000000
42.25980377 10.30183029 5.34080219 17 25 7770 43.82400000 3182671314 3182671314 7.00000000
40.75064468 7.83996153 3.38769126 27 26 7771 41.63600000 3182671317 3182671317 4.66700000
20.66758347 6.11809349 -0.87813747 25 27 7771 21.57200000 3182671317 3182671317 -2.33300000
20.65221024 2.93189025 -0.72842228 9 28 7772 20.87200000 3182671319 3182671319 -2.00000000
96.02242279 18.45624542 17.82782936 28 30 7772 99.39200000 3182671321 3182671321 10.33300000
38.69933319 9.41956997 -0.92680353 15 31 7772 39.84000000 3182671321 3182671321 -1.33300000
5.76191950 1.09810269 -2.73518538 7 0 7781 6.47200000 3182671342 3182671342 -25.00000000
39.70391464 11.67796803 -0.72239000 17 1 7781 41.39200000 3182671342 3182671342 -1.00000000
38.48014069 7.32655954 -1.13999987 16 2 7782 39.18800000 3182671344 3182671344 -1.66700000
8.62296009 2.08292770 -2.48332834 2 3 7782 9.21200000 3182671344 3182671344 -15.63900000
11.38629723 2.16587424 -2.31810641 2 4 7783 11.82000000 3182671346 3182671346 -11.31000000
40.46202469 9.76637077 0.00000000 20 5 7783 41.62400000 3182671346 3182671346 0.00000000
39.86939240 5.57489681 -0.46867001 19 6 7784 40.26000000 3182671349 3182671349 -0.66700000
13.38265514 3.22771692 -2.14173079 2 7 7784 13.93200000 3182671349 3182671349 -8.84300000
15.71371937 2.98618436 -2.03594875 2 8 7784 16.12400000 3182671351 3182671351 -7.25400000
40.46764755 11.87958336 0.24512327 17 9 7784 42.17600000 3182671351 3182671351 0.33300000
39.98505402 7.59140015 -0.23654489 22 10 7785 40.70000000 3182671353 3182671353 -0.33300000
16.86479187 4.06444693 -1.86862934 2 11 7785 17.44800000 3182671353 3182671353 -6.14800000
19.29257011 2.69079494 -1.81835771 6 12 7786 19.56400000 3182671356 3182671356 -5.33300000
40.11405563 9.66015720 0.96011633 13 13 7786 41.27200000 3182671356 3182671356 1.33300000
39.46823502 5.49773502 0.46392044 16 14 7787 39.85200000 3182671358 3182671358 0.66700000
20.58471680 4.95335388 -1.48051143 13 15 7787 21.22400000 3182671358 3182671358 -4.00000000
20.23605347 3.83095837 -1.68131542 5 16 7788 20.66400000 3182671360 3182671360 -4.66700000
40.42111206 11.83527756 1.22575879 24 17 7788 42.13600000 3182671360 3182671360 1.66700000
40.03862381 7.57985258 0.71129030 17 18 7788 40.75600000 3182671363 3182671363 1.00000000
20.57996750 6.02580261 -1.37431955 28 19 7788 21.48800000 3182671363 3182671363 -3.66700000
20.58702469 2.86034822 -1.21045446 19 20 7789 20.82000000 3182671365 3182671365 -3.33300000
40.07373810 9.62825108 2.40021133 18 21 7789 41.28400000 3182671365 3182671365 3.33300000
39.79425049 7.51920176 1.64994752 25 22 7790 40.53200000 3182671367 3182671367 2.33300000
20.63853645 4.95487452 -0.98869330 20 23 7790 21.24800000 3182671367 3182671367 -2.66700000
20.61119461 3.89079976 -1.09926438 35 24 7791 21.00400000 3182671370 3182671370 -3.00000000
42.32430267 10.15335369 5.34421444 26 25 7791 43.85200000 3182671370 3182671370 7.00000000
40.71642303 7.67872906 3.38248396 27 26 7792 41.57200000 3182671372 3182671372 4.66700000
20.66684914 6.03557968 -0.87716049 27 27 7792 21.54800000 3182671372 3182671372 -2.33300000
20.66677856 2.85672379 -0.72856188 6 28 7793 20.87600000 3182671374 3182671374 -2.00000000
97.61626434 18.37421227 18.11051559 28 30 7794 100.96800000 3182671376 3182671376 10.33300000
38.75854874 9.27649117 -0.92736185 20 31 7794 39.86400000 3182671376 3182671376 -1.33300000
5.76928091 1.07864940 -2.73687577 7 0 7801 6.47600000 3182671397 3182671397 -25.00000000
39.71371078 11.53038311 -0.72183150 26 1 7801 41.36000000 3182671397 3182671397 -1.00000000
38.49369049 7.18999195 -1.13965070 16 2 7802 39.17600000 3182671399 3182671399 -1.66700000
8.63392544 2.05370665 -2.48440647 2 3 7802 9.21600000 3182671399 3182671399 -15.63900000
11.39764404 2.12683487 -2.31889081 2 4 7803 11.82400000 3182671402 3182671402 -11.31000000
40.45306015 9.61489773 0.00000000 20 5 7803 41.58000000 3182671402 3182671402 0.00000000
39.91238785 5.43893290 -0.46894941 19 6 7804 40.28400000 3182671404 3182671404 -0.66700000
13.38999462 3.18006992 -2.14111590 2 7 7804 13.92800000 3182671404 3182671404 -8.84300000
15.71624660 2.92986083 -2.03493881 2 8 7804 16.11600000 3182671406 3182671406 -7.25400000
40.45508194 11.72266674 0.24479781 26 9 7804 42.12000000 3182671406 3182671406 0.33300000
39.93659592 7.43786526 -0.23610318 22 10 7805 40.62400000 3182671409 3182671409 -0.33300000
16.87887573 4.00555325 -1.86862934 4 11 7805 17.44800000 3182671409 3182671409 -6.14800000
19.30184555 2.62343478 -1.81835771 6 12 7806 19.56400000 3182671411 3182671411 -5.33300000
40.01912689 9.48962593 0.95704561 19 13 7806 41.14000000 3182671411 3182671411 1.33300000
39.94297409 5.42180014 0.46927536 26 14 7807 40.31200000 3182671413 3182671413 0.66700000
20.58246803 4.87686968 -1.47911632 11 15 7807 21.20400000 3182671413 3182671413 -4.00000000
20.25322151 3.76102591 -1.68164098 5 16 7808 20.66800000 3182671416 3182671416 -4.66700000
40.40456009 11.67745781 1.22401333 24 17 7808 42.07600000 3182671416 3182671416 1.66700000
39.93901062 7.41667891 0.70905638 26 18 7808 40.62800000 3182671418 3182671418 1.00000000
20.57403183 5.94617033 -1.37252879 28 19 7808 21.46000000 3182671418 3182671418 -3.66700000
20.58105659 2.78632569 -1.20952415 22 20 7809 20.80400000 3182671420 3182671420 -3.33300000
40.07601547 9.48095417 2.39835095 18 21 7809 41.25200000 3182671420 3182671420 3.33300000
39.88312912 7.39190149 1.65255272 17 22 7810 40.59600000 3182671423 3182671423 2.33300000
20.64015388 4.87912560 -0.98794883 22 23 7810 21.23200000 3182671423 3182671423 -2.66700000
20.60893822 3.81592059 -1.09842706 35 24 7811 20.98800000 3182671425 3182671425 -3.00000000
42.52563477 10.04479694 5.36517620 61 25 7811 44.02400000 3182671425 3182671425 7.00000000
40.76258087 7.54018116 3.38411117 27 26 7812 41.59200000 3182671427 3182671427 4.66700000
20.66474915 5.95675993 -0.87618351 25 27 7812 21.52400000 3182671427 3182671427 -2.33300000
20.67662430 2.78456593 -0.72856188 6 28 7813 20.87600000 3182671429 3182671429 -2.00000000
97.50639343 18.01893997 18.07894707 28 30 7813 100.79200000 3182671432 3182671432 10.33300000
38.78131485 9.14607620 -0.92717570 25 31 7813 39.85600000 3182671432 3182671432 -1.33300000
5.77282619 1.05951190 -2.73687577 6 0 7820 6.47600000 3182671452 3182671452 -25.00000000
39.68252945 11.37878227 -0.72057498 17 1 7820 41.28800000 3182671452 3182671452 -1.00000000
38.75328445 7.10556746 -1.14663243 24 2 7821 39.41600000 3182671455 3182671455 -1.66700000
8.64443874 2.02594304 -2.48548484 2 3 7821 9.22000000 3182671455 3182671455 -15.63900000
11.42006683 2.09185410 -2.32202864 2 4 7822 11.84000000 3182671457 3182671457 -11.31000000
40.46914291 9.47704983 0.00000000 20 5 7822 41.56400000 3182671457 3182671457 0.00000000
40.10769272 5.33726025 -0.47104478 19 6 7822 40.46400000 3182671459 3182671459 -0.66700000
13.39607048 3.13708711 -2.14050102 2 7 7822 13.92400000 3182671459 3182671459 -8.84300000
15.73758507 2.87987041 -2.03645396 2 8 7823 16.12800000 3182671462 3182671462 -7.25400000
40.44758606 11.57524204 0.24451883 26 9 7823 42.07200000 3182671462 3182671462 0.33300000
39.86660767 7.28812599 -0.23554523 15 10 7824 40.52800000 3182671464 3182671464 -0.33300000
16.88819313 3.94865346 -1.86820090 4 11 7824 17.44400000 3182671464 3182671464 -6.14800000
19.32623291 2.56150627 -1.81984484 6 12 7825 19.58000000 3182671466 3182671466 -5.33300000
39.95302582 9.33412170 0.95471925 19 13 7825 41.04000000 3182671466 3182671466 1.33300000
40.12726974 5.31135750 0.47123104 26 14 7826 40.48000000 3182671469 3182671469 0.66700000
20.58687019 4.80586767 -1.47827923 16 15 7826 21.19200000 3182671469 3182671469 -4.00000000
20.27342606 3.69527292 -1.68229187 5 16 7827 20.67600000 3182671471 3182671471 -4.66700000
40.40077209 11.53133583 1.22273338 24 17 7827 42.03200000 3182671471 3182671471 1.66700000
39.95158005 7.28204441 0.70884693 26 18 7827 40.61600000 3182671473 3182671473 1.00000000
20.56676865 5.87024212 -1.37073803 28 19 7827 21.43200000 3182671473 3182671473 -3.66700000
20.57830620 2.71649337 -1.20882654 22 20 7828 20.79200000 3182671476 3182671476 -3.33300000
40.11890030 9.35072422 2.39904857 30 21 7828 41.26400000 3182671476 3182671476 3.33300000
39.73834229 7.22884560 1.64555109 25 22 7829 40.42400000 3182671478 3182671478 2.33300000
20.64454460 4.80793428 -0.98739046 23 23 7829 21.22000000 3182671478 3182671478 -2.66700000
20.60968971 3.74541521 -1.09779906 38 24 7830 20.97600000 3182671480 3182671480 -3.00000000
41.08156586 9.55998039 5.17895985 16 25 7830 42.49600000 3182671480 3182671480 7.00000000
40.76382446 7.40069294 3.38215852 18 26 7831 41.56800000 3182671482 3182671482 4.66700000
20.66517067 5.88272905 -0.87536937 27 27 7831 21.50400000 3182671482 3182671482 -2.33300000
20.69367027 2.71702504 -0.72884107 6 28 7832 20.88400000 3182671485 3182671485 -2.00000000
101.66922760 18.42144394 18.83875275 28 30 7833 105.02800000 3182671487 3182671487 10.33300000
38.79352570 9.00612736 -0.92671043 25 31 7833 39.83600000 3182671487 3182671487 -1.33300000
5.77310276 1.03770494 -2.73518538 7 0 7841 6.47200000 3182671508 3182671508 -25.00000000
39.85481644 11.27026367 -0.72294849 17 1 7841 41.42400000 3182671508 3182671508 -1.00000000
38.85383987 6.97690868 -1.14884341 16 2 7842 39.49200000 3182671510 3182671510 -1.66700000
8.65180588 1.99424601 -2.48548484 2 3 7842 9.22000000 3182671510 3182671510 -15.63900000
11.42765713 2.04998350 -2.32202864 2 4 7843 11.84000000 3182671512 3182671512 -11.31000000
40.45293427 9.31698799 0.00000000 20 5 7843 41.51200000 3182671512 3182671512 0.00000000
40.05162048 5.18047380 -0.47016007 19 6 7843 40.38800000 3182671515 3182671515 -0.66700000
13.41518211 3.08974123 -2.14173079 2 7 7843 13.93200000 3182671515 3182671515 -8.84300000
15.74022293 2.82077003 -2.03544378 2 8 7844 16.12000000 3182671517 3182671517 -7.25400000
40.44739532 11.41496658 0.24426311 17 9 7844 42.02800000 3182671517 3182671517 0.33300000
39.82218170 7.12927055 -0.23512678 15 10 7845 40.45600000 3182671519 3182671519 -0.33300000
16.91805649 3.89029360 -1.86991441 2 11 7845 17.46000000 3182671519 3182671519 -6.14800000
19.33944130 2.49116373 -1.82021666 6 12 7846 19.58400000 3182671522 3182671522 -5.33300000
40.20522308 9.23777008 0.95993024 13 13 7846 41.26400000 3182671522 3182671522 1.33300000
40.08696365 5.15659380 0.47053260 26 14 7847 40.42000000 3182671524 3182671524 0.66700000
20.58101082 4.72502375 -1.47660506 31 15 7847 21.16800000 3182671524 3182671524 -4.00000000
20.29468346 3.62234330 -1.68294275 5 16 7848 20.68400000 3182671526 3182671526 -4.66700000
40.39657974 11.37018299 1.22133696 24 17 7848 41.98400000 3182671526 3182671526 1.66700000
39.82445145 7.10815907 0.70612437 26 18 7848 40.46000000 3182671529 3182671529 1.00000000
20.56509018 5.78833294 -1.36920297 26 19 7848 21.40800000 3182671529 3182671529 -3.66700000
20.57228088 2.63901949 -1.20789635 22 20 7849 20.77600000 3182671531 3182671531 -3.33300000
40.14122772 9.20094204 2.39835095 18 21 7849 41.25200000 3182671531 3182671531 3.33300000
39.75669861 7.08174658 1.64522541 34 22 7850 40.41600000 3182671533 3182671533 2.33300000
20.64255333 4.72777605 -0.98645985 24 23 7850 21.20000000 3182671533 3182671533 -2.66700000
20.61541176 3.66845226 -1.09738028 38 24 7851 20.96800000 3182671535 3182671535 -3.00000000
41.97550201 9.60596275 5.28717947 17 25 7851 43.38400000 3182671535 3182671535 7.00000000
41.03011322 7.29380035 3.40201139 18 26 7852 41.81200000 3182671538 3182671538 4.66700000
20.65965652 5.79938698 -0.87422955 29 27 7852 21.47600000 3182671538 3182671538 -2.33300000
20.71935272 2.64318442 -0.72939950 6 28 7853 20.90000000 3182671540 3182671540 -2.00000000
101.72444153 18.04662132 18.83660126 28 30 7854 105.01600000 3182671542 3182671542 10.33300000
38.82627487 8.86388111 -0.92671043 20 31 7854 39.83600000 3182671542 3182671542 -1.33300000
5.77294207 1.01792538 -2.73349500 7 0 7860 6.46800000 3182671563 3182671563 -25.00000000
39.93434143 11.14986897 -0.72371638 26 1 7860 41.46800000 3182671563 3182671563 -1.00000000
38.90039062 6.85218811 -1.14954150 16 2 7861 39.51600000 3182671565 3182671565 -1.66700000
8.65837193 1.96554470 -2.48548484 2 3 7861 9.22000000 3182671565 3182671565 -15.63900000
11.43439198 2.01207662 -2.32202864 2 4 7862 11.84000000 3182671568 3182671568 -11.31000000
40.43679810 9.17217255 0.00000000 13 5 7862 41.46400000 3182671568 3182671568 0.00000000
40.08842087 5.05012894 -0.47039288 19 6 7862 40.40800000 3182671570 3182671570 -0.66700000
13.42920876 3.04611206 -2.14234567 2 7 7862 13.93600000 3182671570 3182671570 -8.84300000
15.74949074 2.76855803 -2.03544378 4 8 7863 16.12000000 3182671572 3182671572 -7.25400000
40.44263840 11.26896477 0.24400738 17 9 7863 41.98400000 3182671572 3182671572 0.33300000
39.80620956 6.99025774 -0.23489431 15 10 7864 40.41600000 3182671575 3182671575 -0.33300000
16.93474388 3.83504820 -1.87034285 2 11 7864 17.46400000 3182671575 3182671575 -6.14800000
19.33178902 2.42503524 -1.81872952 6 12 7865 19.56800000 3182671577 3182671577 -5.33300000
39.80270004 9.00643158 0.94960141 70 13 7865 40.82000000 3182671577 3182671577 1.33300000
39.96493530 5.00623226 0.46890283 17 14 7866 40.28000000 3182671579 3182671579 0.66700000
20.58489037 4.65410852 -1.47576797 26 15 7866 21.15600000 3182671579 3182671579 -4.00000000
20.31836510 3.55708623 -1.68391919 5 16 7867 20.69600000 3182671582 3182671582 -4.66700000
40.39168549 11.22438431 1.22005701 24 17 7867 41.94000000 3182671582 3182671582 1.66700000
39.73356247 6.95605659 0.70409989 17 18 7867 40.34400000 3182671584 3182671584 1.00000000
20.56494141 5.71476078 -1.36792386 26 19 7867 21.38800000 3182671584 3182671584 -3.66700000
20.58488083 2.57127976 -1.20812881 22 20 7868 20.78000000 3182671586 3182671586 -3.33300000
40.19099426 9.07217503 2.39951372 18 21 7868 41.27200000 3182671586 3182671586 3.33300000
39.79177475 6.95193338 1.64571393 25 22 7869 40.42800000 3182671588 3182671588 2.33300000
20.64252663 4.65578032 -0.98571533 23 23 7869 21.18400000 3182671588 3182671588 -2.66700000
20.61959457 3.59869528 -1.09696162 35 24 7870 20.96000000 3182671591 3182671591 -3.00000000
41.37968826 9.32531548 5.20820808 25 25 7870 42.73600000 3182671591 3182671591 7.00000000
41.16797256 7.17755747 3.41144967 27 26 7871 41.92800000 3182671593 3182671593 4.66700000
20.65566444 5.72444057 -0.87325257 25 27 7871 21.45200000 3182671593 3182671593 -2.33300000
20.73990440 2.57594013 -0.72981828 6 28 7872 20.91200000 3182671595 3182671595 -2.00000000
106.12971497 18.46534348 19.64089012 28 30 7873 109.50000000 3182671598 3182671598 10.33300000
38.89837265 8.74472809 -0.92773402 25 31 7873 39.88000000 3182671598 3182671598 -1.33300000
5.78020620 0.99737608 -2.73518538 7 0 7881 6.47200000 3182671618 3182671618 -25.00000000
40.02892303 11.01828671 -0.72469372 26 1 7881 41.52400000 3182671618 3182671618 -1.00000000
38.92130280 6.70888567 -1.14942515 16 2 7882 39.51200000 3182671621 3182671621 -1.66700000
8.66175842 1.93295801 -2.48440647 1 3 7882 9.21600000 3182671621 3182671621 -15.63900000
11.44555569 1.97081959 -2.32281327 2 4 7883 11.84400000 3182671623 3182671623 -11.31000000
40.42719650 9.01432705 0.00000000 20 5 7883 41.42000000 3182671623 3182671623 0.00000000
40.07886887 4.89976597 -0.47006693 19 6 7883 40.38000000 3182671625 3182671625 -0.66700000
13.44414139 2.99773145 -2.14296055 2 7 7883 13.94000000 3182671625 3182671625 -8.84300000
15.77126408 2.71283269 -2.03695893 2 8 7884 16.13200000 3182671628 3182671628 -7.25400000
40.40652847 11.09946918 0.24354243 26 9 7884 41.90400000 3182671628 3182671628 0.33300000
39.75271606 6.83076620 -0.23442934 15 10 7885 40.33600000 3182671630 3182671630 -0.33300000
16.94868469 3.77295351 -1.87034285 2 11 7885 17.46400000 3182671630 3182671630 -6.14800000
19.35636139 2.35608935 -1.82021666 6 12 7886 19.58400000 3182671632 3182671632 -5.33300000
40.01110077 8.89955807 0.95378876 19 13 7886 41.00000000 3182671632 3182671632 1.33300000
39.98698807 4.86020231 0.46894941 17 14 7887 40.28400000 3182671634 3182671634 0.66700000
20.57843971 4.57343578 -1.47409379 26 15 7887 21.13200000 3182671634 3182671634 -4.00000000
20.33126640 3.48259163 -1.68391919 5 16 7888 20.69600000 3182671637 3182671637 -4.66700000
40.29758453 11.03929234 1.21598434 16 17 7888 41.80000000 3182671637 3182671637 1.66700000
39.74696350 6.80835342 0.70389044 17 18 7888 40.33200000 3182671639 3182671639 1.00000000
20.57034874 5.63512945 -1.36690056 26 19 7888 21.37200000 3182671639 3182671639 -3.66700000
20.57434654 2.49341297 -1.20696604 21 20 7889 20.76000000 3182671641 3182671641 -3.33300000
40.07973480 8.89280224 2.39090919 18 21 7889 41.12400000 3182671641 3182671641 3.33300000
39.75395584 6.79526806 1.64310873 25 22 7890 40.36400000 3182671644 3182671644 2.33300000
20.64384842 4.57663107 -0.98497081 22 23 7890 21.16800000 3182671644 3182671644 -2.66700000
20.61689568 3.52040720 -1.09612429 38 24 7891 20.94400000 3182671646 3182671646 -3.00000000
42.42140961 9.39683247 5.33495235 25 25 7891 43.77600000 3182671646 3182671646 7.00000000
41.23723221 7.03399467 3.41502976 27 26 7892 41.97200000 3182671648 3182671648 4.66700000
20.66108704 5.64448261 -0.87260127 23 27 7892 21.43600000 3182671648 3182671648 -2.33300000
20.77301979 2.50277638 -0.73065585 6 28 7893 20.93600000 3182671651 3182671651 -2.00000000
105.37038422 17.93558693 19.48806763 28 30 7894 108.64800000 3182671653 3182671653 10.33300000
39.00044632 8.61763000 -0.92940897 20 31 7894 39.95200000 3182671653 3182671653 -1.33300000
5.78722715 0.97779727 -2.73687577 7 0 7901 6.47600000 3182671674 3182671674 -25.00000000
40.12503433 10.89421082 -0.72574085 17 1 7901 41.58400000 3182671674 3182671674 -1.00000000
38.94842529 6.57364941 -1.14954150 16 2 7902 39.51600000 3182671676 3182671676 -1.66700000
8.67973995 1.90518856 -2.48764133 2 3 7902 9.22800000 3182671676 3182671676 -15.63900000
11.44849777 1.93020308 -2.32202864 2 4 7903 11.84000000 3182671678 3182671678 -11.31000000
40.39199448 8.85858727 0.00000000 20 5 7903 41.35200000 3182671678 3182671678 0.00000000
40.03217697 4.75229073 -0.46932191 29 6 7903 40.31600000 3182671681 3182671681 -0.66700000
13.45838356 2.95163107 -2.14357567 2 7 7903 13.94400000 3182671681 3182671681 -8.84300000
15.78846264 2.65908217 -2.03796911 2 8 7904 16.14000000 3182671683 3182671683 -7.25400000
40.37167358 10.93848133 0.24310073 26 9 7904 41.82800000 3182671683 3182671683 0.33300000
39.74081802 6.68598890 -0.23422012 15 10 7905 40.30000000 3182671685 3182671685 -0.33300000
16.98117638 3.71802163 -1.87248480 2 11 7905 17.48400000 3182671685 3182671685 -6.14800000
19.37237740 2.28944349 -1.82096016 6 12 7906 19.59200000 3182671687 3182671687 -5.33300000
39.94035339 8.73761845 0.95136940 31 13 7906 40.89600000 3182671687 3182671687 1.33300000
39.87262726 4.70512390 0.46741277 17 14 7907 40.15200000 3182671690 3182671690 0.66700000
20.58648109 4.49987173 -1.47353578 26 15 7907 21.12400000 3182671690 3182671690 -4.00000000
20.35509491 3.41357923 -1.68489552 5 16 7908 20.70800000 3182671692 3182671692 -4.66700000
40.16989899 10.85371494 1.21098077 24 17 7908 41.62800000 3182671692 3182671692 1.66700000
39.87698364 6.68742895 0.70577532 17 18 7908 40.44000000 3182671694 3182671694 1.00000000
20.55906487 5.55496120 -1.36485386 26 19 7908 21.34000000 3182671694 3182671694 -3.66700000
20.56706047 2.41971374 -1.20603585 21 20 7909 20.74400000 3182671697 3182671697 -3.33300000
40.11833191 8.75454617 2.39137411 36 21 7909 41.13200000 3182671697 3182671697 3.33300000
