# .PCD v0.7 - Point Cloud Data file format
VERSION 0.7
FIELDS x y z intensity laser_id azimuth distance_m adjustedtime timestamp vertical_angle
SIZE 4 4 4 1 1 2 8 8 4 8
TYPE F F F U U U F U U F
COUNT 1 1 1 1 1 1 1 1 1 1
WIDTH 509
HEIGHT 1
VIEWPOINT 0 0 0 1 0 0 0
POINTS 509
DATA ascii
20.26861954 -13.24826145 -1.55186570 21 19 12737 24.26400000 3184785162 3184785162 -3.66700000
20.19251251 -17.91514969 -1.57207918 12 20 12738 27.04000000 3184785164 3184785164 -3.33300000
41.98575211 -30.48204803 3.02160120 21 21 12738 51.97200000 3184785164 3184785164 3.33300000
40.36994171 -32.44666672 2.11010265 28 22 12739 51.83600000 3184785167 3184785167 2.33300000
34.30507278 -24.91494751 -1.97496700 5 23 12739 42.44400000 3184785167 3184785167 -2.66700000
20.25058365 -16.28188705 -1.36178160 13 24 12740 26.02000000 3184785169 3184785169 -3.00000000
43.15350342 -34.70870972 4.52093554 21 26 12741 55.56400000 3184785171 3184785171 4.66700000
38.91966248 -25.47801590 -1.89516819 21 27 12741 46.55600000 3184785171 3184785171 -2.33300000
39.46837616 -35.06630707 -1.84367061 41 28 12742 52.82800000 3184785174 3184785174 -2.00000000
39.43992615 -28.67582321 -1.13468289 16 31 12742 48.77600000 3184785176 3184785176 -1.33300000
3.93008661 -3.17118025 -2.35482907 5 0 12750 5.57200000 3184785197 3184785197 -25.00000000
39.49089813 -25.94067001 -0.82473093 20 1 12750 47.25600000 3184785197 3184785197 -1.00000000
39.61512375 -31.97679329 -1.48163903 27 2 12751 50.93200000 3184785199 3184785199 -1.66700000
7.91670895 -5.77508020 -2.74319887 2 3 12751 10.17600000 3184785199 3184785199 -15.63900000
10.38785076 -8.38792801 -2.67033315 3 4 12752 13.61600000 3184785202 3184785202 -11.31000000
38.85765076 -28.35626793 0.00000000 26 5 12752 48.10400000 3184785202 3184785202 0.00000000
39.12991714 -34.88799667 -0.61031872 35 6 12752 52.42800000 3184785204 3184785204 -0.66700000
13.03591251 -9.51292324 -2.51067662 2 7 12752 16.33200000 3184785204 3184785204 -8.84300000
15.29176807 -12.35212612 -2.50213122 3 8 12753 19.81600000 3184785206 3184785206 -7.25400000
38.92453766 -25.59782791 0.27076542 29 9 12753 46.58800000 3184785206 3184785206 0.33300000
39.05135345 -31.55550766 -0.29180455 19 10 12754 50.20800000 3184785209 3184785209 -0.33300000
17.24380302 -12.59284592 -2.30001616 4 11 12754 21.47600000 3184785209 3184785209 -6.14800000
19.09959221 -17.04703712 -2.38977790 6 12 12755 25.71200000 3184785211 3184785211 -5.33300000
38.89686584 -28.41610909 1.12091112 17 13 12755 48.18400000 3184785211 3184785211 1.33300000
38.84896469 -34.68621063 0.60631418 39 14 12756 52.08400000 3184785213 3184785213 0.66700000
20.20279694 -14.76456356 -1.74977136 27 15 12756 25.08400000 3184785213 3184785213 -4.00000000
20.17213440 -16.31759071 -2.11807990 11 16 12757 26.03200000 3184785215 3184785215 -4.66700000
38.95095444 -25.65416908 1.35736430 28 17 12757 46.66000000 3184785215 3184785215 1.66700000
38.83053589 -31.41069794 0.87178260 28 18 12757 49.95200000 3184785218 3184785218 1.00000000
20.25558853 -13.34088802 -1.55442405 25 19 12757 24.30400000 3184785218 3184785218 -3.66700000
20.18643188 -18.03607750 -1.57649767 12 20 12758 27.11600000 3184785220 3184785220 -3.33300000
41.32470322 -30.22296524 2.98160148 20 21 12758 51.28400000 3184785220 3184785220 3.33300000
41.18836975 -33.34178162 2.15895128 32 22 12759 53.03600000 3184785222 3184785222 2.33300000
34.32431030 -25.11240005 -1.98110914 5 23 12759 42.57600000 3184785222 3184785222 -2.66700000
20.25260735 -16.40023804 -1.36575913 13 24 12760 26.09600000 3184785225 3184785225 -3.00000000
42.97941971 -34.81647110 4.51540279 20 26 12761 55.49600000 3184785227 3184785227 4.66700000
38.74708557 -25.55869865 -1.89109743 21 27 12761 46.45600000 3184785227 3184785227 -2.33300000
39.37552261 -35.23051834 -1.84506655 27 28 12762 52.86800000 3184785229 3184785229 -2.00000000
39.43314743 -28.88184357 -1.13738143 16 31 12762 48.89200000 3184785232 3184785232 -1.33300000
3.94656682 -3.20843172 -2.37173367 5 0 12771 5.61200000 3184785252 3184785252 -25.00000000
39.43890381 -26.11394119 -0.82563847 20 1 12771 47.30800000 3184785252 3184785252 -1.00000000
39.62483978 -32.22520828 -1.48640990 28 2 12772 51.09600000 3184785255 3184785255 -1.66700000
7.89859295 -5.80633926 -2.74427724 3 3 12772 10.18000000 3184785255 3184785255 -15.63900000
10.36008072 -8.42842007 -2.67111754 3 4 12773 13.62000000 3184785257 3184785257 -11.31000000
38.88557816 -28.59565735 0.00000000 17 5 12773 48.26800000 3184785257 3184785257 0.00000000
39.12676239 -35.14343262 -0.61227441 36 6 12773 52.59600000 3184785259 3184785259 -0.66700000
13.01051140 -9.56766319 -2.51252151 2 7 12773 16.34400000 3184785259 3184785259 -8.84300000
15.25870228 -12.41810894 -2.50415134 3 8 12774 19.83200000 3184785262 3184785262 -7.25400000
38.97381592 -25.83535194 0.27176508 19 9 12774 46.76000000 3184785262 3184785262 0.33300000
39.33558273 -32.02419662 -0.29480350 21 10 12775 50.72400000 3184785264 3184785264 -0.33300000
17.21354675 -12.66774940 -2.30215812 4 11 12775 21.49600000 3184785264 3184785264 -6.14800000
19.06363678 -17.14089203 -2.39312387 6 12 12776 25.74800000 3184785266 3184785266 -5.33300000
38.83753967 -28.59167290 1.12221384 26 13 12776 48.24000000 3184785266 3184785266 1.33300000
38.92378998 -35.01025391 0.60948056 59 14 12777 52.35600000 3184785268 3184785268 0.66700000
20.20316696 -14.87873745 -1.75451481 27 15 12777 25.15200000 3184785268 3184785268 -4.00000000
20.17090797 -16.43927002 -2.12426376 11 16 12778 26.10800000 3184785271 3184785271 -4.66700000
38.96325684 -25.86752701 1.36108792 19 17 12778 46.78800000 3184785271 3184785271 1.66700000
39.09337234 -31.86105919 0.88029939 29 18 12778 50.44000000 3184785273 3184785273 1.00000000
20.25976562 -13.45036507 -1.55851734 21 19 12778 24.36800000 3184785273 3184785273 -3.66700000
20.17955017 -18.16337204 -1.58114886 12 20 12779 27.19600000 3184785275 3184785275 -3.33300000
41.25222778 -30.40265274 2.98439217 20 21 12779 51.33200000 3184785275 3184785275 3.33300000
41.09066772 -33.51272964 2.16025400 48 22 12780 53.06800000 3184785278 3184785278 2.33300000
34.26098251 -25.25937653 -1.98278427 5 23 12780 42.61200000 3184785278 3184785278 -2.66700000
20.24497795 -16.51728630 -1.36931801 13 24 12781 26.16400000 3184785280 3184785280 -3.00000000
45.07841873 -36.79127121 4.75005817 25 26 12782 58.38000000 3184785282 3184785282 4.66700000
38.64649200 -25.69611740 -1.89077175 21 27 12782 46.44800000 3184785282 3184785282 -2.33300000
39.40053558 -35.51377487 -1.85232568 28 28 12783 53.07600000 3184785285 3184785285 -2.00000000
39.43320084 -29.10454559 -1.14045215 16 31 12783 49.02400000 3184785287 3184785287 -1.33300000
3.98640180 -3.26283216 -2.40216231 6 0 12790 5.68400000 3184785308 3184785308 -25.00000000
39.44192886 -26.30449677 -0.82752329 20 1 12790 47.41600000 3184785308 3184785308 -1.00000000
39.61984634 -32.44001770 -1.49024987 42 2 12791 51.22800000 3184785310 3184785310 -1.66700000
7.88858271 -5.83937502 -2.74751210 4 3 12791 10.19200000 3184785310 3184785310 -15.63900000
10.34117699 -8.47018528 -2.67347097 3 4 12792 13.63200000 3184785312 3184785312 -11.31000000
38.79696655 -28.72920990 0.00000000 26 5 12792 48.27600000 3184785312 3184785312 0.00000000
39.19987869 -35.44467163 -0.61525452 37 6 12792 52.85200000 3184785315 3184785315 -0.66700000
12.99459362 -9.62251472 -2.51559591 1 7 12792 16.36400000 3184785315 3184785315 -8.84300000
15.23585415 -12.48373032 -2.50718188 3 8 12793 19.85600000 3184785317 3184785317 -7.25400000
38.85133362 -25.94002151 0.27150935 29 9 12793 46.71600000 3184785317 3184785317 0.33300000
39.16420364 -32.10121536 -0.29431531 31 10 12794 50.64000000 3184785319 3184785319 -0.33300000
17.20020294 -12.74607277 -2.30601358 4 11 12794 21.53200000 3184785319 3184785319 -6.14800000
19.02736092 -17.22272491 -2.39572620 6 12 12795 25.77600000 3184785321 3184785321 -5.33300000
38.83888626 -28.79174995 1.12500548 17 13 12795 48.36000000 3184785321 3184785321 1.33300000
39.00019836 -35.31363678 0.61250722 60 14 12796 52.61600000 3184785324 3184785324 0.66700000
20.19217682 -14.97417355 -1.75786316 24 15 12796 25.20000000 3184785324 3184785324 -4.00000000
20.17484093 -16.55411911 -2.13044739 18 16 12797 26.18400000 3184785326 3184785326 -4.66700000
39.02350616 -26.09438133 1.36620784 28 17 12797 46.96400000 3184785326 3184785326 1.66700000
39.26322937 -32.22823334 0.88665205 45 18 12798 50.80400000 3184785328 3184785328 1.00000000
20.25914383 -13.55207539 -1.56209898 21 19 12798 24.42400000 3184785328 3184785328 -3.66700000
20.18430901 -18.28917885 -1.58626509 12 20 12798 27.28400000 3184785331 3184785331 -3.33300000
42.26710129 -31.36743546 3.06532168 56 21 12798 52.72400000 3184785331 3184785331 3.33300000
40.99475098 -33.66148758 2.16106820 16 22 12799 53.08800000 3184785333 3184785333 2.33300000
34.27006912 -25.44192123 -1.98818183 5 23 12799 42.72800000 3184785333 3184785333 -2.66700000
20.23330688 -16.61982536 -1.37224877 13 24 12800 26.22000000 3184785335 3184785335 -3.00000000
43.80989838 -32.53610229 6.70037651 19 25 12800 54.98000000 3184785335 3184785335 7.00000000
40.83171844 -33.55148697 4.31427002 16 26 12801 53.02400000 3184785338 3184785338 4.66700000
38.64076614 -25.87750626 -1.89467967 21 27 12801 46.54400000 3184785338 3184785338 -2.33300000
39.41873550 -35.76780701 -1.85874724 28 28 12802 53.26000000 3184785340 3184785340 -2.00000000
39.41991806 -29.29717064 -1.14287150 16 31 12802 49.12800000 3184785342 3184785342 -1.33300000
3.98280692 -3.28434038 -2.40723372 8 0 12811 5.69600000 3184785363 3184785363 -25.00000000
39.69376373 -26.68315887 -0.83485329 20 1 12811 47.83600000 3184785363 3184785363 -1.00000000
39.59938049 -32.66643143 -1.49397349 43 2 12812 51.35600000 3184785365 3184785365 -1.66700000
7.87947750 -5.87746143 -2.75182533 3 3 12812 10.20800000 3184785365 3184785365 -15.63900000
10.32518864 -8.52051258 -2.67739320 3 4 12813 13.65200000 3184785367 3184785367 -11.31000000
38.63690948 -28.83054733 0.00000000 26 5 12813 48.20800000 3184785367 3184785367 0.00000000
39.22314072 -35.74039841 -0.61776900 37 6 12814 53.06800000 3184785370 3184785370 -0.66700000
12.96388531 -9.67706871 -2.51682591 1 7 12814 16.37200000 3184785370 3184785370 -8.84300000
15.21141720 -12.55717087 -2.51071739 3 8 12814 19.88400000 3184785372 3184785372 -7.25400000
38.72945404 -26.06437683 0.27132338 29 9 12814 46.68400000 3184785372 3184785372 0.33300000
39.09254837 -32.28274918 -0.29466403 31 10 12815 50.70000000 3184785374 3184785374 -0.33300000
17.18204880 -12.83044434 -2.30986905 4 11 12815 21.56800000 3184785374 3184785374 -6.14800000
18.98765182 -17.31381607 -2.39870048 6 12 12816 25.80800000 3184785377 3184785377 -5.33300000
38.79717255 -28.98177147 1.12686646 26 13 12816 48.44000000 3184785377 3184785377 1.33300000
38.90596390 -35.48868942 0.61306602 40 14 12817 52.66400000 3184785379 3184785379 0.66700000
20.18830109 -15.08629894 -1.76232755 27 15 12817 25.26400000 3184785379 3184785379 -4.00000000
20.15704918 -16.66351318 -2.13500381 11 16 12818 26.24000000 3184785381 3184785381 -4.66700000
39.16300583 -26.39589500 1.37446952 19 17 12818 47.24800000 3184785381 3184785381 1.66700000
39.20906067 -32.41350937 0.88797843 30 18 12818 50.88000000 3184785384 3184785384 1.00000000
20.24812508 -13.64725208 -1.56491303 21 19 12818 24.46800000 3184785384 3184785384 -3.66700000
20.17907524 -18.41957092 -1.59114873 12 20 12819 27.36800000 3184785386 3184785386 -3.33300000
42.03672791 -31.43604851 3.05694962 33 21 12819 52.58000000 3184785386 3184785386 3.33300000
40.40301895 -33.42428207 2.13631797 15 22 12820 52.48000000 3184785388 3184785388 2.33300000
34.30136871 -25.66070366 -1.99544072 5 23 12820 42.88400000 3184785388 3184785388 -2.66700000
20.23072624 -16.74226189 -1.37622631 13 24 12821 26.29600000 3184785391 3184785391 -3.00000000
44.71705627 -33.46480560 6.85783148 21 25 12821 56.27200000 3184785391 3184785391 7.00000000
43.67807770 -36.15933609 4.62898779 23 26 12822 56.89200000 3184785393 3184785393 4.66700000
38.62185287 -26.07038689 -1.89842474 21 27 12822 46.63600000 3184785393 3184785393 -2.33300000
39.34048462 -35.96059036 -1.86125994 28 28 12823 53.33200000 3184785395 3184785395 -2.00000000
39.40954971 -29.52504158 -1.14584923 16 31 12824 49.25600000 3184785397 3184785397 -1.33300000
3.98526239 -3.30980372 -2.41568589 9 0 12831 5.71600000 3184785418 3184785418 -25.00000000
39.54408646 -26.78342628 -0.83366656 20 1 12831 47.76800000 3184785418 3184785418 -1.00000000
39.53431702 -32.84534073 -1.49583530 43 2 12832 51.42000000 3184785420 3184785420 -1.66700000
7.87123156 -5.91418552 -2.75613856 4 3 12832 10.22400000 3184785420 3184785420 -15.63900000
10.29840088 -8.55900955 -2.67817783 4 4 12833 13.65600000 3184785423 3184785423 -11.31000000
38.88776016 -29.22960854 0.00000000 26 5 12833 48.64800000 3184785423 3184785423 0.00000000
39.08046341 -35.86087036 -0.61748964 37 6 12834 53.04400000 3184785425 3184785425 -0.66700000
12.94266319 -9.73176289 -2.51928544 1 7 12834 16.38800000 3184785425 3184785425 -8.84300000
15.18274784 -12.62287617 -2.51324272 3 8 12834 19.90400000 3184785427 3184785427 -7.25400000
38.72762299 -26.26001930 0.27195108 29 9 12834 46.79200000 3184785427 3184785427 0.33300000
38.97654724 -32.41645050 -0.29464078 31 10 12835 50.69600000 3184785430 3184785430 -0.33300000
17.18165398 -12.92381191 -2.31586647 4 11 12835 21.62400000 3184785430 3184785430 -6.14800000
19.00630379 -17.45272064 -2.40873837 6 12 12836 25.91600000 3184785432 3184785432 -5.33300000
38.96737671 -29.32139587 1.13477600 27 13 12836 48.78000000 3184785432 3184785432 1.33300000
38.91440201 -35.74604034 0.61516142 40 14 12837 52.84400000 3184785434 3184785434 0.66700000
20.18971252 -15.19747257 -1.76707101 28 15 12837 25.33200000 3184785434 3184785434 -4.00000000
20.16003799 -16.78479195 -2.14151287 7 16 12838 26.32000000 3184785437 3184785437 -4.66700000
39.12685776 -26.57062531 1.37644768 29 17 12838 47.31600000 3184785437 3184785437 1.66700000
39.11719131 -32.56808853 0.88846713 30 18 12838 50.90800000 3184785439 3184785439 1.00000000
20.24989891 -13.75148678 -1.56875050 21 19 12838 24.52800000 3184785439 3184785439 -3.66700000
20.17639351 -18.54664803 -1.59603238 12 20 12839 27.45200000 3184785441 3184785441 -3.33300000
41.59821320 -31.33512115 3.03299642 33 21 12839 52.16800000 3184785441 3184785441 3.33300000
34.32008362 -25.86203957 -2.00176883 5 23 12840 43.02000000 3184785444 3184785444 -2.66700000
20.23660088 -16.86648369 -1.38062251 13 24 12841 26.38000000 3184785446 3184785446 -3.00000000
44.59575272 -37.18215942 4.73996878 25 26 12842 58.25600000 3184785448 3184785448 4.66700000
38.63636780 -26.27696800 -1.90363526 21 27 12842 46.76400000 3184785448 3184785448 -2.33300000
39.34413147 -36.21682358 -1.86740232 14 28 12843 53.50800000 3184785450 3184785450 -2.00000000
39.40400314 -29.72540665 -1.14854777 16 31 12843 49.37200000 3184785453 3184785453 -1.33300000
3.97762632 -3.32463241 -2.41737652 8 0 12849 5.72000000 3184785473 3184785473 -25.00000000
39.50270462 -26.93681717 -0.83457410 20 1 12849 47.82000000 3184785473 3184785473 -1.00000000
39.54136276 -33.06171036 -1.50002432 44 2 12850 51.56400000 3184785476 3184785476 -1.66700000
7.85261297 -5.93888426 -2.75613856 4 3 12850 10.22400000 3184785476 3184785476 -15.63900000
10.28951263 -8.60641956 -2.68288445 3 4 12851 13.68000000 3184785478 3184785478 -11.31000000
38.69366455 -29.27440453 0.00000000 26 5 12851 48.52000000 3184785478 3184785478 0.00000000
38.73289108 -35.75420380 -0.61367136 36 6 12851 52.71600000 3184785480 3184785480 -0.66700000
12.93579578 -9.78681469 -2.52358985 1 7 12851 16.41600000 3184785480 3184785480 -8.84300000
15.16431904 -12.68833542 -2.51677823 3 8 12852 19.93200000 3184785483 3184785483 -7.25400000
38.78037643 -26.47402000 0.27290422 19 9 12852 46.95600000 3184785483 3184785483 0.33300000
38.93892670 -32.59265518 -0.29512897 21 10 12853 50.78000000 3184785485 3184785485 -0.33300000
17.15999222 -12.99212933 -2.31843686 4 11 12853 21.64800000 3184785485 3184785485 -6.14800000
18.97185707 -17.53126335 -2.41134095 6 12 12854 25.94400000 3184785487 3184785487 -5.33300000
38.89738464 -29.46057129 1.13542736 27 13 12854 48.80800000 3184785487 3184785487 1.33300000
39.04568863 -36.09346390 0.61902624 61 14 12855 53.17600000 3184785490 3184785490 0.66700000
20.19275665 -15.29938126 -1.77153540 25 15 12855 25.39600000 3184785490 3184785490 -4.00000000
20.16221237 -16.89413261 -2.14737129 11 16 12856 26.39200000 3184785492 3184785492 -4.66700000
39.13230896 -26.75434303 1.37958944 29 17 12856 47.42400000 3184785492 3184785492 1.66700000
39.00855255 -32.68568039 0.88832748 30 18 12856 50.90000000 3184785494 3184785494 1.00000000
20.25932312 -13.85108280 -1.57284379 22 19 12856 24.59200000 3184785494 3184785494 -3.66700000
20.16786194 -18.65604019 -1.59998584 12 20 12857 27.52000000 3184785497 3184785497 -3.33300000
41.76367188 -31.66589928 3.05229855 33 21 12857 52.50000000 3184785497 3184785497 3.33300000
40.32745361 -33.81476974 2.14413381 46 22 12858 52.67200000 3184785499 3184785499 2.33300000
34.28005219 -26.00112152 -2.00418854 5 23 12858 43.07200000 3184785499 3184785499 -2.66700000
20.23247910 -16.97105026 -1.38397205 13 24 12859 26.44400000 3184785501 3184785501 -3.00000000
40.69784546 -34.14954758 4.33705187 17 26 12860 53.30400000 3184785503 3184785503 4.66700000
38.59979248 -26.42983055 -1.90591490 21 27 12860 46.82000000 3184785503 3184785503 -2.33300000
39.51169586 -36.60103989 -1.88080370 29 28 12861 53.89200000 3184785506 3184785506 -2.00000000
39.37208557 -29.90670776 -1.15050185 16 31 12862 49.45600000 3184785508 3184785508 -1.33300000
3.96760392 -3.34221649 -2.41906691 8 0 12871 5.72400000 3184785529 3184785529 -25.00000000
39.57035828 -27.20612144 -0.83820421 20 1 12871 48.02800000 3184785529 3184785529 -1.00000000
39.51196289 -33.29574203 -1.50374794 29 2 12872 51.69200000 3184785531 3184785531 -1.66700000
7.83587790 -5.97366285 -2.75829506 4 3 12872 10.23200000 3184785531 3184785531 -15.63900000
10.26838589 -8.65597725 -2.68602252 3 4 12873 13.69600000 3184785533 3184785533 -11.31000000
38.56507111 -29.41063499 0.00000000 26 5 12873 48.50000000 3184785533 3184785533 0.00000000
38.96431732 -36.24591827 -0.61953843 57 6 12873 53.22000000 3184785536 3184785536 -0.66700000
12.91069317 -9.84599972 -2.52604938 1 7 12873 16.43200000 3184785536 3184785536 -8.84300000
15.13672161 -12.76437473 -2.52031374 3 8 12874 19.96000000 3184785538 3184785538 -7.25400000
38.75421906 -26.67489243 0.27343890 19 9 12874 47.04800000 3184785538 3184785538 0.33300000
39.13452148 -33.01273727 -0.29756999 23 10 12875 51.20000000 3184785540 3184785540 -0.33300000
17.19850159 -13.12548065 -2.33043170 4 11 12875 21.76000000 3184785540 3184785540 -6.14800000
18.91605949 -17.61483765 -2.41282797 6 12 12876 25.96000000 3184785543 3184785543 -5.33300000
38.94290161 -29.73103905 1.14007998 27 13 12876 49.00800000 3184785543 3184785543 1.33300000
38.97705078 -36.30855179 0.62014377 41 14 12877 53.27200000 3184785545 3184785545 0.66700000
20.17825890 -15.41070938 -1.77544177 25 15 12877 25.45200000 3184785545 3184785545 -4.00000000
20.14897537 -17.01515198 -2.15290403 15 16 12878 26.46000000 3184785547 3184785547 -4.66700000
39.21364212 -27.03148079 1.38610578 19 17 12878 47.64800000 3184785547 3184785547 1.66700000
38.83692551 -32.79651642 0.88728034 30 18 12878 50.84000000 3184785550 3184785550 1.00000000
20.25528717 -13.96275425 -1.57668126 22 19 12878 24.65200000 3184785550 3184785550 -3.66700000
20.16618156 -18.79868889 -1.60556722 12 20 12879 27.61600000 3184785552 3184785552 -3.33300000
41.62273788 -31.81147766 3.05090332 22 21 12879 52.47600000 3184785552 3184785552 3.33300000
39.56236649 -33.43279266 2.11026549 28 22 12880 51.84000000 3184785554 3184785554 2.33300000
34.29740906 -26.22234917 -2.01107526 5 23 12880 43.22000000 3184785554 3184785554 -2.66700000
20.22817802 -17.10018730 -1.38815892 13 24 12881 26.52400000 3184785556 3184785556 -3.00000000
40.69732285 -34.41625977 4.35104656 52 26 12882 53.47600000 3184785559 3184785559 4.66700000
38.61972046 -26.66186142 -1.91193950 21 27 12882 46.96800000 3184785559 3184785559 -2.33300000
39.51405334 -36.88615036 -1.88764393 30 28 12883 54.08800000 3184785561 3184785561 -2.00000000
39.39349365 -30.16220093 -1.15450311 16 31 12884 49.62800000 3184785563 3184785563 -1.33300000
3.96538019 -3.36169744 -2.42413831 9 0 12889 5.73600000 3184785584 3184785584 -25.00000000
39.16899872 -27.11178589 -0.83150244 20 1 12889 47.64400000 3184785584 3184785584 -1.00000000
39.46815491 -33.47142792 -1.50607514 30 2 12890 51.77200000 3184785586 3184785586 -1.66700000
7.82624006 -6.00528526 -2.76152992 3 3 12890 10.24400000 3184785586 3184785586 -15.63900000
10.24413300 -8.69073105 -2.68680692 4 4 12891 13.70000000 3184785589 3184785589 -11.31000000
38.84372330 -29.81661034 0.00000000 27 5 12891 48.96800000 3184785589 3184785589 0.00000000
38.78017807 -36.30254364 -0.61842090 37 6 12891 53.12400000 3184785591 3184785591 -0.66700000
12.89223766 -9.89613724 -2.52850914 1 7 12891 16.44800000 3184785591 3184785591 -8.84300000
15.12680054 -12.83754063 -2.52536440 3 8 12892 20.00000000 3184785593 3184785593 -7.25400000
38.61433792 -26.75778008 0.27304369 29 9 12892 46.98000000 3184785593 3184785593 0.33300000
39.15563583 -33.24165726 -0.29852313 35 10 12893 51.36400000 3184785596 3184785596 -0.33300000
17.17295074 -13.19156075 -2.33257365 4 11 12893 21.78000000 3184785596 3184785596 -6.14800000
18.88097191 -17.69324112 -2.41543055 6 12 12894 25.98800000 3184785598 3184785598 -5.33300000
38.87150192 -29.87029076 1.14073133 27 13 12894 49.03600000 3184785598 3184785598 1.33300000
38.98243332 -36.54297638 0.62205291 42 14 12895 53.43600000 3184785600 3184785600 0.66700000
20.19301605 -15.52266312 -1.78102231 25 15 12895 25.53200000 3184785600 3184785600 -4.00000000
20.15617943 -17.13000298 -2.15941310 15 16 12896 26.54000000 3184785603 3184785603 -4.66700000
39.13837814 -27.16138077 1.38645482 29 17 12896 47.66000000 3184785603 3184785603 1.66700000
38.72760773 -32.91318512 0.88714075 30 18 12896 50.83200000 3184785605 3184785605 1.00000000
20.25067520 -14.05362988 -1.57975125 22 19 12896 24.70000000 3184785605 3184785605 -3.66700000
20.16235924 -18.91385841 -1.60998583 12 20 12897 27.69200000 3184785607 3184785607 -3.33300000
39.42364883 -33.52843475 2.10847425 41 22 12898 51.79600000 3184785609 3184785609 2.33300000
34.34469223 -26.42987823 -2.01870632 5 23 12898 43.38400000 3184785609 3184785609 -2.66700000
20.22912025 -17.21024323 -1.39192712 13 24 12899 26.59600000 3184785612 3184785612 -3.00000000
38.60796738 -26.83323669 -1.91552174 21 27 12900 47.05600000 3184785614 3184785614 -2.33300000
39.54074478 -37.14421844 -1.89448428 30 28 12901 54.28400000 3184785616 3184785616 -2.00000000
39.39989853 -30.36392212 -1.15748084 25 31 12902 49.75600000 3184785619 3184785619 -1.33300000
3.96189284 -3.38258028 -2.42920971 10 0 12909 5.74800000 3184785639 3184785639 -25.00000000
39.53995132 -27.57319450 -0.84141541 20 1 12909 48.21200000 3184785639 3184785639 -1.00000000
39.41796494 -33.66612244 -1.50863504 30 2 12910 51.86000000 3184785642 3184785642 -1.66700000
7.80827808 -6.03492308 -2.76260829 3 3 12910 10.24800000 3184785642 3184785642 -15.63900000
10.23162746 -8.74172401 -2.69151378 4 4 12911 13.72400000 3184785644 3184785644 -11.31000000
38.73940659 -29.95201874 0.00000000 18 5 12911 48.96800000 3184785644 3184785644 0.00000000
38.83657837 -36.61053848 -0.62135446 19 6 12911 53.37600000 3184785646 3184785646 -0.66700000
12.86386967 -9.94591522 -2.52973890 1 7 12911 16.45600000 3184785646 3184785646 -8.84300000
15.09697914 -12.90315437 -2.52788973 3 8 12912 20.02000000 3184785649 3184785649 -7.25400000
38.69124603 -27.01147079 0.27425259 29 9 12912 47.18800000 3184785649 3184785649 0.33300000
39.15184784 -33.47430801 -0.29938331 24 10 12913 51.51200000 3184785651 3184785651 -0.33300000
17.13308907 -13.25629234 -2.33343053 4 11 12913 21.78800000 3184785651 3184785651 -6.14800000
18.90019989 -17.83557510 -2.42584014 6 12 12914 26.10000000 3184785653 3184785653 -5.33300000
38.82392120 -30.04985428 1.14240634 27 13 12914 49.10800000 3184785653 3184785653 1.33300000
38.94770813 -36.76668549 0.62354296 63 14 12915 53.56400000 3184785655 3184785655 0.66700000
20.18918991 -15.63214111 -1.78548670 23 15 12915 25.59600000 3184785655 3184785655 -4.00000000
20.14169312 -17.23914146 -2.16429496 11 16 12916 26.60000000 3184785658 3184785658 -4.66700000
39.19078827 -27.40093040 1.39169121 29 17 12916 47.84000000 3184785658 3184785658 1.66700000
38.59729004 -33.03516388 0.88679165 30 18 12916 50.81200000 3184785660 3184785660 1.00000000
20.24729729 -14.15625477 -1.58333290 22 19 12916 24.75600000 3184785660 3184785660 -3.66700000
20.16588211 -19.04993629 -1.61556709 13 20 12917 27.78800000 3184785662 3184785662 -3.33300000
40.83319473 -31.63924217 3.00834560 21 21 12917 51.74400000 3184785662 3184785662 3.33300000
39.35190582 -33.70484161 2.11091685 28 22 12918 51.85600000 3184785665 3184785665 2.33300000
34.28696060 -26.57653046 -2.02075362 5 23 12918 43.42800000 3184785665 3184785665 -2.66700000
20.22048950 -17.32493401 -1.39548588 13 24 12919 26.66400000 3184785667 3184785667 -3.00000000
40.99184418 -35.13425827 4.40735102 37 26 12920 54.16800000 3184785669 3184785669 4.66700000
38.62210846 -27.04348946 -1.92089510 21 27 12920 47.18800000 3184785669 3184785669 -2.33300000
39.41955948 -37.29025650 -1.89490306 30 28 12921 54.29600000 3184785672 3184785672 -2.00000000
39.38211823 -30.56992722 -1.16008627 16 31 12922 49.86800000 3184785674 3184785674 -1.33300000
3.94946837 -3.39707875 -2.42920971 10 0 12930 5.74800000 3184785695 3184785695 -25.00000000
39.65131378 -27.86740875 -0.84595305 20 1 12930 48.47200000 3184785695 3184785695 -1.00000000
39.39735413 -33.89903641 -1.51259136 30 2 12931 51.99600000 3184785697 3184785697 -1.66700000
7.79218435 -6.06823444 -2.76476502 3 3 12931 10.25600000 3184785697 3184785697 -15.63900000
10.21438217 -8.79195976 -2.69543600 3 4 12932 13.74400000 3184785699 3184785699 -11.31000000
38.68931961 -30.14051056 0.00000000 18 5 12932 49.04400000 3184785699 3184785699 0.00000000
39.04147339 -37.07488251 -0.62680250 20 6 12932 53.84400000 3184785702 3184785702 -0.66700000
12.84915543 -10.00999928 -2.53404331 1 7 12932 16.48400000 3184785702 3184785702 -8.84300000
15.05860615 -12.96616840 -2.52940512 3 8 12933 20.03200000 3184785704 3184785704 -7.25400000
38.68358231 -27.21754837 0.27490351 19 9 12933 47.30000000 3184785704 3184785704 0.33300000
39.03495789 -33.62280273 -0.29942980 24 10 12934 51.52000000 3184785706 3184785706 -0.33300000
17.10320663 -13.33367062 -2.33600092 4 11 12934 21.81200000 3184785706 3184785706 -6.14800000
18.87222672 -17.94040108 -2.43067336 6 12 12935 26.15200000 3184785708 3184785708 -5.33300000
38.69144821 -30.17473412 1.14175487 27 13 12935 49.08000000 3184785708 3184785708 1.33300000
38.80979156 -36.90643311 0.62349641 42 14 12936 53.56000000 3184785711 3184785711 0.66700000
20.17580605 -15.74039555 -1.78939307 23 15 12936 25.65200000 3184785711 3184785711 -4.00000000
20.14479828 -17.37012482 -2.17145514 11 16 12937 26.68800000 3184785713 3184785713 -4.66700000
39.14239120 -27.58123589 1.39355290 19 17 12937 47.90400000 3184785713 3184785713 1.66700000
39.38764572 -33.96253204 0.90780437 33 18 12937 52.01600000 3184785715 3184785715 1.00000000
20.25074768 -14.26945782 -1.58768201 22 19 12937 24.82400000 3184785715 3184785715 -3.66700000
20.15956688 -19.18428230 -1.62068331 13 20 12938 27.87600000 3184785718 3184785718 -3.33300000
40.55013657 -31.65844917 2.99602008 21 21 12938 51.53200000 3184785718 3184785718 3.33300000
39.26139069 -33.87756729 2.11270785 42 22 12939 51.90000000 3184785720 3184785720 2.33300000
34.34362793 -26.82253075 -2.02987385 5 23 12939 43.62400000 3184785720 3184785720 -2.66700000
20.22035408 -17.45374107 -1.39988220 13 24 12940 26.74800000 3184785722 3184785722 -3.00000000
40.82658386 -35.25299835 4.40344524 37 26 12941 54.12000000 3184785725 3184785725 4.66700000
38.85580444 -27.41991425 -1.93750370 22 27 12941 47.59600000 3184785725 3184785725 -2.33300000
39.33760452 -37.48688507 -1.89755547 30 28 12942 54.37200000 3184785727 3184785727 -2.00000000
39.36337662 -30.77617645 -1.16269171 25 31 12942 49.98000000 3184785729 3184785729 -1.33300000
3.94914365 -3.41964936 -2.43597174 10 0 12949 5.76400000 3184785750 3184785750 -25.00000000
39.48686600 -27.94791412 -0.84441721 20 1 12949 48.38400000 3184785750 3184785750 -1.00000000
39.39956665 -34.12897491 -1.51701319 31 2 12950 52.14800000 3184785752 3184785752 -1.66700000
7.77504969 -6.09641790 -2.76584315 3 3 12950 10.26000000 3184785752 3184785752 -15.63900000
10.19702816 -8.83605766 -2.69857383 3 4 12951 13.76000000 3184785755 3184785755 -11.31000000
38.59860229 -30.27604866 0.00000000 27 5 12951 49.05600000 3184785755 3184785755 0.00000000
38.92338181 -37.22199249 -0.62698877 40 6 12952 53.86000000 3184785757 3184785757 -0.66700000
12.82346344 -10.06210995 -2.53588796 1 7 12952 16.49600000 3184785757 3184785757 -8.84300000
15.04251003 -13.03942490 -2.53395081 3 8 12952 20.06800000 3184785759 3184785759 -7.25400000
38.75629807 -27.46130371 0.27606589 29 9 12952 47.50000000 3184785759 3184785759 0.33300000
39.02901459 -33.84378052 -0.30024347 37 10 12953 51.66000000 3184785761 3184785761 -0.33300000
17.07766724 -13.40504646 -2.33857107 4 11 12953 21.83600000 3184785761 3184785761 -6.14800000
18.81838608 -18.00839233 -2.43141675 6 12 12954 26.16000000 3184785764 3184785764 -5.33300000
38.88681793 -30.53502274 1.15050185 18 13 12954 49.45600000 3184785764 3184785764 1.33300000
38.79987335 -37.14279938 0.62531245 42 14 12955 53.71600000 3184785766 3184785766 0.66700000
20.17684174 -15.84911728 -1.79413652 23 15 12955 25.72000000 3184785766 3184785766 -4.00000000
20.14428902 -17.48648643 -2.17763877 11 16 12956 26.76400000 3184785768 3184785768 -4.66700000
39.17787933 -27.80112648 1.39809108 30 17 12956 48.06000000 3184785768 3184785768 1.66700000
39.22053909 -34.05785751 0.90668744 33 18 12957 51.95200000 3184785771 3184785771 1.00000000
20.24638557 -14.37240887 -1.59126353 22 19 12957 24.88000000 3184785771 3184785771 -3.66700000
20.14774323 -19.30075073 -1.62486935 13 20 12957 27.94800000 3184785773 3184785773 -3.33300000
40.29109955 -31.67182159 2.98462486 31 21 12957 51.33600000 3184785773 3184785773 3.33300000
38.92253876 -33.81100082 2.10049558 27 22 12958 51.60000000 3184785775 3184785775 2.33300000
34.37698746 -27.03259659 -2.03713250 6 23 12958 43.78000000 3184785775 3184785775 -2.66700000
20.21362305 -17.56524086 -1.40344095 13 24 12959 26.81600000 3184785778 3184785778 -3.00000000
40.94414520 -35.59220505 4.42883110 38 26 12960 54.43200000 3184785780 3184785780 4.66700000
38.78421021 -27.56250381 -1.93848073 33 27 12960 47.62000000 3184785780 3184785780 -2.33300000
39.31404495 -37.71398544 -1.90244138 31 28 12961 54.51200000 3184785782 3184785782 -2.00000000
39.39621735 -31.01290131 -1.16669297 25 31 12961 50.15200000 3184785785 3184785785 -1.33300000
3.94537973 -3.44056153 -2.44104314 9 0 12969 5.77600000 3184785805 3184785805 -25.00000000
39.15786743 -27.92072487 -0.83946073 20 1 12969 48.10000000 3184785805 3184785805 -1.00000000
39.33442688 -34.31360626 -1.51910770 31 2 12970 52.22000000 3184785808 3184785808 -1.66700000
7.75976801 -6.12829542 -2.76799989 4 3 12970 10.26800000 3184785808 3184785808 -15.63900000
10.16907692 -8.87417793 -2.69935846 3 4 12971 13.76400000 3184785810 3184785810 -11.31000000
38.72180557 -30.59161377 0.00000000 18 5 12971 49.34800000 3184785810 3184785810 0.00000000
38.89405060 -37.45473862 -0.62861848 20 6 12972 54.00000000 3184785812 3184785812 -0.66700000
12.79756546 -10.11416340 -2.53773284 1 7 12972 16.50800000 3184785812 3184785812 -8.84300000
15.02081680 -13.11272907 -2.53799129 3 8 12972 20.10000000 3184785814 3184785814 -7.25400000
38.66345978 -27.59874535 0.27608916 29 9 12972 47.50400000 3184785814 3184785814 0.33300000
39.10647583 -34.15082550 -0.30175456 25 10 12973 51.92000000 3184785817 3184785817 -0.33300000
17.04013062 -13.47197628 -2.33985639 4 11 12973 21.84800000 3184785817 3184785817 -6.14800000
18.77261734 -18.09055138 -2.43364739 6 12 12974 26.18400000 3184785819 3184785819 -5.33300000
38.72667313 -30.62840652 1.14891994 27 13 12974 49.38800000 3184785819 3184785819 1.33300000
38.73333359 -37.33908081 0.62633681 42 14 12975 53.80400000 3184785821 3184785821 0.66700000
20.17772293 -15.96401596 -1.79915893 23 15 12975 25.79200000 3184785821 3184785821 -4.00000000
20.13115120 -17.59868050 -2.18284607 11 16 12976 26.82800000 3184785824 3184785824 -4.66700000
39.13914490 -27.97956657 1.40018559 20 17 12976 48.13200000 3184785824 3184785824 1.66700000
39.30912399 -34.36408997 0.91136467 34 18 12976 52.22000000 3184785826 3184785826 1.00000000
20.24407768 -14.47196960 -1.59484518 22 19 12976 24.93600000 3184785826 3184785826 -3.66700000
20.15497017 -19.44304466 -1.63091576 13 20 12977 28.05200000 3184785828 3184785828 -3.33300000
40.23038864 -31.85193062 2.98834562 31 21 12977 51.40000000 3184785828 3184785828 3.33300000
39.69467163 -34.72558975 2.14869308 46 22 12978 52.78400000 3184785831 3184785831 2.33300000
34.29807663 -27.16483307 -2.03806329 6 23 12978 43.80000000 3184785831 3184785831 -2.66700000
20.21230507 -17.68830490 -1.40762782 13 24 12979 26.89600000 3184785833 3184785833 -3.00000000
40.74166489 -35.66663361 4.42036915 57 26 12980 54.32800000 3184785835 3184785835 4.66700000
38.64876556 -27.66979980 -1.93652678 22 27 12980 47.57200000 3184785835 3184785835 -2.33300000
39.33166504 -37.99541473 -1.90970051 31 28 12981 54.72000000 3184785838 3184785838 -2.00000000
39.35665894 -31.20488930 -1.16874015 25 31 12981 50.24000000 3184785840 3184785840 -1.33300000
3.93606973 -3.45670485 -2.44273353 9 0 12989 5.78000000 3184785861 3184785861 -25.00000000
39.37849426 -28.28589821 -0.84630209 20 1 12989 48.49200000 3184785861 3184785861 -1.00000000
39.32855225 -34.55097961 -1.52352941 32 2 12990 52.37200000 3184785863 3184785863 -1.66700000
7.74134350 -6.15774250 -2.76907802 3 3 12990 10.27200000 3184785863 3184785863 -15.63900000
10.15277004 -8.92256641 -2.70328069 3 4 12991 13.78400000 3184785866 3184785866 -11.31000000
38.75563431 -30.83866882 0.00000000 27 5 12991 49.52800000 3184785866 3184785866 0.00000000
38.68347931 -37.49999237 -0.62722158 40 6 12991 53.88000000 3184785868 3184785868 -0.66700000
12.77323341 -10.16392899 -2.53957748 1 7 12991 16.52000000 3184785868 3184785868 -8.84300000
14.99283314 -13.18080139 -2.54102182 3 8 12992 20.12400000 3184785870 3184785870 -7.25400000
38.79420853 -27.89700508 0.27771649 30 9 12992 47.78400000 3184785870 3184785870 0.33300000
39.07713699 -34.36637115 -0.30245200 39 10 12993 52.04000000 3184785873 3184785873 -0.33300000
17.01788902 -13.55119419 -2.34328341 4 11 12993 21.88000000 3184785873 3184785873 -6.14800000
18.79795647 -18.24195290 -2.44517255 6 12 12994 26.30800000 3184785875 3184785875 -5.33300000
38.97922516 -31.04993248 1.15962100 18 13 12994 49.84800000 3184785875 3184785875 1.33300000
38.69746780 -37.56599426 0.62787348 64 14 12995 53.93600000 3184785877 3184785877 0.66700000
20.16244316 -16.06667900 -1.80278635 24 15 12995 25.84400000 3184785877 3184785877 -4.00000000
20.13842010 -17.72943497 -2.19033170 11 16 12996 26.92000000 3184785879 3184785879 -4.66700000
39.14830780 -28.19312477 1.40402555 20 17 12996 48.26400000 3184785879 3184785879 1.66700000
39.16791534 -34.48259735 0.91087598 34 18 12996 52.19200000 3184785882 3184785882 1.00000000
20.24850464 -14.58220387 -1.59919429 22 19 12996 25.00400000 3184785882 3184785882 -3.66700000
20.14426422 -19.56892967 -1.63556695 13 20 12997 28.13200000 3184785884 3184785884 -3.33300000
40.01593018 -31.91000748 2.98067141 30 21 12997 51.26800000 3184785884 3184785884 3.33300000
39.46225739 -34.76618576 2.14266849 46 22 12998 52.63600000 3184785886 3184785886 2.33300000
34.23427963 -27.30930710 -2.03992438 6 23 12998 43.84000000 3184785886 3184785886 -2.66700000
20.21636772 -17.81685638 -1.41223347 14 24 12999 26.98400000 3184785889 3184785889 -3.00000000
40.60794449 -35.80072021 4.41939259 57 26 13000 54.31600000 3184785891 3184785891 4.66700000
38.68809128 -27.90273285 -1.94336557 22 27 13000 47.74000000 3184785891 3184785891 -2.33300000
39.32773972 -38.25791168 -1.91598237 15 28 13001 54.90000000 3184785893 3184785893 -2.00000000
39.36623383 -31.43690300 -1.17227614 25 31 13001 50.39200000 3184785896 3184785896 -1.33300000
3.93755746 -3.48243165 -2.45118594 7 0 13009 5.80000000 3184785916 3184785916 -25.00000000
39.56140518 -28.62715912 -0.85237551 20 1 13009 48.84000000 3184785916 3184785916 -1.00000000
39.40534973 -34.86290741 -1.53120935 33 2 13010 52.63600000 3184785919 3184785919 -1.66700000
7.73182631 -6.19436073 -2.77339125 3 3 13010 10.28800000 3184785919 3184785919 -15.63900000
10.13331127 -8.96835041 -2.70641851 3 4 13011 13.80000000 3184785921 3184785921 -11.31000000
38.58844757 -30.92623520 0.00000000 27 5 13011 49.45200000 3184785921 3184785921 0.00000000
38.64965439 -37.72978973 -0.62880474 40 6 13011 54.01600000 3184785923 3184785923 -0.66700000
12.75001335 -10.21834087 -2.54203701 1 7 13011 16.53600000 3184785923 3184785923 -8.84300000
14.96455765 -13.24883747 -2.54405212 3 8 13012 20.14800000 3184785926 3184785926 -7.25400000
38.87151337 -28.15896797 0.27897185 30 9 13012 48.00000000 3184785926 3184785926 0.33300000
38.92100525 -34.47074509 -0.30217302 39 10 13013 51.99200000 3184785928 3184785928 -0.33300000
17.04183960 -13.66774464 -2.35313630 4 11 13013 21.97200000 3184785928 3184785928 -6.14800000
18.74555969 -18.31859207 -2.44665956 6 12 13014 26.32400000 3184785930 3184785930 -5.33300000
38.95793915 -31.25587463 1.16222644 28 13 13014 49.96000000 3184785930 3184785930 1.33300000
38.67192841 -37.80429459 0.62959635 43 14 13015 54.08400000 3184785932 3184785932 0.66700000
20.17158699 -16.18941116 -1.80864584 24 15 13015 25.92800000 3184785932 3184785932 -4.00000000
20.12414169 -17.84193993 -2.19553900 11 16 13016 26.98400000 3184785935 3184785935 -4.66700000
39.05289459 -28.33195496 1.40414190 30 17 13016 48.26800000 3184785935 3184785935 1.66700000
39.18497086 -34.74115372 0.91408724 34 18 13016 52.37600000 3184785937 3184785937 1.00000000
20.24271393 -14.68561268 -1.60277593 20 19 13016 25.06000000 3184785937 3184785937 -3.66700000
20.14719582 -19.70893669 -1.64138079 13 20 13017 28.23200000 3184785939 3184785939 -3.33300000
39.91052628 -32.05449677 2.98113632 30 21 13017 51.27600000 3184785939 3184785939 3.33300000
39.50210190 -35.04695511 2.15146112 47 22 13018 52.85200000 3184785942 3184785942 2.33300000
34.37547302 -27.61883926 -2.05407000 6 23 13018 44.14400000 3184785942 3184785942 -2.66700000
20.19886589 -17.92708778 -1.41537356 14 24 13019 27.04400000 3184785944 3184785944 -3.00000000
40.52148819 -35.97666168 4.42362356 19 26 13020 54.36800000 3184785946 3184785946 4.66700000
38.64219284 -28.07519531 -1.94597089 22 27 13020 47.80400000 3184785946 3184785946 -2.33300000
39.34244919 -38.54042816 -1.92324150 32 28 13021 55.10800000 3184785949 3184785949 -2.00000000
39.48373413 -31.75708389 -1.17906904 25 31 13021 50.68400000 3184785951 3184785951 -1.33300000
3.92808461 -3.49856615 -2.45287633 6 0 13029 5.80400000 3184785972 3184785972 -25.00000000
39.57435226 -28.84753609 -0.85481888 20 1 13029 48.98000000 3184785972 3184785972 -1.00000000
39.39387131 -35.09865952 -1.53551471 50 2 13030 52.78400000 3184785974 3184785974 -1.66700000
7.71315432 -6.22373104 -2.77446961 4 3 13030 10.29200000 3184785974 3184785974 -15.63900000
10.10194397 -9.00366688 -2.70641851 3 4 13031 13.80000000 3184785976 3184785976 -11.31000000
38.50516129 -31.08084488 0.00000000 27 5 13031 49.48400000 3184785976 3184785976 0.00000000
38.83432388 -38.17570877 -0.63397336 20 6 13031 54.46000000 3184785979 3184785979 -0.66700000
12.73272038 -10.27768040 -2.54572654 1 7 13031 16.56000000 3184785979 3184785979 -8.84300000
14.93302822 -13.31419659 -2.54657745 3 8 13032 20.16800000 3184785981 3184785981 -7.25400000
38.65343475 -28.20724297 0.27811170 20 9 13032 47.85200000 3184785981 3184785981 0.33300000
38.79745865 -34.60372925 -0.30214977 26 10 13033 51.98800000 3184785983 3184785983 -0.33300000
17.00330734 -13.73464584 -2.35442162 4 11 13033 21.98400000 3184785983 3184785983 -6.14800000
18.71272659 -18.41464424 -2.45074916 6 12 13034 26.36800000 3184785985 3184785985 -5.33300000
38.93257904 -31.45953369 1.16473889 28 13 13034 50.06800000 3184785985 3184785985 1.33300000
38.60813904 -38.00639725 0.63071388 43 14 13035 54.18000000 3184785988 3184785988 0.66700000
20.17081070 -16.30487633 -1.81366837 24 15 13035 26.00000000 3184785988 3184785988 -4.00000000
20.13311195 -17.97580338 -2.20334983 11 16 13036 27.08000000 3184785990 3184785990 -4.66700000
39.00863647 -28.50820732 1.40612006 20 17 13036 48.33600000 3184785990 3184785990 1.66700000
38.84559250 -34.69538498 0.90913075 34 18 13037 52.09200000 3184785992 3184785992 1.00000000
20.23386765 -14.79268932 -1.60635757 23 19 13037 25.11600000 3184785992 3184785992 -3.66700000
20.13517189 -19.83519173 -1.64603198 13 20 13037 28.31200000 3184785995 3184785995 -3.33300000
39.64937210 -32.07306671 2.96997380 20 21 13037 51.08400000 3184785995 3184785995 3.33300000
39.46297455 -35.25918961 2.15602040 48 22 13038 52.96400000 3184785997 3184785997 2.33300000
34.30059814 -27.75625801 -2.05537271 6 23 13038 44.17200000 3184785997 3184785997 -2.66700000
20.20764351 -18.06137276 -1.42039788 14 24 13039 27.14000000 3184785999 3184785999 -3.00000000
41.95596695 -37.51296616 4.59448910 22 26 13040 56.46800000 3184786002 3184786002 4.66700000
38.59233475 -28.24531746 -1.94841325 33 27 13040 47.86400000 3184786002 3184786002 -2.33300000
39.24182892 -38.71121216 -1.92491663 32 28 13041 55.15600000 3184786004 3184786004 -2.00000000
39.52800369 -32.02057266 -1.18372166 26 31 13041 50.88400000 3184786006 3184786006 -1.33300000
3.92124581 -3.51709747 -2.45625734 6 0 13049 5.81200000 3184786027 3184786027 -25.00000000
39.54111099 -29.03520966 -0.85628486 20 1 13049 49.06400000 3184786027 3184786027 -1.00000000
39.28599167 -35.24930573 -1.53609657 33 2 13050 52.80400000 3184786029 3184786029 -1.66700000
7.69736099 -6.25547600 -2.77662635 3 3 13050 10.30000000 3184786029 3184786029 -15.63900000
10.08504868 -9.05197430 -2.71034098 3 4 13051 13.82000000 3184786031 3184786031 -11.31000000
38.70370483 -31.46486473 0.00000000 18 5 13051 49.88000000 3184786031 3184786031 0.00000000
38.82487488 -38.44725037 -0.63611537 42 6 13052 54.64400000 3184786034 3184786034 -0.66700000
12.71029758 -10.33674717 -2.54880118 1 7 13052 16.58000000 3184786034 3184786034 -8.84300000
14.92189217 -13.39805317 -2.55263853 3 8 13052 20.21600000 3184786036 3184786036 -7.25400000
38.81578827 -28.53389549 0.27999476 20 9 13052 48.17600000 3184786036 3184786036 0.33300000
38.95020294 -34.98484802 -0.30428857 27 10 13053 52.35600000 3184786038 3184786038 -0.33300000
16.96451569 -13.80144405 -2.35570669 4 11 13053 21.99600000 3184786038 3184786038 -6.14800000
18.66813660 -18.49947357 -2.45335174 6 12 13054 26.39600000 3184786041 3184786041 -5.33300000
39.31878281 -31.99911118 1.17962730 20 13 13054 50.70800000 3184786041 3184786041 1.33300000
38.79621887 -38.45912552 0.63597566 44 14 13055 54.63200000 3184786043 3184786043 0.66700000
20.16328430 -16.41549492 -1.81813276 24 15 13055 26.06400000 3184786043 3184786043 -4.00000000
20.12656784 -18.09661674 -2.20953369 12 16 13056 27.15600000 3184786045 3184786045 -4.66700000
39.16003799 -28.82909203 1.41519630 30 17 13056 48.64800000 3184786045 3184786045 1.66700000
38.78683090 -34.87482071 0.91045713 34 18 13056 52.16800000 3184786048 3184786048 1.00000000
20.24256516 -14.90230465 -1.61096251 23 19 13056 25.18800000 3184786048 3184786048 -3.66700000
20.13385010 -19.97285080 -1.65161335 13 20 13057 28.40800000 3184786050 3184786050 -3.33300000
40.12229156 -32.68797302 3.01392674 32 21 13057 51.84000000 3184786050 3184786050 3.33300000
39.36639404 -35.42078781 2.15748596 48 22 13058 53.00000000 3184786052 3184786052 2.33300000
34.36456299 -28.00708389 -2.06505132 6 23 13058 44.38000000 3184786052 3184786052 -2.66700000
20.20385361 -18.18524742 -1.42458475 14 24 13059 27.22000000 3184786055 3184786055 -3.00000000
41.72403336 -37.56848907 4.58342361 22 26 13060 56.33200000 3184786057 3184786057 4.66700000
38.55140686 -28.42254829 -1.95134425 22 27 13060 47.93600000 3184786057 3184786057 -2.33300000
39.20856094 -38.94937897 -1.92994213 49 28 13061 55.30000000 3184786059 3184786059 -2.00000000
39.51571274 -32.25120544 -1.18688536 26 31 13062 51.02000000 3184786061 3184786061 -1.33300000
3.92177796 -3.54359818 -2.46470976 6 0 13070 5.83200000 3184786082 3184786082 -25.00000000
39.60481644 -29.30602264 -0.85998476 20 1 13070 49.27600000 3184786082 3184786082 -1.00000000
39.27814865 -35.50298309 -1.54086745 34 2 13071 52.96800000 3184786084 3184786084 -1.66700000
7.67736244 -6.28608608 -2.77770448 6 3 13071 10.30400000 3184786084 3184786084 -15.63900000
10.06344128 -9.09939957 -2.71347880 3 4 13072 13.83600000 3184786087 3184786087 -11.31000000
39.13893509 -32.05767059 0.00000000 30 5 13072 50.59200000 3184786087 3184786087 0.00000000
38.64971924 -38.55539703 -0.63555658 63 6 13073 54.59600000 3184786089 3184786089 -0.66700000
12.69372654 -10.40079880 -2.55310559 1 7 13073 16.60800000 3184786089 3184786089 -8.84300000
14.89622784 -13.47394848 -2.55667901 3 8 13073 20.24800000 3184786091 3184786091 -7.25400000
38.84272385 -28.77359009 0.28094789 20 9 13073 48.34000000 3184786091 3184786091 0.33300000
38.89290237 -35.19178391 -0.30484650 27 10 13074 52.45200000 3184786094 3184786094 -0.33300000
16.94149971 -13.88621902 -2.35956216 2 11 13074 22.03200000 3184786094 3184786094 -6.14800000
18.67349243 -18.64092827 -2.46301770 6 12 13075 26.50000000 3184786096 3184786096 -5.33300000
39.14866638 -32.09990311 1.17804539 29 13 13075 50.64000000 3184786096 3184786096 1.33300000
38.73424530 -38.68019867 0.63727945 67 14 13076 54.74400000 3184786098 3184786098 0.66700000
20.16160202 -16.53736687 -1.82343423 21 15 13076 26.14000000 3184786098 3184786098 -4.00000000
20.12215614 -18.22646713 -2.21636820 12 16 13077 27.24000000 3184786101 3184786101 -4.66700000
39.25641251 -29.12250710 1.42252707 30 17 13077 48.90000000 3184786101 3184786101 1.66700000
38.87216949 -35.21006012 0.91548342 35 18 13077 52.45600000 3184786103 3184786103 1.00000000
20.23910522 -15.01445007 -1.61505580 23 19 13077 25.25200000 3184786103 3184786103 -3.66700000
20.12830162 -20.11425400 -1.65719461 13 20 13078 28.50400000 3184786105 3184786105 -3.33300000
40.14110947 -32.94882202 3.02439189 32 21 13078 52.02000000 3184786105 3184786105 3.33300000
39.28072739 -35.60509491 2.15992832 32 22 13079 53.06000000 3184786108 3184786108 2.33300000
34.28947449 -28.15567017 -2.06672645 6 23 13079 44.41600000 3184786108 3184786108 -2.66700000
20.19920921 -18.31552315 -1.42898095 14 24 13080 27.30400000 3184786110 3184786110 -3.00000000
41.70122147 -37.82562256 4.59611654 22 26 13081 56.48800000 3184786112 3184786112 4.66700000
38.50151443 -28.60417557 -1.95411229 33 27 13081 48.00400000 3184786112 3184786112 -2.33300000
39.08249664 -39.10979080 -1.93077981 32 28 13082 55.32400000 3184786114 3184786114 -2.00000000
39.51719666 -32.48289871 -1.19032836 26 31 13082 51.16800000 3184786117 3184786117 -1.33300000
3.91742849 -3.56458569 -2.46978116 5 0 13090 5.84400000 3184786137 3184786137 -25.00000000
39.47341919 -29.42258072 -0.85935652 20 1 13090 49.24000000 3184786137 3184786137 -1.00000000
39.39643860 -35.86057281 -1.55040908 35 2 13091 53.29600000 3184786140 3184786140 -1.66700000
7.66726017 -6.32264948 -2.78201771 4 3 13091 10.32000000 3184786140 3184786140 -15.63900000
10.03741741 -9.13975430 -2.71504784 3 4 13092 13.84400000 3184786142 3184786142 -11.31000000
38.73674774 -31.95482826 0.00000000 28 5 13092 50.21600000 3184786142 3184786142 0.00000000
38.47649384 -38.63800430 -0.63481152 42 6 13092 54.53200000 3184786144 3184786144 -0.66700000
