# .PCD v0.7 - Point Cloud Data file format
VERSION 0.7
FIELDS x y z intensity laser_id azimuth distance_m adjustedtime timestamp vertical_angle
SIZE 4 4 4 1 1 2 8 8 4 8
TYPE F F F U U U F U U F
COUNT 1 1 1 1 1 1 1 1 1 1
WIDTH 521
HEIGHT 1
VIEWPOINT 0 0 0 1 0 0 0
POINTS 521
DATA ascii
43.99187851 160.69702148 6.78785753 28 22 1391 166.74800000 3178053653 3178053653 2.33300000
7.37926626 33.25824738 -1.58689749 3 23 1391 34.10400000 3178053653 3178053653 -2.66700000
8.51172447 31.07100868 -1.68835795 6 24 1392 32.26000000 3178053655 3178053655 -3.00000000
39.70335007 144.83300781 12.25967312 28 26 1393 150.67600000 3178053658 3178053658 4.66700000
6.45200872 37.62716675 -1.55534375 7 27 1393 38.20800000 3178053658 3178053658 -2.33300000
11.48144531 35.04465866 -1.28779137 6 28 1394 36.90000000 3178053660 3178053660 -2.00000000
10.15851974 45.67120743 -1.08871496 7 31 1394 46.80000000 3178053662 3178053662 -1.33300000
1.49986303 5.43780375 -2.63037610 15 0 1402 6.22400000 3178053683 3178053683 -25.00000000
9.17369652 52.99972916 -0.93886966 17 1 1402 53.79600000 3178053683 3178053683 -1.00000000
11.37726688 41.22059631 -1.24449301 9 2 1403 42.78000000 3178053685 3178053685 -1.66700000
1.81502259 8.10002041 -2.32373953 25 3 1403 8.62000000 3178053685 3178053685 -15.63900000
3.16612434 11.46327782 -2.37851048 10 4 1404 12.12800000 3178053688 3178053688 -11.31000000
16.19072342 49.09991455 -0.60189056 16 6 1405 51.70400000 3178053690 3178053690 -0.66700000
3.25799322 14.51590919 -2.31452060 14 7 1405 15.05600000 3178053690 3178053690 -8.84300000
4.08342505 14.77440929 -1.95109665 2 8 1405 15.45200000 3178053692 3178053692 -7.25400000
3.79153991 16.87932587 -1.86348867 23 11 1406 17.40000000 3178053694 3178053694 -6.14800000
6.98190880 21.14848137 -2.07897282 2 12 1407 22.36800000 3178053697 3178053697 -5.33300000
21.73900032 65.80971527 0.80686677 28 14 1408 69.31200000 3178053699 3178053699 0.66700000
6.08651686 27.05203056 -1.93895090 6 15 1408 27.79600000 3178053699 3178053699 -4.00000000
6.58327961 23.75463867 -2.01230621 3 16 1409 24.73200000 3178053701 3178053701 -4.66700000
22.07373428 79.59531403 1.44177818 28 18 1410 82.61200000 3178053704 3178053704 1.00000000
3.55095959 20.34608078 -1.32366526 4 19 1410 20.69600000 3178053704 3178053704 -3.66700000
9.16560936 27.71424294 -1.69998503 4 20 1410 29.24000000 3178053706 3178053706 -3.33300000
7.48212719 33.17382050 -1.58410561 3 23 1411 34.04400000 3178053708 3178053708 -2.66700000
8.61585522 31.02571297 -1.68752062 6 24 1412 32.24400000 3178053711 3178053711 -3.00000000
40.87580872 147.09428406 12.46308422 28 26 1413 153.17600000 3178053713 3178053713 4.66700000
6.58262348 37.60047913 -1.55518091 7 27 1413 38.20400000 3178053713 3178053713 -2.33300000
11.57225800 34.90950394 -1.28430152 6 28 1414 36.80000000 3178053715 3178053715 -2.00000000
10.31170654 45.60816574 -1.08806360 7 31 1414 46.77200000 3178053718 3178053718 -1.33300000
1.50028920 5.36619949 -2.59825706 14 0 1422 6.14800000 3178053738 3178053738 -25.00000000
9.33220196 52.81772614 -0.93621689 16 1 1422 53.64400000 3178053738 3178053738 -1.00000000
11.48445892 41.04971313 -1.24053669 9 2 1423 42.64400000 3178053741 3178053741 -1.66700000
1.86809111 8.20255184 -2.35501027 18 3 1423 8.73600000 3178053741 3178053741 -15.63900000
3.18179846 11.36528206 -2.36046767 13 4 1424 12.03600000 3178053743 3178053743 -11.31000000
16.29872513 48.85339355 -0.59956235 16 6 1425 51.50400000 3178053745 3178053745 -0.66700000
3.29106283 14.42737865 -2.30222225 14 7 1425 14.97600000 3178053745 3178053745 -8.84300000
4.08252239 14.57284260 -1.92634797 3 8 1425 15.25600000 3178053747 3178053747 -7.25400000
16.92205811 60.36388016 -0.36436048 28 10 1426 62.69200000 3178053750 3178053750 -0.33300000
3.85043645 16.86598778 -1.86348867 22 11 1426 17.40000000 3178053750 3178053750 -6.14800000
7.04937983 21.10509300 -2.07711411 2 12 1427 22.34800000 3178053752 3178053752 -5.33300000
30.77162361 134.67997742 3.21468687 16 13 1427 138.18800000 3178053752 3178053752 1.33300000
21.75305939 65.08853912 0.79895079 28 14 1428 68.63200000 3178053754 3178053754 0.66700000
6.15066719 26.89836502 -1.92946410 3 15 1428 27.66000000 3178053754 3178053754 -4.00000000
6.63489294 23.62020683 -2.00286794 3 16 1429 24.61600000 3178053757 3178053757 -4.66700000
21.90926170 77.99693298 1.41413355 28 18 1429 81.02800000 3178053759 3178053759 1.00000000
4.02542877 22.62149620 -1.47255838 5 19 1429 23.02400000 3178053759 3178053759 -3.66700000
9.19007111 27.46622849 -1.68672931 4 20 1430 29.01200000 3178053761 3178053761 -3.33300000
40.95278931 145.59663391 6.16194248 114 22 1431 151.37200000 3178053764 3178053764 2.33300000
7.57466936 33.04623795 -1.57926631 3 23 1431 33.94000000 3178053764 3178053764 -2.66700000
8.68622398 30.86087036 -1.68019354 6 24 1432 32.10400000 3178053766 3178053766 -3.00000000
40.37520218 143.35118103 12.15780544 28 26 1433 149.42400000 3178053768 3178053768 4.66700000
6.68360662 37.40809631 -1.54817927 7 27 1433 38.03200000 3178053768 3178053768 -2.33300000
11.67497730 34.81204605 -1.28220749 6 28 1434 36.74000000 3178053771 3178053771 -2.00000000
10.47084618 45.57189178 -1.08806360 7 31 1434 46.77200000 3178053773 3178053773 -1.33300000
1.51011693 5.32953835 -2.58304286 16 0 1442 6.11200000 3178053793 3178053793 -25.00000000
9.47251701 52.54080200 -0.93188870 16 1 1442 53.39600000 3178053793 3178053793 -1.00000000
1.90800202 8.24476624 -2.36902833 23 3 1443 8.78800000 3178053795 3178053795 -15.63900000
3.19896865 11.27486610 -2.34399390 12 4 1444 11.95200000 3178053798 3178053798 -11.31000000
16.39799881 48.61336899 -0.59728068 16 6 1444 51.30800000 3178053800 3178053800 -0.66700000
3.32640243 14.36247826 -2.29361367 14 7 1444 14.92000000 3178053800 3178053800 -8.84300000
4.10302162 14.45162296 -1.91220593 3 8 1445 15.14400000 3178053802 3178053802 -7.25400000
17.13266563 60.30444336 -0.36436048 28 10 1446 62.69200000 3178053805 3178053805 -0.33300000
3.91377974 16.87181473 -1.86563063 20 11 1446 17.42000000 3178053805 3178053805 -6.14800000
7.11663246 21.06149101 -2.07525516 2 12 1447 22.32800000 3178053807 3178053807 -5.33300000
31.25873947 134.64575195 3.21645474 28 13 1447 138.26400000 3178053807 3178053807 1.33300000
21.73544884 64.28850555 0.79005700 28 14 1448 67.86800000 3178053809 3178053809 0.66700000
6.24000740 26.85729790 -1.92806888 3 15 1448 27.64000000 3178053809 3178053809 -4.00000000
6.70638704 23.55855942 -1.99961329 3 16 1449 24.57600000 3178053811 3178053811 -4.66700000
21.98209763 77.21990204 1.40142822 28 18 1449 80.30000000 3178053814 3178053814 1.00000000
4.10508108 22.61123466 -1.47281420 2 19 1449 23.02800000 3178053814 3178053814 -3.66700000
9.27052689 27.38859177 -1.68393862 4 20 1450 28.96400000 3178053816 3178053816 -3.33300000
41.48377609 145.53352356 6.16536188 123 22 1451 151.45600000 3178053818 3178053818 2.33300000
7.67003775 32.93398285 -1.57517159 3 23 1451 33.85200000 3178053818 3178053818 -2.66700000
8.78732109 30.80731392 -1.67893744 6 24 1452 32.08000000 3178053821 3178053821 -3.00000000
40.15863800 140.69834900 11.94462967 28 26 1453 146.80400000 3178053823 3178053823 4.66700000
6.78117752 37.20367050 -1.54068911 7 27 1453 37.84800000 3178053823 3178053823 -2.33300000
11.78871727 34.74836349 -1.28136992 6 28 1454 36.71600000 3178053825 3178053825 -2.00000000
10.57985878 45.32088470 -1.08294570 7 31 1454 46.55200000 3178053828 3178053828 -1.33300000
1.53771544 5.35559464 -2.59825706 14 0 1462 6.14800000 3178053848 3178053848 -25.00000000
9.64211750 52.43268204 -0.93056232 16 1 1462 53.32000000 3178053848 3178053848 -1.00000000
1.91296804 8.13681507 -2.33991408 15 3 1463 8.68000000 3178053851 3178053851 -15.63900000
3.25889754 11.33525372 -2.35889888 12 4 1464 12.02800000 3178053853 3178053853 -11.31000000
16.50300980 48.36656189 -0.59495246 16 6 1464 51.10800000 3178053855 3178053855 -0.66700000
3.36836958 14.31615257 -2.28807926 14 7 1464 14.88400000 3178053855 3178053855 -8.84300000
4.12382174 14.33425331 -1.89856899 5 8 1465 15.03600000 3178053858 3178053858 -7.25400000
3.97447395 16.86579323 -1.86648738 22 11 1466 17.42800000 3178053860 3178053860 -6.14800000
7.18237925 21.01391029 -2.07302451 2 12 1467 22.30400000 3178053862 3178053862 -5.33300000
21.71769714 63.50453186 0.78134948 28 14 1468 67.12000000 3178053864 3178053864 0.66700000
6.32913542 26.81593513 -1.92667377 6 15 1468 27.62000000 3178053864 3178053864 -4.00000000
6.78416109 23.51968384 -1.99831152 3 16 1469 24.56000000 3178053867 3178053867 -4.66700000
22.03093529 76.37799835 1.38753617 28 18 1469 79.50400000 3178053869 3178053869 1.00000000
5.40567541 29.19485092 -1.90286469 4 19 1469 29.75200000 3178053869 3178053869 -3.66700000
9.37383556 27.37873268 -1.68533397 4 20 1470 28.98800000 3178053871 3178053871 -3.33300000
42.01814651 145.47998047 6.16926956 149 22 1471 151.55200000 3178053874 3178053874 2.33300000
7.76287460 32.81369019 -1.57070458 3 23 1471 33.75600000 3178053874 3178053874 -2.66700000
8.88593292 30.74575233 -1.67726278 6 24 1472 32.04800000 3178053876 3178053876 -3.00000000
6.90807962 37.16405487 -1.54003787 7 27 1473 37.83200000 3178053878 3178053878 -2.33300000
11.85933685 34.55953979 -1.27592564 6 28 1474 36.56000000 3178053881 3178053881 -2.00000000
10.70293236 45.13581848 -1.07940972 7 31 1474 46.40000000 3178053883 3178053883 -1.33300000
1.56146371 5.36759901 -2.60670948 12 0 1482 6.16800000 3178053904 3178053904 -25.00000000
9.78822994 52.20215988 -0.92707181 16 1 1482 53.12000000 3178053904 3178053904 -1.00000000
11.78518009 40.48571777 -1.22715509 9 2 1483 42.18400000 3178053906 3178053906 -1.66700000
1.89483809 7.93526554 -2.28384256 20 3 1483 8.47200000 3178053906 3178053906 -15.63900000
3.28089428 11.26355553 -2.34634733 9 4 1484 11.96400000 3178053908 3178053908 -11.31000000
16.63911819 48.21413803 -0.59378839 15 6 1484 51.00800000 3178053911 3178053911 -0.66700000
3.31175756 13.85837936 -2.21674991 12 7 1484 14.42000000 3178053911 3178053911 -8.84300000
4.13608074 14.19024944 -1.88139653 6 8 1485 14.90000000 3178053913 3178053913 -7.25400000
17.44125175 59.79937363 -0.36203572 28 10 1486 62.29200000 3178053915 3178053915 -0.33300000
4.03795099 16.87115479 -1.86862934 20 11 1486 17.44800000 3178053915 3178053915 -6.14800000
7.23226547 20.92095757 -2.06633258 2 12 1487 22.23200000 3178053917 3178053917 -5.33300000
21.72350693 62.80463791 0.77366638 28 14 1488 66.46000000 3178053920 3178053920 0.66700000
6.41805124 26.77427673 -1.92527866 3 15 1488 27.60000000 3178053920 3178053920 -4.00000000
6.85950899 23.47289848 -1.99635875 3 16 1489 24.53600000 3178053922 3178053922 -4.66700000
5.51264334 29.17484093 -1.90286469 4 19 1490 29.75200000 3178053924 3178053924 -3.66700000
9.46150780 27.32320404 -1.68393862 4 20 1490 28.96400000 3178053927 3178053927 -3.33300000
42.54366684 145.39379883 6.17187500 118 22 1491 151.61600000 3178053929 3178053929 2.33300000
8.95503807 30.58420563 -1.67014503 6 24 1492 31.91200000 3178053931 3178053931 -3.00000000
7.00874424 36.98656845 -1.53368747 6 27 1493 37.67600000 3178053934 3178053934 -2.33300000
11.97203541 34.49527359 -1.27508795 6 28 1494 36.53600000 3178053936 3178053936 -2.00000000
10.81360817 44.90379333 -1.07475710 7 31 1494 46.20000000 3178053938 3178053938 -1.33300000
1.57506680 5.34472895 -2.59825706 14 0 1502 6.14800000 3178053959 3178053959 -25.00000000
9.93285084 51.97126007 -0.92358136 15 1 1502 52.92000000 3178053959 3178053959 -1.00000000
11.94452381 40.50569534 -1.22901690 9 2 1503 42.24800000 3178053961 3178053961 -1.66700000
1.92978752 7.95855045 -2.29246879 18 3 1503 8.50400000 3178053961 3178053961 -15.63900000
3.30132031 11.18808079 -2.33301139 12 4 1504 11.89600000 3178053963 3178053963 -11.31000000
16.81572151 48.15282822 -0.59378839 15 6 1505 51.00800000 3178053966 3178053966 -0.66700000
3.28604412 13.53120136 -2.16632724 16 7 1505 14.09200000 3178053966 3178053966 -8.84300000
4.06423473 13.76472473 -1.82684863 5 8 1505 14.46800000 3178053968 3178053968 -7.25400000
4.10057449 16.87241554 -1.87034285 19 11 1506 17.46400000 3178053970 3178053970 -6.14800000
7.30130577 20.88430595 -2.06521726 2 12 1507 22.22000000 3178053973 3178053973 -5.33300000
21.70224571 62.04129791 0.76519167 28 14 1508 65.73200000 3178053975 3178053975 0.66700000
6.47372437 26.59662819 -1.91411769 3 15 1508 27.44000000 3178053975 3178053975 -4.00000000
6.91198063 23.34942055 -1.98789680 3 16 1509 24.43200000 3178053977 3178053977 -4.66700000
5.59804821 29.09760094 -1.89902723 4 19 1509 29.69200000 3178053980 3178053980 -3.66700000
9.50667286 27.14679718 -1.67510152 4 20 1510 28.81200000 3178053982 3178053982 -3.33300000
9.04924774 30.51063538 -1.66784227 6 24 1512 31.86800000 3178053987 3178053987 -3.00000000
41.33941650 139.29167175 11.86131287 28 26 1513 145.78000000 3178053989 3178053989 4.66700000
7.12189484 36.87947083 -1.53026807 6 27 1513 37.59200000 3178053989 3178053989 -2.33300000
12.08575439 34.43441391 -1.27438998 6 28 1514 36.51600000 3178053991 3178053991 -2.00000000
10.92583942 44.65022278 -1.06963921 7 31 1515 45.98000000 3178053993 3178053993 -1.33300000
1.63000524 5.46078062 -2.65742373 11 0 1522 6.28800000 3178054014 3178054014 -25.00000000
10.05228043 51.61829376 -0.91792679 15 1 1522 52.59600000 3178054014 3178054014 -1.00000000
12.06753445 40.40245819 -1.22715509 9 2 1523 42.18400000 3178054016 3178054016 -1.66700000
1.98149621 8.04901218 -2.32050467 15 3 1523 8.60800000 3178054016 3178054016 -15.63900000
3.33473802 11.15769863 -2.32908893 15 4 1524 11.87600000 3178054019 3178054019 -11.31000000
16.90379333 47.86754990 -0.59099454 15 6 1525 50.76800000 3178054021 3178054021 -0.66700000
3.34461045 13.56569862 -2.17370605 16 7 1525 14.14000000 3178054021 3178054021 -8.84300000
5.19347334 17.36579323 -2.30717301 3 8 1525 18.27200000 3178054023 3178054023 -7.25400000
17.68628883 59.10134888 -0.35854858 28 10 1526 61.69200000 3178054026 3178054026 -0.33300000
7.36088657 20.82114220 -2.06149936 2 12 1527 22.18000000 3178054028 3178054028 -5.33300000
21.70926666 61.37315369 0.75788110 28 14 1528 65.10400000 3178054030 3178054030 0.66700000
6.56843901 26.58161736 -1.91467571 6 15 1528 27.44800000 3178054030 3178054030 -4.00000000
6.99000835 23.31369400 -1.98692048 3 16 1529 24.42000000 3178054033 3178054033 -4.66700000
5.68115568 28.98386955 -1.89288735 4 19 1529 29.59600000 3178054035 3178054035 -3.66700000
9.50140190 26.83113289 -1.65765977 4 20 1530 28.51200000 3178054037 3178054037 -3.33300000
8.03594685 32.44746780 -1.55711758 3 23 1531 33.46400000 3178054040 3178054040 -2.66700000
9.14075470 30.42912865 -1.66512084 6 24 1532 31.81600000 3178054042 3178054042 -3.00000000
41.65438843 138.57763672 11.81281948 28 26 1533 145.18400000 3178054044 3178054044 4.66700000
7.22358227 36.71713257 -1.52456903 6 27 1533 37.45200000 3178054044 3178054044 -2.33300000
12.20454216 34.38824844 -1.27425039 6 28 1534 36.51200000 3178054046 3178054046 -2.00000000
11.06421185 44.57493210 -1.06870866 7 31 1534 45.94000000 3178054049 3178054049 -1.33300000
1.64276290 5.43423700 -2.64728069 14 0 1542 6.26400000 3178054069 3178054069 -25.00000000
10.21761513 51.50835419 -0.91660041 15 1 1542 52.52000000 3178054069 3178054069 -1.00000000
12.17607784 40.25292969 -1.22389698 9 2 1543 42.07200000 3178054072 3178054072 -1.66700000
1.96755862 7.87388086 -2.27198124 16 3 1543 8.42800000 3178054072 3178054072 -15.63900000
3.35207582 11.07466221 -2.31418395 15 4 1544 11.80000000 3178054074 3178054074 -11.31000000
17.04226875 47.75472641 -0.59029603 15 6 1544 50.70800000 3178054076 3178054076 -0.66700000
3.32725143 13.30529881 -2.13373709 15 7 1544 13.88000000 3178054076 3178054076 -8.84300000
5.24715853 17.32477379 -2.30414248 4 8 1545 18.24800000 3178054079 3178054079 -7.25400000
17.77647209 58.65645218 -0.35622382 28 10 1546 61.29200000 3178054081 3178054081 -0.33300000
4.11875057 16.44601822 -1.82621884 2 11 1546 17.05200000 3178054081 3178054081 -6.14800000
7.42547750 20.77281952 -2.05926871 2 12 1547 22.15600000 3178054083 3178054083 -5.33300000
21.70650482 60.69065857 0.75038421 28 14 1548 64.46000000 3178054086 3178054086 0.66700000
6.64759588 26.50434113 -1.91076934 3 15 1548 27.39200000 3178054086 3178054086 -4.00000000
7.06092119 23.25481987 -1.98399127 3 16 1549 24.38400000 3178054088 3178054088 -4.66700000
29.60117531 148.27409363 4.40035057 28 17 1549 151.26400000 3178054088 3178054088 1.66700000
5.77447891 28.92471504 -1.89032900 4 19 1549 29.55600000 3178054090 3178054090 -3.66700000
9.69596004 27.07976532 -1.67510152 4 20 1550 28.81200000 3178054093 3178054093 -3.33300000
8.14234257 32.39209366 -1.55581462 3 23 1551 33.43600000 3178054095 3178054095 -2.66700000
9.24342918 30.38557053 -1.66449273 6 24 1552 31.80400000 3178054097 3178054097 -3.00000000
7.34699392 36.66818237 -1.52359211 6 27 1553 37.42800000 3178054099 3178054099 -2.33300000
12.27319813 34.20245743 -1.26894569 6 28 1554 36.36000000 3178054102 3178054102 -2.00000000
11.18156624 44.35183334 -1.06433523 7 31 1555 45.75200000 3178054104 3178054104 -1.33300000
1.64686620 5.37993908 -2.62361407 13 0 1562 6.20800000 3178054125 3178054125 -25.00000000
10.32370567 51.10779572 -0.91010809 14 1 1562 52.14800000 3178054125 3178054125 -1.00000000
12.29660511 40.14519119 -1.22191882 9 2 1563 42.00400000 3178054127 3178054127 -1.66700000
1.97420073 7.78482294 -2.24825859 23 3 1563 8.34000000 3178054127 3178054127 -15.63900000
3.39301181 11.07039356 -2.31575298 11 4 1564 11.80800000 3178054129 3178054129 -11.31000000
17.14098549 47.50683212 -0.58796781 15 6 1564 50.50800000 3178054132 3178054132 -0.66700000
3.47089934 13.67670441 -2.19522810 20 7 1564 14.28000000 3178054132 3178054132 -8.84300000
5.30294752 17.29117775 -2.30212235 4 8 1565 18.23200000 3178054134 3178054134 -7.25400000
17.98111343 58.59404373 -0.35622382 28 10 1566 61.29200000 3178054136 3178054136 -0.33300000
4.13204956 16.25809097 -1.80694139 3 11 1566 16.87200000 3178054136 3178054136 -6.14800000
7.48711348 20.71680832 -2.05629468 2 12 1567 22.12400000 3178054139 3178054139 -5.33300000
21.70604515 60.02774429 0.74312019 28 14 1568 63.83600000 3178054141 3178054141 0.66700000
6.70759249 26.35336494 -1.90156150 3 15 1568 27.26000000 3178054141 3178054141 -4.00000000
7.13736629 23.21478844 -1.98268950 3 16 1569 24.36800000 3178054143 3178054143 -4.66700000
5.86586809 28.85744095 -1.88725913 4 19 1569 29.50800000 3178054146 3178054146 -3.66700000
9.79042721 27.04575539 -1.67510152 4 20 1570 28.81200000 3178054148 3178054148 -3.33300000
44.57071304 144.78944397 6.17203808 28 22 1571 151.62000000 3178054150 3178054150 2.33300000
8.24746132 32.33250046 -1.55432570 3 23 1571 33.40400000 3178054150 3178054150 -2.66700000
9.31416130 30.23859406 -1.65821242 6 24 1572 31.68400000 3178054152 3178054152 -3.00000000
42.79578400 138.85113525 11.86131287 28 26 1573 145.78000000 3178054155 3178054155 4.66700000
7.44938135 36.51699829 -1.51838160 6 27 1573 37.30000000 3178054155 3178054155 -2.33300000
12.37069893 34.09928131 -1.26671219 6 28 1574 36.29600000 3178054157 3178054157 -2.00000000
11.29468822 44.14981842 -1.06042695 7 31 1575 45.58400000 3178054159 3178054159 -1.33300000
1.65812314 5.34991837 -2.61178088 16 0 1582 6.18000000 3178054180 3178054180 -25.00000000
10.47626495 50.94609070 -0.90787417 14 1 1582 52.02000000 3178054180 3178054180 -1.00000000
12.41771412 40.04092026 -1.22005701 9 2 1583 41.94000000 3178054182 3178054182 -1.66700000
1.99848306 7.76669312 -2.24502373 18 3 1583 8.32800000 3178054182 3178054182 -15.63900000
3.44209647 11.09219742 -2.32281327 11 4 1584 11.84400000 3178054185 3178054185 -11.31000000
17.22173309 47.21373749 -0.58508086 14 6 1584 50.26000000 3178054187 3178054187 -0.66700000
3.55508637 13.80612564 -2.21797967 14 7 1584 14.42800000 3178054187 3178054187 -8.84300000
5.35503626 17.24603462 -2.29858685 4 8 1585 18.20400000 3178054189 3178054189 -7.25400000
18.06685448 58.14894104 -0.35389906 28 10 1586 60.89200000 3178054192 3178054192 -0.33300000
4.14110851 16.05871964 -1.78637874 3 11 1586 16.68000000 3178054192 3178054192 -6.14800000
7.53751564 20.63069344 -2.05034614 2 12 1587 22.06000000 3178054194 3178054194 -5.33300000
21.66551971 59.26791000 0.73464549 28 14 1588 63.10800000 3178054196 3178054196 0.66700000
6.79954243 26.32979012 -1.90156150 3 15 1588 27.26000000 3178054196 3178054196 -4.00000000
7.21243286 23.17070007 -1.98106217 3 16 1589 24.34800000 3178054199 3178054199 -4.66700000
5.94149065 28.71561050 -1.87932837 4 19 1589 29.38400000 3178054201 3178054201 -3.66700000
9.86419010 26.95516586 -1.67161310 4 20 1590 28.75200000 3178054203 3178054203 -3.33300000
50.15226746 193.92443848 11.66524601 42 21 1590 200.64400000 3178054203 3178054203 3.33300000
8.33924961 32.22228241 -1.55041707 3 23 1591 33.32000000 3178054205 3178054205 -2.66700000
9.40181923 30.14869690 -1.65507233 6 24 1592 31.62400000 3178054208 3178054208 -3.00000000
43.28020477 138.70091248 11.86131287 28 26 1593 145.78000000 3178054210 3178054210 4.66700000
7.56055355 36.41250992 -1.51512504 6 27 1593 37.22000000 3178054210 3178054210 -2.33300000
12.45248890 33.95455551 -1.26294303 6 28 1594 36.18800000 3178054212 3178054212 -2.00000000
11.39849949 43.91659164 -1.05577433 6 31 1595 45.38400000 3178054215 3178054215 -1.33300000
1.66516531 5.31354904 -2.59656668 15 0 1600 6.14400000 3178054235 3178054235 -25.00000000
10.60027885 50.74067307 -0.90480256 13 1 1600 51.84400000 3178054235 3178054235 -1.00000000
12.54105186 39.99408340 -1.21982431 9 2 1601 41.93200000 3178054238 3178054238 -1.66700000
2.07145309 7.94674444 -2.29893875 21 3 1601 8.52800000 3178054238 3178054238 -15.63900000
3.47692657 11.08132935 -2.32281327 11 4 1602 11.84400000 3178054240 3178054240 -11.31000000
17.29117775 46.94546890 -0.58242667 14 6 1602 50.03200000 3178054242 3178054242 -0.66700000
3.54457021 13.58836746 -2.18477464 14 7 1602 14.21200000 3178054242 3178054242 -8.84300000
5.39968109 17.19883919 -2.29454613 4 8 1603 18.17200000 3178054245 3178054245 -7.25400000
18.18950462 57.90109253 -0.35273665 28 10 1604 60.69200000 3178054247 3178054247 -0.33300000
4.17042923 15.96482563 -1.77738261 3 11 1604 16.59600000 3178054247 3178054247 -6.14800000
21.63831329 58.62170410 0.72747457 28 14 1606 62.49200000 3178054251 3178054251 0.66700000
6.87818670 26.29285812 -1.90044534 3 15 1606 27.24400000 3178054251 3178054251 -4.00000000
7.28040266 23.13271523 -1.97976041 3 16 1607 24.33200000 3178054254 3178054254 -4.66700000
6.02346277 28.65773773 -1.87677002 4 19 1607 29.34400000 3178054256 3178054256 -3.66700000
9.89484406 26.77796173 -1.66254342 4 20 1608 28.59600000 3178054258 3178054258 -3.33300000
46.27352142 146.85023499 6.27282906 28 22 1609 154.09600000 3178054261 3178054261 2.33300000
8.43030453 32.15727615 -1.54855585 3 23 1609 33.28000000 3178054261 3178054261 -2.66700000
9.49288464 30.10758209 -1.65444422 6 24 1610 31.61200000 3178054263 3178054263 -3.00000000
7.64191675 36.23215103 -1.50861180 6 27 1611 37.06000000 3178054265 3178054265 -2.33300000
12.59519196 34.01273727 -1.26657248 6 28 1612 36.29200000 3178054268 3178054268 -2.00000000
11.52725983 43.84575653 -1.05493689 6 31 1613 45.34800000 3178054270 3178054270 -1.33300000
1.69466448 5.34225941 -2.61347127 14 0 1620 6.18400000 3178054291 3178054291 -25.00000000
10.75155449 50.58208847 -0.90263844 13 1 1620 51.72000000 3178054291 3178054291 -1.00000000
12.63824368 39.81668091 -1.21575165 9 2 1621 41.79200000 3178054293 3178054293 -1.66700000
2.06471848 7.80912685 -2.26119804 28 3 1621 8.38800000 3178054293 3178054293 -15.63900000
3.48471665 10.97192860 -2.30241704 12 4 1622 11.74000000 3178054295 3178054295 -11.31000000
17.46471024 46.91106415 -0.58275265 14 6 1622 50.06000000 3178054298 3178054298 -0.66700000
3.53941035 13.37722111 -2.15279913 20 7 1622 14.00400000 3178054298 3178054298 -8.84300000
5.45727968 17.17232323 -2.29353595 4 8 1623 18.16400000 3178054300 3178054300 -7.25400000
18.45211220 58.02783966 -0.35389906 28 10 1624 60.89200000 3178054302 3178054302 -0.33300000
4.15279293 15.67337799 -1.74653864 2 11 1624 16.30800000 3178054302 3178054302 -6.14800000
7.66026163 20.54293251 -2.04662848 15 12 1625 22.02000000 3178054304 3178054304 -5.33300000
21.64287758 58.00993729 0.72081590 28 14 1626 61.92000000 3178054307 3178054307 0.66700000
6.96276045 26.24169159 -1.89849222 3 15 1626 27.21600000 3178054307 3178054307 -4.00000000
7.32722378 23.00079918 -1.97064757 3 16 1627 24.22000000 3178054309 3178054309 -4.66700000
41.04614258 128.84744263 2.36040306 28 18 1627 135.24800000 3178054311 3178054311 1.00000000
6.11344385 28.58969498 -1.87370002 4 19 1627 29.29600000 3178054311 3178054311 -3.66700000
9.98825645 26.74325943 -1.66254342 4 20 1628 28.59600000 3178054314 3178054314 -3.33300000
45.57259750 142.88391113 6.11016273 28 22 1629 150.10000000 3178054316 3178054316 2.33300000
8.53326225 32.09289932 -1.54688072 3 23 1629 33.24400000 3178054316 3178054316 -2.66700000
9.56634521 29.97532082 -1.64900136 5 24 1630 31.50800000 3178054318 3178054318 -3.00000000
44.20763397 138.43739319 11.86359119 28 26 1631 145.80800000 3178054321 3178054321 4.66700000
7.75828218 36.15836334 -1.50665784 6 27 1631 37.01200000 3178054321 3178054321 -2.33300000
12.70823669 33.95358658 -1.26601410 6 28 1632 36.27600000 3178054323 3178054323 -2.00000000
11.62626266 43.63340759 -1.05074954 6 31 1632 45.16800000 3178054325 3178054325 -1.33300000
1.71645117 5.34291506 -2.61685228 15 0 1641 6.19200000 3178054346 3178054346 -25.00000000
10.89458275 50.34689713 -0.89914799 13 1 1641 51.52000000 3178054346 3178054346 -1.00000000
12.77430534 39.73963928 -1.21482074 9 2 1642 41.76000000 3178054348 3178054348 -1.66700000
2.06337905 7.68989754 -2.22884917 23 3 1642 8.26800000 3178054348 3178054348 -15.63900000
3.51650047 10.93294525 -2.29692578 15 4 1643 11.71200000 3178054351 3178054351 -11.31000000
18.13095093 67.52418518 0.00000000 24 5 1643 69.91600000 3178054351 3178054351 0.00000000
17.59113121 46.70142365 -0.58098316 14 6 1644 49.90800000 3178054353 3178054353 -0.66700000
3.60305643 13.40933704 -2.16017818 15 7 1644 14.05200000 3178054353 3178054353 -8.84300000
5.51410437 17.13331985 -2.29101062 4 8 1644 18.14400000 3178054355 3178054355 -7.25400000
18.48075867 57.38871002 -0.35041189 28 10 1645 60.29200000 3178054357 3178054357 -0.33300000
5.24804831 19.51783752 -2.17706871 3 11 1645 20.32800000 3178054357 3178054357 -6.14800000
7.71864176 20.46999931 -2.04216719 2 12 1646 21.97200000 3178054360 3178054360 -5.33300000
21.62945557 57.33145905 0.71336555 28 14 1647 61.28000000 3178054362 3178054362 0.66700000
7.02050829 26.07343292 -1.88816822 3 15 1647 27.06800000 3178054362 3178054362 -4.00000000
7.40413237 22.95102310 -1.96869481 3 16 1648 24.19600000 3178054364 3178054364 -4.66700000
6.20363188 28.47630310 -1.86781597 4 19 1649 29.20400000 3178054367 3178054367 -3.66700000
10.08056450 26.69152832 -1.66161323 4 20 1649 28.58000000 3178054369 3178054369 -3.33300000
43.28047943 133.99894714 5.73695850 28 22 1650 140.93200000 3178054371 3178054371 2.33300000
8.61335945 31.92252922 -1.54018021 3 23 1650 33.10000000 3178054371 3178054371 -2.66700000
9.64912128 29.85643768 -1.64439571 5 24 1651 31.42000000 3178054374 3178054374 -3.00000000
12.77599812 33.75723267 -1.26043022 6 28 1653 36.11600000 3178054378 3178054378 -2.00000000
11.73496437 43.40134811 -1.04618990 6 31 1653 44.97200000 3178054381 3178054381 -1.33300000
1.73377943 5.32969332 -2.61347127 14 0 1662 6.18400000 3178054401 3178054401 -25.00000000
11.02570915 50.06446838 -0.89481980 12 1 1662 51.27200000 3178054401 3178054401 -1.00000000
12.86170864 39.51385880 -1.20935166 9 2 1663 41.57200000 3178054404 3178054404 -1.66700000
2.18869042 8.03907967 -2.33236599 17 3 1663 8.65200000 3178054404 3178054404 -15.63900000
3.55168939 10.90506554 -2.29378772 12 4 1664 11.69600000 3178054406 3178054406 -11.31000000
17.71235657 46.50581360 -0.57935345 14 6 1665 49.76800000 3178054408 3178054408 -0.66700000
3.63554597 13.33502865 -2.15033960 14 7 1665 13.98800000 3178054408 3178054408 -8.84300000
5.57194662 17.09790421 -2.28899026 4 8 1665 18.12800000 3178054410 3178054410 -7.25400000
18.62897301 57.13044739 -0.34924951 28 10 1666 60.09200000 3178054413 3178054413 -0.33300000
5.31117535 19.46777534 -2.17364168 3 11 1666 20.29600000 3178054413 3178054413 -6.14800000
7.79219723 20.43785095 -2.04179525 2 12 1667 21.96800000 3178054415 3178054415 -5.33300000
21.63416100 56.71366119 0.70666033 28 14 1668 60.70400000 3178054417 3178054417 0.66700000
7.11287022 26.03597832 -1.88733113 3 15 1668 27.05600000 3178054417 3178054417 -4.00000000
7.48201275 22.90478325 -1.96706748 3 16 1669 24.17600000 3178054420 3178054420 -4.66700000
29.88007927 134.89173889 4.02089357 28 17 1669 138.22000000 3178054420 3178054420 1.66700000
41.92744064 128.35301208 2.35691261 28 18 1669 135.04800000 3178054422 3178054422 1.00000000
6.29436207 28.41550064 -1.86525762 4 19 1669 29.16400000 3178054422 3178054422 -3.66700000
10.17120361 26.63574982 -1.66045046 4 20 1670 28.56000000 3178054424 3178054424 -3.33300000
51.15535736 186.99249268 11.29013252 42 21 1670 194.19200000 3178054424 3178054424 3.33300000
47.02873230 143.79959106 6.16389656 28 22 1671 151.42000000 3178054427 3178054427 2.33300000
8.71658802 31.84064484 -1.53776062 3 23 1671 33.04800000 3178054427 3178054427 -2.66700000
9.74357796 29.77531433 -1.64188361 5 24 1672 31.37200000 3178054429 3178054429 -3.00000000
12.89106655 33.68777847 -1.25959265 6 28 1674 36.09200000 3178054434 3178054434 -2.00000000
11.88761234 43.33490372 -1.04563165 6 31 1674 44.94800000 3178054436 3178054436 -1.33300000
1.76937532 5.37526131 -2.63882852 12 0 1682 6.24400000 3178054457 3178054457 -25.00000000
11.18379784 49.95152283 -0.89349341 12 1 1682 51.19600000 3178054457 3178054457 -1.00000000
12.99330521 39.44973373 -1.20876992 9 2 1683 41.55200000 3178054459 3178054459 -1.66700000
2.18496847 7.91628551 -2.29893875 19 3 1683 8.52800000 3178054459 3178054459 -15.63900000
3.57745671 10.85534859 -2.28594303 17 4 1684 11.65600000 3178054462 3178054462 -11.31000000
18.38045883 66.54833221 0.00000000 24 5 1684 69.04000000 3178054462 3178054462 0.00000000
17.79467964 46.26016617 -0.57702523 14 6 1684 49.56800000 3178054464 3178054464 -0.66700000
3.62818599 13.13621902 -2.12020898 13 7 1684 13.79200000 3178054464 3178054464 -8.84300000
5.62289667 17.05197144 -2.28545475 4 8 1685 18.10000000 3178054466 3178054466 -7.25400000
18.74681664 56.81816864 -0.34773842 27 10 1686 59.83200000 3178054469 3178054469 -0.33300000
5.37273741 19.42611885 -2.17107129 3 11 1686 20.27200000 3178054469 3178054469 -6.14800000
7.85633230 20.39194489 -2.03993630 2 12 1687 21.94800000 3178054471 3178054471 -5.33300000
21.62052345 56.08918381 0.69981533 28 14 1688 60.11600000 3178054473 3178054473 0.66700000
7.20264435 26.00714684 -1.88705218 3 15 1688 27.05200000 3178054473 3178054473 -4.00000000
7.56066847 22.87474060 -1.96674204 3 16 1689 24.17200000 3178054475 3178054475 -4.66700000
30.33319092 134.70860291 4.01856661 28 17 1689 138.14000000 3178054475 3178054475 1.66700000
6.38386631 28.35051918 -1.86244357 4 19 1689 29.12000000 3178054478 3178054478 -3.66700000
10.22674084 26.50321960 -1.65440392 4 20 1690 28.45600000 3178054480 3178054480 -3.33300000
51.58367157 186.00471497 11.24129581 42 21 1690 193.35200000 3178054480 3178054480 3.33300000
46.52717972 140.60287476 6.03379583 28 22 1691 148.22400000 3178054482 3178054482 2.33300000
8.80203629 31.71762085 -1.53329360 3 23 1691 32.95200000 3178054482 3178054482 -2.66700000
9.82234192 29.66527939 -1.63769674 5 24 1692 31.29200000 3178054485 3178054485 -3.00000000
8.08656216 35.79550552 -1.49509704 6 27 1693 36.72800000 3178054487 3178054487 -2.33300000
12.93937778 33.46360397 -1.25289190 6 28 1694 35.90000000 3178054489 3178054489 -2.00000000
12.03452206 43.27773666 -1.04525936 6 31 1694 44.93200000 3178054492 3178054492 -1.33300000
1.77323616 5.32433844 -2.61685228 23 0 1702 6.19200000 3178054512 3178054512 -25.00000000
11.34211922 49.84198761 -0.89223683 12 1 1702 51.12400000 3178054512 3178054512 -1.00000000
13.08163357 39.25620270 -1.20423174 9 2 1703 41.39600000 3178054515 3178054515 -1.66700000
2.18871880 7.82329226 -2.27413774 15 3 1703 8.43600000 3178054515 3178054515 -15.63900000
3.62773395 10.88000488 -2.29378772 13 4 1704 11.69600000 3178054517 3178054517 -11.31000000
17.88359833 46.01136780 -0.57469702 14 6 1704 49.36800000 3178054519 3178054519 -0.66700000
3.68147659 13.15011692 -2.12451339 8 7 1704 13.82000000 3178054519 3178054519 -8.84300000
5.67736197 17.01718330 -2.28343463 4 8 1705 18.08400000 3178054522 3178054522 -7.25400000
18.99443054 56.90035248 -0.34864509 28 10 1706 59.98800000 3178054524 3178054524 -0.33300000
5.42977953 19.36895370 -2.16678739 3 11 1706 20.23200000 3178054524 3178054524 -6.14800000
7.91879702 20.34212875 -2.03770566 2 12 1707 21.92400000 3178054526 3178054526 -5.33300000
21.64779472 55.58103943 0.69441390 28 14 1708 59.65200000 3178054528 3178054528 0.66700000
7.28151989 25.93958664 -1.88398290 3 15 1708 27.00800000 3178054528 3178054528 -4.00000000
7.59368944 22.70831490 -1.95470011 9 16 1709 24.02400000 3178054531 3178054531 -4.66700000
30.83355331 134.73442078 4.02252245 28 17 1709 138.27600000 3178054531 3178054531 1.66700000
42.24157333 126.32001495 2.32493973 28 18 1709 133.21600000 3178054533 3178054533 1.00000000
6.45696497 28.21521759 -1.85502446 4 19 1709 29.00400000 3178054533 3178054533 -3.66700000
10.31339073 26.45247841 -1.65347373 4 20 1710 28.44000000 3178054535 3178054535 -3.33300000
52.27910233 185.98883057 11.25129604 42 21 1710 193.52400000 3178054535 3178054535 3.33300000
41.14302063 122.89223480 5.27989721 28 22 1711 129.70400000 3178054538 3178054538 2.33300000
8.89538765 31.62516022 -1.53031564 3 23 1711 32.88800000 3178054538 3178054538 -2.66700000
9.91187668 29.58914757 -1.63539398 5 24 1712 31.24800000 3178054540 3178054540 -3.00000000
47.28406143 141.07164001 12.14608860 28 26 1713 149.28000000 3178054542 3178054542 4.66700000
8.21861649 35.79822159 -1.49639964 6 27 1713 36.76000000 3178054542 3178054542 -2.33300000
13.05174446 33.40706253 -1.25247312 6 28 1714 35.88800000 3178054545 3178054545 -2.00000000
12.13561535 43.05841064 -1.04097903 6 31 1714 44.74800000 3178054547 3178054547 -1.33300000
1.79412580 5.32498741 -2.62023330 15 0 1722 6.20000000 3178054568 3178054568 -25.00000000
11.49350548 49.70467758 -0.89049160 12 1 1722 51.02400000 3178054568 3178054568 -1.00000000
13.20708847 39.17620087 -1.20318449 9 2 1723 41.36000000 3178054570 3178054570 -1.66700000
2.25278974 7.94530869 -2.31187820 22 3 1723 8.57600000 3178054570 3178054570 -15.63900000
3.66945124 10.87842464 -2.29614115 11 4 1724 11.70800000 3178054572 3178054572 -11.31000000
18.05871964 45.98589325 -0.57516265 14 6 1724 49.40800000 3178054575 3178054575 -0.66700000
3.71225309 13.08395290 -2.11590457 13 7 1724 13.76400000 3178054575 3178054575 -8.84300000
5.72784615 16.97094536 -2.27989912 4 8 1725 18.05600000 3178054577 3178054577 -7.25400000
19.07263565 56.47747421 -0.34645981 27 10 1726 59.61200000 3178054579 3178054579 -0.33300000
5.48866177 19.31927681 -2.16336036 3 11 1726 20.20000000 3178054579 3178054579 -6.14800000
7.96789026 20.25876808 -2.03212905 2 12 1727 21.86400000 3178054581 3178054581 -5.33300000
21.64249039 54.99895477 0.68808115 27 14 1728 59.10800000 3178054584 3178054584 0.66700000
7.33162403 25.77200508 -1.87365890 3 15 1728 26.86000000 3178054584 3178054584 -4.00000000
7.64735889 22.60614014 -1.94819093 32 16 1729 23.94400000 3178054586 3178054586 -4.66700000
31.33084297 134.74279785 4.02601337 28 17 1729 138.39600000 3178054586 3178054586 1.66700000
42.45936584 125.44078827 2.31160617 28 18 1730 132.45200000 3178054588 3178054588 1.00000000
6.54766893 28.13693047 -1.85144281 4 19 1730 28.94800000 3178054588 3178054588 -3.66700000
10.40566349 26.41631699 -1.65347373 4 20 1730 28.44000000 3178054591 3178054591 -3.33300000
41.57046127 122.74408722 5.27973413 28 22 1731 129.70000000 3178054593 3178054593 2.33300000
8.99367714 31.55164719 -1.52826822 3 23 1731 32.84400000 3178054593 3178054593 -2.66700000
10.01638412 29.55815315 -1.63560331 5 24 1732 31.25200000 3178054595 3178054595 -3.00000000
8.33898640 35.74985504 -1.49558544 6 27 1733 36.74000000 3178054598 3178054598 -2.33300000
13.16974545 33.36501694 -1.25261271 6 28 1734 35.89200000 3178054600 3178054600 -2.00000000
12.28584290 43.01578522 -1.04097903 6 31 1734 44.74800000 3178054602 3178054602 -1.33300000
1.81854999 5.33584929 -2.62868547 25 0 1742 6.22000000 3178054623 3178054623 -25.00000000
11.58187675 49.30216980 -0.88399929 11 1 1742 50.65200000 3178054623 3178054623 -1.00000000
13.28310490 38.95199966 -1.19771552 8 2 1743 41.17200000 3178054625 3178054625 -1.66700000
2.32943916 8.10769558 -2.36148024 21 3 1743 8.76000000 3178054625 3178054625 -15.63900000
3.66560316 10.74304771 -2.27025366 11 4 1744 11.57600000 3178054627 3178054627 -11.31000000
18.82102203 65.46417999 0.00000000 24 5 1744 68.11600000 3178054627 3178054627 0.00000000
18.11647224 45.64057922 -0.57167029 14 6 1745 49.10800000 3178054630 3178054630 -0.66700000
3.76346159 13.08165359 -2.11774945 13 7 1745 13.77600000 3178054630 3178054630 -8.84300000
5.78320503 16.93958282 -2.27838373 4 8 1745 18.04400000 3178054632 3178054632 -7.25400000
19.13001633 56.00175476 -0.34394905 26 10 1746 59.18000000 3178054634 3178054634 -0.33300000
5.55056429 19.28089142 -2.16121840 5 11 1746 20.18000000 3178054634 3178054634 -6.14800000
8.02826309 20.20492363 -2.02952671 2 12 1747 21.83600000 3178054637 3178054637 -5.33300000
21.65703011 54.47705460 0.68249345 26 14 1748 58.62800000 3178054639 3178054639 0.66700000
7.41932964 25.73858833 -1.87310088 3 15 1748 26.85200000 3178054639 3178054639 -4.00000000
39.97757721 169.24897766 5.06117105 28 17 1749 173.98000000 3178054641 3178054641 1.66700000
42.78446960 125.03441620 2.30671954 28 18 1749 132.17200000 3178054644 3178054644 1.00000000
6.63543272 28.09175491 -1.84990788 4 19 1749 28.92400000 3178054644 3178054644 -3.66700000
10.48747540 26.35386086 -1.65184581 4 20 1750 28.41200000 3178054646 3178054646 -3.33300000
42.79035950 148.25067139 8.98619938 42 21 1750 154.56400000 3178054646 3178054646 3.33300000
41.46242905 121.03290558 5.21232319 28 22 1751 128.04400000 3178054648 3178054648 2.33300000
9.07049656 31.40489960 -1.52268445 3 23 1751 32.72400000 3178054648 3178054648 -2.66700000
10.07805347 29.40209007 -1.62890434 5 24 1752 31.12400000 3178054651 3178054651 -3.00000000
41.71954346 121.64493561 10.49829483 28 26 1753 129.02800000 3178054653 3178054653 4.66700000
8.42594528 35.56108093 -1.48890948 6 27 1753 36.57600000 3178054653 3178054653 -2.33300000
13.22838402 33.17402649 -1.24716842 6 28 1754 35.73600000 3178054655 3178054655 -2.00000000
12.38780594 42.77841187 -1.03632641 6 31 1755 44.54800000 3178054657 3178054657 -1.33300000
1.82114089 5.28897715 -2.60839987 13 0 1760 6.17200000 3178054678 3178054678 -25.00000000
11.72373104 49.21107101 -0.88302195 11 1 1760 50.59600000 3178054678 3178054678 -1.00000000
13.40150356 38.89873505 -1.19736636 8 2 1761 41.16000000 3178054680 3178054680 -1.66700000
2.36672688 8.14102364 -2.37334156 15 3 1761 8.80400000 3178054680 3178054680 -15.63900000
3.69805694 10.72777081 -2.26946926 13 4 1762 11.57200000 3178054683 3178054683 -11.31000000
19.08245468 65.59676361 0.00000000 24 5 1762 68.31600000 3178054683 3178054683 0.00000000
18.23448181 45.52031708 -0.57087874 13 6 1763 49.04000000 3178054685 3178054685 -0.66700000
3.80895901 13.08494568 -2.12020898 13 7 1763 13.79200000 3178054685 3178054685 -8.84300000
5.82733679 16.89507294 -2.27484822 4 8 1763 18.01600000 3178054687 3178054687 -7.25400000
19.23278236 55.72963715 -0.34264719 26 10 1764 58.95600000 3178054690 3178054690 -0.33300000
5.60221195 19.23281288 -2.15779138 3 11 1764 20.14800000 3178054690 3178054690 -6.14800000
8.08428764 20.16111946 -2.02766776 2 12 1765 21.81600000 3178054692 3178054692 -5.33300000
21.62105942 53.89276505 0.67602098 26 14 1766 58.07200000 3178054694 3178054694 0.66700000
7.49456692 25.69599915 -1.87170565 3 15 1766 26.83200000 3178054694 3178054694 -4.00000000
7.78409386 22.51724434 -1.94493639 3 16 1767 23.90400000 3178054697 3178054697 -4.66700000
40.47555923 168.98257446 5.05698204 84 17 1767 173.83600000 3178054697 3178054697 1.66700000
42.63740158 123.33828735 2.27788806 28 18 1767 130.52000000 3178054699 3178054699 1.00000000
6.70133638 27.97760201 -1.84376800 4 19 1767 28.82800000 3178054699 3178054699 -3.66700000
10.56426430 26.30596161 -1.65091562 4 20 1768 28.39600000 3178054701 3178054701 -3.33300000
43.45850754 148.80931091 9.02829266 42 21 1768 155.28800000 3178054701 3178054701 3.33300000
41.82023621 120.83784485 5.20955515 28 22 1769 127.97600000 3178054704 3178054704 2.33300000
9.14893913 31.30721474 -1.51933420 3 23 1769 32.65200000 3178054704 3178054704 -2.66700000
10.15076637 29.31366539 -1.62576413 5 24 1770 31.06400000 3178054706 3178054706 -3.00000000
42.25420380 121.95401001 10.53637409 28 26 1771 129.49600000 3178054708 3178054708 4.66700000
8.50867844 35.41396332 -1.48386180 6 27 1771 36.45200000 3178054708 3178054708 -2.33300000
13.32656860 33.11747360 -1.24661005 6 28 1772 35.72000000 3178054710 3178054710 -2.00000000
12.46860504 42.58411789 -1.03251123 6 31 1772 44.38400000 3178054713 3178054713 -1.33300000
1.85124910 5.31307745 -2.62361407 11 0 1781 6.20800000 3178054733 3178054733 -25.00000000
13.49528408 38.70966339 -1.19306099 8 2 1782 41.01200000 3178054736 3178054736 -1.66700000
2.37912798 8.07317734 -2.35608864 15 3 1782 8.74000000 3178054736 3178054736 -15.63900000
3.71926522 10.66229630 -2.25848675 11 4 1783 11.51600000 3178054738 3178054738 -11.31000000
19.25600052 65.30001831 0.00000000 24 5 1783 68.08000000 3178054738 3178054738 0.00000000
18.34375763 45.33403778 -0.56934208 13 6 1783 48.90800000 3178054740 3178054740 -0.66700000
3.86243606 13.09810829 -2.12451339 17 7 1783 13.82000000 3178054740 3178054740 -8.84300000
5.88529873 16.86236191 -2.27333307 4 8 1784 18.00400000 3178054743 3178054743 -7.25400000
19.46460724 55.73807526 -0.34313539 26 10 1785 59.04000000 3178054745 3178054745 -0.33300000
5.66928720 19.20070648 -2.15650606 5 11 1785 20.13600000 3178054745 3178054745 -6.14800000
8.15064907 20.11289787 -2.02580881 2 12 1786 21.79600000 3178054747 3178054747 -5.33300000
21.60804176 53.29422379 0.66950196 25 14 1787 57.51200000 3178054750 3178054750 0.66700000
7.59209108 25.67983818 -1.87254274 3 15 1787 26.84400000 3178054750 3178054750 -4.00000000
7.87973499 22.52619553 -1.94819093 3 16 1788 23.94400000 3178054752 3178054752 -4.66700000
42.89505386 122.62625122 2.26762605 28 18 1788 129.93200000 3178054754 3178054754 1.00000000
6.79344988 27.91018867 -1.84095383 4 19 1788 28.78400000 3178054754 3178054754 -3.66700000
10.59153080 26.09686089 -1.64021802 4 20 1789 28.21200000 3178054757 3178054757 -3.33300000
43.66358566 147.50033569 8.95852566 42 21 1789 154.08800000 3178054757 3178054757 3.33300000
40.60240173 115.94225311 5.00487852 28 22 1790 122.94800000 3178054759 3178054759 2.33300000
9.25341034 31.23899078 -1.51765919 3 23 1790 32.61600000 3178054759 3178054759 -2.66700000
10.25549603 29.26872444 -1.62534547 5 24 1791 31.05600000 3178054761 3178054761 -3.00000000
42.70090103 121.79832458 10.53637409 28 26 1792 129.49600000 3178054763 3178054763 4.66700000
8.61377335 35.28159332 -1.47962821 6 27 1792 36.34800000 3178054763 3178054763 -2.33300000
13.44334316 33.05729675 -1.24619126 6 28 1793 35.70800000 3178054766 3178054766 -2.00000000
12.62747097 42.52059555 -1.03213906 6 31 1794 44.36800000 3178054768 3178054768 -1.33300000
1.88932848 5.36503887 -2.65235209 9 0 1800 6.27600000 3178054789 3178054789 -25.00000000
13.60364437 38.60813141 -1.19131553 8 2 1801 40.95200000 3178054791 3178054791 -1.66700000
2.40808868 8.07262611 -2.35824537 20 3 1801 8.74800000 3178054791 3178054791 -15.63900000
3.80155110 10.78307438 -2.28672767 11 4 1802 11.66000000 3178054793 3178054793 -11.31000000
19.30425453 64.67237091 0.00000000 23 5 1802 67.49200000 3178054793 3178054793 0.00000000
18.45617485 45.18038940 -0.56817800 13 6 1802 48.80800000 3178054796 3178054796 -0.66700000
3.90471935 13.08143997 -2.12389851 21 7 1802 13.81600000 3178054796 3178054796 -8.84300000
5.93326378 16.82030106 -2.27030277 4 8 1803 17.98000000 3178054798 3178054798 -7.25400000
19.31139183 78.44457245 0.46953288 28 9 1803 80.78800000 3178054798 3178054798 0.33300000
19.55215263 55.39787292 -0.34143829 25 10 1804 58.74800000 3178054800 3178054800 -0.33300000
5.72040081 19.13988686 -2.15179396 5 11 1804 20.09200000 3178054800 3178054800 -6.14800000
8.21277618 20.07469940 -2.02469349 2 12 1805 21.78400000 3178054803 3178054803 -5.33300000
21.60738182 52.78918457 0.66405398 25 14 1806 57.04400000 3178054805 3178054805 0.66700000
7.62915993 25.49396515 -1.86082375 3 15 1806 26.67600000 3178054805 3178054805 -4.00000000
7.95704889 22.50745773 -1.94884181 3 16 1807 23.95200000 3178054807 3178054807 -4.66700000
42.38847733 171.66928101 5.14611530 28 17 1807 176.90000000 3178054807 3178054807 1.66700000
43.16548920 122.09871674 2.26050544 28 18 1807 129.52400000 3178054810 3178054810 1.00000000
6.87352610 27.83712578 -1.83762801 4 19 1807 28.73200000 3178054810 3178054810 -3.66700000
10.67801285 26.06159401 -1.64021802 4 20 1808 28.21200000 3178054812 3178054812 -3.33300000
41.22534561 116.48139191 5.03402519 28 22 1809 123.66400000 3178054814 3178054814 2.33300000
9.35121441 31.18899727 -1.51672852 3 23 1809 32.59600000 3178054814 3178054814 -2.66700000
10.33649826 29.18936920 -1.62283337 5 24 1810 31.00800000 3178054816 3178054816 -3.00000000
43.19110870 121.90031433 10.55752850 28 26 1811 129.75600000 3178054819 3178054819 4.66700000
8.70190048 35.13644791 -1.47474337 6 27 1811 36.22800000 3178054819 3178054819 -2.33300000
13.47546291 32.82393265 -1.23907173 6 28 1812 35.50400000 3178054821 3178054821 -2.00000000
12.76034641 42.45167923 -1.03148758 6 31 1813 44.34000000 3178054823 3178054823 -1.33300000
1.90532959 5.34783316 -2.64728069 14 0 1821 6.26400000 3178054844 3178054844 -25.00000000
13.69001389 38.40360260 -1.18654466 8 2 1822 40.78800000 3178054846 3178054846 -1.66700000
2.42205548 8.01212597 -2.34314895 18 3 1822 8.69200000 3178054846 3178054846 -15.63900000
3.80283475 10.66193199 -2.26397800 9 4 1823 11.54400000 3178054849 3178054849 -11.31000000
19.40913391 64.16471863 0.00000000 23 5 1823 67.03600000 3178054849 3178054849 0.00000000
18.58349228 45.02001190 -0.56701386 13 6 1823 48.70800000 3178054851 3178054851 -0.66700000
3.95263886 13.06704044 -2.12389851 17 7 1823 13.81600000 3178054851 3178054851 -8.84300000
5.98820496 16.77975464 -2.26777720 4 8 1824 17.96000000 3178054853 3178054853 -7.25400000
19.40275955 77.58941650 0.46483687 28 9 1824 79.98000000 3178054853 3178054853 0.33300000
19.70395088 55.18269348 -0.34055489 25 10 1825 58.59600000 3178054856 3178054856 -0.33300000
5.78244400 19.09214783 -2.14879513 5 11 1825 20.06400000 3178054856 3178054856 -6.14800000
8.26956177 20.00397682 -2.02060413 2 12 1826 21.74000000 3178054858 3178054858 -5.33300000
46.48569107 153.38732910 3.72954655 28 13 1826 160.32000000 3178054858 3178054858 1.33300000
21.59893036 52.22175217 0.65790749 24 14 1827 56.51600000 3178054860 3178054860 0.66700000
7.99786901 22.36177444 -1.93875265 3 16 1828 23.82800000 3178054863 3178054863 -4.66700000
42.07594681 117.64293671 2.18085265 28 18 1828 124.96000000 3178054865 3178054865 1.00000000
6.95220137 27.71882057 -1.83148813 4 19 1828 28.63600000 3178054865 3178054865 -3.66700000
10.75054932 25.96693802 -1.63672972 4 20 1829 28.15200000 3178054867 3178054867 -3.33300000
43.62025833 143.66131592 8.74364376 42 21 1829 150.39200000 3178054867 3178054867 3.33300000
41.71397018 116.50259399 5.04151535 28 22 1830 123.84800000 3178054869 3178054869 2.33300000
9.43410301 31.05129051 -1.51170313 3 23 1830 32.48800000 3178054869 3178054869 -2.66700000
10.40030289 29.03095245 -1.61613429 5 24 1831 30.88000000 3178054872 3178054872 -3.00000000
