# .PCD v0.7 - Point Cloud Data file format
VERSION 0.7
FIELDS x y z intensity laser_id azimuth distance_m adjustedtime timestamp vertical_angle
SIZE 4 4 4 1 1 2 8 8 4 8
TYPE F F F U U U F U U F
COUNT 1 1 1 1 1 1 1 1 1 1
WIDTH 505
HEIGHT 1
VIEWPOINT 0 0 0 1 0 0 0
POINTS 505
DATA ascii
40.05466843 -96.41482544 0.00000000 28 5 15884 104.40400000 3176694014 3176694014 0.00000000
36.82921982 -120.76441956 -1.46984971 29 6 15884 126.26400000 3176694017 3176694017 -0.66700000
7.58787251 -18.26462364 -3.07700872 3 7 15884 20.01600000 3176694017 3176694017 -8.84300000
8.60824585 -23.97595215 -3.24256802 3 8 15885 25.68000000 3176694019 3176694019 -7.25400000
38.50001144 -81.26377869 0.52263051 28 9 15885 89.92400000 3176694019 3176694019 0.33300000
41.01326370 -114.29411316 -0.70575231 28 10 15886 121.43200000 3176694021 3176694021 -0.33300000
10.89251328 -26.24501610 -3.06083369 3 11 15886 28.58000000 3176694021 3176694021 -6.14800000
10.76150990 -35.35373688 -3.44971204 5 12 15887 37.11600000 3176694024 3176694024 -5.33300000
40.55569077 -97.76528168 2.46291518 28 13 15887 105.87200000 3176694024 3176694024 1.33300000
41.71429825 -137.12580872 1.66863286 28 14 15888 143.34000000 3176694026 3176694026 0.66700000
17.19786644 -41.47836304 -3.13987851 14 15 15888 45.01200000 3176694026 3176694026 -4.00000000
13.63927174 -38.07207108 -3.30144477 8 16 15889 40.57600000 3176694028 3176694028 -4.66700000
37.94561386 -80.23831940 2.58312297 28 17 15889 88.79600000 3176694028 3176694028 1.66700000
41.04363251 -114.56741333 2.12423706 28 18 15889 121.71600000 3176694031 3176694031 1.00000000
19.68006706 -41.61470413 -2.95023346 16 19 15889 46.12800000 3176694031 3176694031 -3.66700000
17.75507736 -58.43883896 -3.55694532 28 20 15890 61.18000000 3176694033 3176694033 -3.33300000
40.25590897 -97.18636322 6.12622499 42 21 15890 105.37200000 3176694033 3176694033 3.33300000
39.27243423 -109.74401093 4.74874830 28 22 15891 116.65600000 3176694035 3176694035 2.33300000
19.53946686 -47.19574356 -2.37941551 16 23 15891 51.13600000 3176694035 3176694035 -2.66700000
19.43170738 -54.33040237 -3.02397156 25 24 15892 57.78000000 3176694037 3176694037 -3.00000000
38.61849213 -108.03546906 9.36602688 28 26 15893 115.11200000 3176694040 3176694040 4.66700000
36.84030151 -78.04199219 -3.51596928 28 27 15893 86.37200000 3176694040 3176694040 -2.33300000
36.65189743 -120.93907928 -4.41297150 28 28 15894 126.44800000 3176694042 3176694042 -2.00000000
37.23515320 -90.11595917 -2.26890063 28 31 15895 97.53200000 3176694044 3176694044 -1.33300000
2.25120473 -6.32910728 -3.13244653 7 0 15902 7.41200000 3176694065 3176694065 -25.00000000
37.53036880 -79.82840729 -1.53972113 28 1 15902 88.22400000 3176694065 3176694065 -1.00000000
37.46730423 -105.39501190 -3.25534701 28 2 15903 111.90400000 3176694067 3176694067 -1.66700000
3.78077960 -9.18650818 -2.78093934 15 3 15903 10.31600000 3176694067 3176694067 -15.63900000
5.37086153 -15.11651802 -3.20847893 4 4 15904 16.36000000 3176694070 3176694070 -11.31000000
38.35747528 -93.24692535 0.00000000 28 5 15904 100.82800000 3176694070 3176694070 0.00000000
36.46742249 -121.09139252 -1.47227108 29 6 15904 126.47200000 3176694072 3176694072 -0.66700000
7.54061079 -18.33120728 -3.08377266 2 7 15904 20.06000000 3176694072 3176694072 -8.84300000
8.55636978 -24.09559441 -3.25468969 3 8 15905 25.77600000 3176694074 3176694074 -7.25400000
38.39630508 -81.78147125 0.52509481 28 9 15905 90.34800000 3176694074 3176694074 0.33300000
50.54748917 -142.42562866 -0.87836611 28 10 15906 151.13200000 3176694077 3176694077 -0.33300000
10.81443977 -26.31598473 -3.06468916 3 11 15906 28.61600000 3176694077 3176694077 -6.14800000
10.65523434 -35.44829941 -3.45528865 5 12 15907 37.17600000 3176694079 3176694079 -5.33300000
40.84167099 -99.43395996 2.50134587 28 13 15907 107.52400000 3176694079 3176694079 1.33300000
41.13527298 -136.93731689 1.66458178 28 14 15908 142.99200000 3176694081 3176694081 0.66700000
17.12722969 -41.71901703 -3.15355062 7 15 15908 45.20800000 3176694081 3176694081 -4.00000000
13.56887054 -38.29606628 -3.31674147 8 16 15909 40.76400000 3176694084 3176694084 -4.66700000
37.63475800 -80.30511475 2.58102846 28 17 15909 88.72400000 3176694084 3176694084 1.66700000
40.67151642 -114.78914642 2.12570310 28 18 15909 121.80000000 3176694086 3176694086 1.00000000
19.66681290 -41.96508026 -2.97018814 16 19 15909 46.44000000 3176694086 3176694086 -3.66700000
17.62900925 -58.76054764 -3.57275915 28 20 15910 61.45200000 3176694088 3176694088 -3.33300000
39.77853394 -96.99008179 6.10506248 42 21 15910 105.00800000 3176694088 3176694088 3.33300000
39.08780289 -110.44181061 4.77301025 28 22 15911 117.25200000 3176694090 3176694090 2.33300000
19.52767372 -47.63706589 -2.39821410 16 23 15911 51.54000000 3176694090 3176694090 -2.66700000
19.40179062 -54.84980392 -3.04909277 26 24 15912 58.26000000 3176694093 3176694093 -3.00000000
43.93160629 -107.22291565 14.22751427 28 25 15912 116.74400000 3176694093 3176694093 7.00000000
38.63978958 -109.29724121 9.46366501 28 26 15913 116.31200000 3176694095 3176694095 4.66700000
36.80305481 -78.67331696 -3.53860259 28 27 15913 86.92800000 3176694095 3176694095 -2.33300000
36.90455246 -123.32200623 -4.49519491 28 28 15914 128.80400000 3176694097 3176694097 -2.00000000
37.49423981 -91.64812469 -2.30416751 28 31 15915 99.04800000 3176694100 3176694100 -1.33300000
2.14581466 -6.09337091 -3.01242304 4 0 15920 7.12800000 3176694120 3176694120 -25.00000000
37.26756287 -79.92054749 -1.53923249 28 1 15920 88.19600000 3176694120 3176694120 -1.00000000
37.53556824 -106.64743042 -3.29037213 28 2 15921 113.10800000 3176694123 3176694123 -1.66700000
3.79117990 -9.29463959 -2.81005359 18 3 15921 10.42400000 3176694123 3176694123 -15.63900000
5.32594824 -15.14071655 -3.21004772 6 4 15922 16.36800000 3176694125 3176694125 -11.31000000
38.07038116 -93.38179016 0.00000000 28 5 15922 100.84400000 3176694125 3176694125 0.00000000
36.90174103 -123.94243622 -1.50551796 29 6 15922 129.32800000 3176694127 3176694127 -0.66700000
7.49044514 -18.37310600 -3.08684731 2 7 15922 20.08000000 3176694127 3176694127 -8.84300000
8.48852539 -24.14481735 -3.25772023 3 8 15923 25.80000000 3176694130 3176694130 -7.25400000
38.05982971 -81.73126984 0.52400213 28 9 15923 90.16000000 3176694130 3176694130 0.33300000
50.41273117 -143.47433472 -0.88385260 28 10 15924 152.07600000 3176694132 3176694132 -0.33300000
10.74371338 -26.37929535 -3.06811619 3 11 15924 28.64800000 3176694132 3176694132 -6.14800000
10.57671738 -35.59231186 -3.46607018 5 12 15925 37.29200000 3176694134 3176694134 -5.33300000
40.13255692 -98.58767700 2.47687316 28 13 15925 106.47200000 3176694134 3176694134 1.33300000
40.49763489 -136.36804199 1.65610707 28 14 15926 142.26400000 3176694136 3176694136 0.66700000
17.13443184 -42.11265182 -3.17922115 7 15 15926 45.57600000 3176694136 3176694136 -4.00000000
13.50655746 -38.50403214 -3.33106160 8 16 15927 40.94000000 3176694139 3176694139 -4.66700000
38.64628220 -83.14227295 2.66830015 28 17 15927 91.72400000 3176694139 3176694139 1.66700000
19.66948509 -42.31624985 -2.99065447 17 19 15927 46.76000000 3176694141 3176694141 -3.66700000
17.49655151 -58.99174500 -3.58345675 28 20 15928 61.63600000 3176694143 3176694143 -3.33300000
39.99088669 -98.38713837 6.18506145 42 21 15928 106.38400000 3176694143 3176694143 3.33300000
40.44553757 -115.42974091 4.98305941 28 22 15929 122.41200000 3176694146 3176694146 2.33300000
19.53432846 -48.08317184 -2.41757107 16 23 15929 51.95600000 3176694146 3176694146 -2.66700000
19.41289330 -55.43452072 -3.07819152 26 24 15930 58.81600000 3176694148 3176694148 -3.00000000
43.65727234 -107.51490021 14.24798870 28 25 15930 116.91200000 3176694148 3176694148 7.00000000
40.10449982 -114.58457947 9.91051865 28 26 15931 121.80400000 3176694150 3176694150 4.66700000
36.81812286 -79.35411835 -3.56400371 28 27 15931 87.55200000 3176694150 3176694150 -2.33300000
36.76302719 -124.26917267 -4.52548742 28 28 15932 129.67200000 3176694153 3176694153 -2.00000000
37.47809601 -92.43623352 -2.32101011 28 31 15933 99.77200000 3176694155 3176694155 -1.33300000
2.14860463 -6.17689323 -3.04961348 5 0 15942 7.21600000 3176694176 3176694176 -25.00000000
37.82035065 -81.92583466 -1.57504475 28 1 15942 90.24800000 3176694176 3176694176 -1.00000000
37.38969421 -107.54986572 -3.31376100 28 2 15943 113.91200000 3176694178 3176694178 -1.66700000
3.71943617 -9.21982384 -2.78309608 15 3 15943 10.32400000 3176694178 3176694178 -15.63900000
5.27420950 -15.17957973 -3.21397018 6 4 15944 16.38800000 3176694180 3176694180 -11.31000000
39.54543686 -98.07546997 0.00000000 28 5 15944 105.74800000 3176694180 3176694180 0.00000000
36.81199265 -125.39957428 -1.52148962 29 6 15944 130.70000000 3176694183 3176694183 -0.66700000
7.43018866 -18.42739105 -3.09115148 2 7 15944 20.10800000 3176694183 3176694183 -8.84300000
8.40876961 -24.21471596 -3.26277089 3 8 15945 25.84000000 3176694185 3176694185 -7.25400000
37.75409698 -81.89496613 0.52411836 28 9 15945 90.18000000 3176694185 3176694185 0.33300000
10.65274715 -26.44617653 -3.07111502 3 11 15946 28.67600000 3176694187 3176694187 -6.14800000
10.48812675 -35.79700851 -3.48205662 5 12 15947 37.46400000 3176694189 3176694189 -5.33300000
39.45501709 -97.99913025 2.45826244 28 13 15947 105.67200000 3176694189 3176694189 1.33300000
39.98495865 -136.56092834 1.65657270 28 14 15948 142.30400000 3176694192 3176694192 0.66700000
17.04261780 -42.35211945 -3.19233537 7 15 15948 45.76400000 3176694192 3176694192 -4.00000000
13.41604233 -38.72135925 -3.34538174 8 16 15949 41.11600000 3176694194 3176694194 -4.66700000
38.45545197 -83.56972504 2.67725992 28 17 15949 92.03200000 3176694194 3176694194 1.66700000
19.65370178 -42.71057510 -3.01316762 17 19 15949 47.11200000 3176694196 3176694196 -3.66700000
17.36629677 -59.38810730 -3.60345650 28 20 15950 61.98000000 3176694199 3176694199 -3.33300000
39.96729660 -99.42177582 6.24040985 42 21 15950 107.33600000 3176694199 3176694199 3.33300000
40.10267258 -115.87500763 4.99559736 28 22 15951 122.72000000 3176694201 3176694201 2.33300000
19.50597572 -48.54711914 -2.43711424 16 23 15951 52.37600000 3176694201 3176694201 -2.66700000
19.38792610 -56.05226135 -3.10833716 27 24 15952 59.39200000 3176694203 3176694203 -3.00000000
43.38468170 -108.03173828 14.29429913 28 25 15952 117.29200000 3176694203 3176694203 7.00000000
37.81980515 -109.40231323 9.44966984 28 26 15953 116.14000000 3176694206 3176694206 4.66700000
36.72167587 -79.94889069 -3.58435750 28 27 15953 88.05200000 3176694206 3176694206 -2.33300000
36.75346756 -126.01355743 -4.58383942 28 28 15954 131.34400000 3176694208 3176694208 -2.00000000
37.42194748 -93.27813721 -2.33869004 28 31 15954 100.53200000 3176694210 3176694210 -1.33300000
2.16105580 -6.27616167 -3.09525609 6 0 15960 7.32400000 3176694231 3176694231 -25.00000000
37.72095108 -82.38970184 -1.58167672 28 1 15960 90.62800000 3176694231 3176694231 -1.00000000
37.12969589 -107.89363861 -3.32074261 28 2 15961 114.15200000 3176694233 3176694233 -1.66700000
3.68759322 -9.22430992 -2.78093934 30 3 15961 10.31600000 3176694233 3176694233 -15.63900000
5.23542547 -15.22203827 -3.21946144 4 4 15962 16.41600000 3176694236 3176694236 -11.31000000
39.26978302 -98.28093719 0.00000000 28 5 15962 105.83600000 3176694236 3176694236 0.00000000
36.72454453 -126.65419769 -1.53522611 29 6 15963 131.88000000 3176694238 3176694238 -0.66700000
7.37930155 -18.47762299 -3.09545588 3 7 15963 20.13600000 3176694238 3176694238 -8.84300000
8.34168530 -24.26728249 -3.26630640 3 8 15963 25.86800000 3176694240 3176694240 -7.25400000
37.78935242 -82.65341949 0.52820998 28 9 15963 90.88400000 3176694240 3176694240 0.33300000
10.60204697 -26.56077194 -3.08053946 3 11 15964 28.76400000 3176694242 3176694242 -6.14800000
10.37783146 -35.83743286 -3.48280025 5 12 15965 37.47200000 3176694245 3176694245 -5.33300000
39.10249329 -98.01117706 2.45547104 28 13 15965 105.55200000 3176694245 3176694245 1.33300000
39.21217728 -135.49867249 1.64218438 28 14 15966 141.06800000 3176694247 3176694247 0.66700000
16.91095924 -42.40915680 -3.19261432 7 15 15966 45.76800000 3176694247 3176694247 -4.00000000
13.32666302 -38.85759354 -3.35351801 8 16 15967 41.21600000 3176694249 3176694249 -4.66700000
38.19106293 -83.68649292 2.67714357 28 17 15967 92.02800000 3176694249 3176694249 1.66700000
19.63289642 -43.04063797 -3.03184319 17 19 15968 47.40400000 3176694252 3176694252 -3.66700000
17.28275108 -59.79914093 -3.62508416 28 20 15968 62.35200000 3176694254 3176694254 -3.33300000
39.75524521 -99.79910278 6.25622368 42 21 15968 107.60800000 3176694254 3176694254 3.33300000
19.50708008 -48.99423218 -2.45647097 16 23 15969 52.79200000 3176694256 3176694256 -2.66700000
19.36571121 -56.56261444 -3.13324904 28 24 15970 59.86800000 3176694259 3176694259 -3.00000000
42.89974594 -107.80230713 14.24603844 28 25 15970 116.89600000 3176694259 3176694259 7.00000000
37.63984299 -109.99963379 9.49100304 28 26 15971 116.64800000 3176694261 3176694261 4.66700000
36.80002594 -80.78765106 -3.61676049 28 27 15971 88.84800000 3176694261 3176694261 -2.33300000
36.88887787 -127.97216034 -4.65084648 28 28 15972 133.26400000 3176694263 3176694263 -2.00000000
37.46554565 -94.24250031 -2.35990596 28 31 15972 101.44400000 3176694266 3176694266 -1.33300000
2.12161040 -6.23218966 -3.06989908 6 0 15980 7.26400000 3176694286 3176694286 -25.00000000
37.91060257 -83.57345581 -1.60185170 28 1 15980 91.78400000 3176694286 3176694286 -1.00000000
37.25769043 -109.50639343 -3.36635661 28 2 15981 115.72000000 3176694289 3176694289 -1.66700000
3.64970255 -9.22279930 -2.77662635 28 3 15981 10.30000000 3176694289 3176694289 -15.63900000
5.19109774 -15.26621532 -3.22495270 4 4 15982 16.44400000 3176694291 3176694291 -11.31000000
38.77494431 -98.03429413 0.00000000 28 5 15982 105.42400000 3176694291 3176694291 0.00000000
36.89076996 -128.90809631 -1.56097615 29 6 15983 134.09200000 3176694293 3176694293 -0.66700000
7.32492924 -18.52899933 -3.09976029 3 7 15983 20.16400000 3176694293 3176694293 -8.84300000
8.29012203 -24.39393234 -3.27943826 3 8 15983 25.97200000 3176694295 3176694295 -7.25400000
43.38127518 -95.76674652 0.61104137 28 9 15983 105.13600000 3176694295 3176694295 0.33300000
45.37380219 -133.59030151 -0.81999129 28 10 15984 141.08800000 3176694298 3176694298 -0.33300000
10.52388287 -26.63460541 -3.08482337 3 11 15984 28.80400000 3176694298 3176694298 -6.14800000
10.26690006 -35.92322159 -3.48763323 5 12 15985 37.52400000 3176694300 3176694300 -5.33300000
38.82329178 -98.30700684 2.45947218 28 13 15985 105.72400000 3176694300 3176694300 1.33300000
39.03993607 -136.68850708 1.65494299 28 14 15986 142.16400000 3176694302 3176694302 0.66700000
16.84486198 -42.67577744 -3.20823979 7 15 15986 45.99200000 3176694302 3176694302 -4.00000000
13.22934914 -39.01714325 -3.36328197 8 16 15987 41.33600000 3176694305 3176694305 -4.66700000
38.82447433 -85.86677551 2.74253917 28 17 15987 94.27600000 3176694305 3176694305 1.66700000
19.56735611 -43.27645874 -3.04386711 18 19 15987 47.59200000 3176694307 3176694307 -3.66700000
17.12538719 -60.03958893 -3.63601446 28 20 15988 62.54000000 3176694309 3176694309 -3.33300000
39.30263901 -99.67351532 6.23971224 42 21 15988 107.32400000 3176694309 3176694309 3.33300000
19.49856186 -49.47465515 -2.47713089 16 23 15989 53.23600000 3176694312 3176694312 -2.66700000
19.35513496 -57.18228149 -3.16381311 28 24 15990 60.45200000 3176694314 3176694314 -3.00000000
41.67196655 -105.79044342 13.96086407 28 25 15990 114.55600000 3176694314 3176694314 7.00000000
37.61207962 -111.18399048 9.58180618 28 26 15991 117.76400000 3176694316 3176694316 4.66700000
36.84556961 -129.51895142 -4.70235825 28 28 15992 134.74000000 3176694319 3176694319 -2.00000000
37.34574509 -94.90483093 -2.37321258 28 31 15992 102.01600000 3176694321 3176694321 -1.33300000
2.09413123 -6.22617912 -3.06313705 6 0 16001 7.24800000 3176694341 3176694341 -25.00000000
37.14189148 -82.68305206 -1.58216536 28 1 16001 90.65600000 3176694341 3176694341 -1.00000000
36.98984909 -110.04015350 -3.37857461 28 2 16002 116.14000000 3176694343 3176694343 -1.66700000
3.64817190 -9.31861115 -2.80142713 25 3 16002 10.39200000 3176694343 3176694343 -15.63900000
5.14135504 -15.30372906 -3.22887516 4 4 16003 16.46400000 3176694346 3176694346 -11.31000000
38.39933777 -98.13478088 0.00000000 28 5 16003 105.38000000 3176694346 3176694346 0.00000000
36.50362015 -129.25933838 -1.56367683 29 6 16003 134.32400000 3176694348 3176694348 -0.66700000
7.27604914 -18.59494209 -3.10652423 2 7 16003 20.20800000 3176694348 3176694348 -8.84300000
8.21202469 -24.45800781 -3.28398395 3 8 16004 26.00800000 3176694350 3176694350 -7.25400000
43.07582092 -96.02729034 0.61169231 28 9 16004 105.24800000 3176694350 3176694350 0.33300000
44.80878448 -133.53198242 -0.81861967 28 10 16005 140.85200000 3176694353 3176694353 -0.33300000
10.45370102 -26.74337578 -3.09296274 3 11 16005 28.88000000 3176694353 3176694353 -6.14800000
10.18162251 -36.12544250 -3.50361967 5 12 16006 37.69600000 3176694355 3176694355 -5.33300000
38.56895065 -98.72054291 2.46626496 28 13 16006 106.01600000 3176694355 3176694355 1.33300000
37.91627121 -134.62080383 1.62821507 28 14 16007 139.86800000 3176694357 3176694357 0.66700000
16.74493790 -42.88219070 -3.21912169 7 15 16007 46.14800000 3176694357 3176694357 -4.00000000
13.14070702 -39.22792053 -3.37727666 8 16 16008 41.50800000 3176694359 3176694359 -4.66700000
43.30500412 -96.71896362 3.08406210 28 17 16008 106.01600000 3176694359 3176694359 1.66700000
44.37202454 -132.46032715 2.43838048 28 18 16008 139.71600000 3176694362 3176694362 1.00000000
19.47549057 -43.49726105 -3.05435634 18 19 16008 47.75600000 3176694362 3176694362 -3.66700000
17.00793457 -60.46714020 -3.65810728 28 20 16009 62.92000000 3176694364 3176694364 -3.33300000
40.98469162 -105.06610870 6.56784916 42 21 16009 112.96800000 3176694364 3176694364 3.33300000
43.46006775 -129.88845825 5.58015394 28 22 16010 137.08000000 3176694366 3176694366 2.33300000
19.47820473 -49.95901108 -2.49779081 16 23 16010 53.68000000 3176694366 3176694366 -2.66700000
19.33037567 -57.80593109 -3.19437742 28 24 16011 61.03600000 3176694369 3176694369 -3.00000000
40.95816040 -105.10644531 13.85069466 28 25 16011 113.65200000 3176694369 3176694369 7.00000000
37.27508163 -111.53284454 9.60003185 28 26 16012 117.98800000 3176694371 3176694371 4.66700000
36.71396637 -130.87710571 -4.74675035 28 28 16013 136.01200000 3176694373 3176694373 -2.00000000
37.24281311 -95.67085266 -2.38893843 28 31 16013 102.69200000 3176694376 3176694376 -1.33300000
2.07581615 -6.24377155 -3.06820869 4 0 16021 7.26000000 3176694396 3176694396 -25.00000000
37.59941101 -84.48934174 -1.61420798 28 1 16021 92.49200000 3176694396 3176694396 -1.00000000
36.98120880 -111.29931641 -3.41325045 28 2 16022 117.33200000 3176694399 3176694399 -1.66700000
3.63371372 -9.37798119 -2.81544518 23 3 16022 10.44400000 3176694399 3176694399 -15.63900000
5.09408426 -15.34019470 -3.23279738 4 4 16023 16.48400000 3176694401 3176694401 -11.31000000
38.45380020 -99.29398346 0.00000000 28 5 16023 106.48000000 3176694401 3176694401 0.00000000
36.90999603 -132.46449280 -1.60088181 29 6 16023 137.52000000 3176694403 3176694403 -0.66700000
7.22965193 -18.66814232 -3.11451817 2 7 16023 20.26000000 3176694403 3176694403 -8.84300000
8.13534927 -24.51288605 -3.28751945 3 8 16024 26.03600000 3176694406 3176694406 -7.25400000
42.61853409 -95.90292358 0.60994869 28 9 16024 104.94800000 3176694406 3176694406 0.33300000
43.99106598 -132.62834167 -0.81213355 28 10 16025 139.73600000 3176694408 3176694408 -0.33300000
10.39615917 -26.87243080 -3.10367250 3 11 16025 28.98000000 3176694408 3176694408 -6.14800000
10.10027313 -36.32192230 -3.51923418 5 12 16026 37.86400000 3176694410 3176694410 -5.33300000
38.26016998 -98.94781494 2.46859145 28 13 16026 106.11600000 3176694410 3176694410 1.33300000
37.17840195 -133.78892517 1.61657393 28 14 16027 138.86800000 3176694412 3176694412 0.66700000
16.68001747 -43.15997696 -3.23558426 7 15 16027 46.38400000 3176694412 3176694412 -4.00000000
13.06134033 -39.44764709 -3.39224768 8 16 16028 41.69200000 3176694415 3176694415 -4.66700000
42.87472153 -96.66120148 3.07742953 28 17 16028 105.78800000 3176694415 3176694415 1.66700000
43.73464584 -132.08666992 2.42867684 28 18 16028 139.16000000 3176694417 3176694417 1.00000000
19.38989639 -43.71458435 -3.06484532 18 19 16028 47.92000000 3176694417 3176694417 -3.66700000
16.91208458 -60.94170380 -3.68322325 28 20 16029 63.35200000 3176694419 3176694419 -3.33300000
40.97724152 -106.13984680 6.62598801 42 21 16029 113.96800000 3176694419 3176694419 3.33300000
39.16883850 -118.43562317 5.08222246 28 22 16030 124.84800000 3176694422 3176694422 2.33300000
19.46767807 -50.45166779 -2.51900887 16 23 16030 54.13600000 3176694422 3176694422 -2.66700000
19.30774117 -58.41541290 -3.22431350 28 24 16031 61.60800000 3176694424 3176694424 -3.00000000
40.52959061 -105.08949280 13.82973289 28 25 16031 113.48000000 3176694424 3176694424 7.00000000
36.87678146 -111.63578033 9.59775352 28 26 16032 117.96000000 3176694426 3176694426 4.66700000
36.59170914 -132.21421814 -4.79058409 28 28 16033 137.26800000 3176694429 3176694429 -2.00000000
37.21772385 -96.60256195 -2.40894461 28 31 16033 103.55200000 3176694431 3176694431 -1.33300000
2.08680367 -6.34704924 -3.11554193 4 0 16040 7.37200000 3176694452 3176694452 -25.00000000
37.61437607 -85.28321075 -1.62698317 28 1 16040 93.22400000 3176694452 3176694452 -1.00000000
36.98761749 -112.56468964 -3.44827557 28 2 16041 118.53600000 3176694454 3176694454 -1.66700000
3.61225367 -9.41515350 -2.82299328 27 3 16041 10.47200000 3176694454 3176694454 -15.63900000
5.05175257 -15.38308907 -3.23828864 4 4 16042 16.51200000 3176694456 3176694456 -11.31000000
38.11858749 -99.40602112 0.00000000 28 5 16042 106.46400000 3176694456 3176694456 0.00000000
36.50977325 -132.72885132 -1.60260463 29 6 16042 137.66800000 3176694459 3176694459 -0.66700000
7.17478228 -18.71046448 -3.11759257 2 7 16042 20.28000000 3176694459 3176694459 -8.84300000
8.06886578 -24.58497047 -3.29358029 3 8 16043 26.08400000 3176694461 3176694461 -7.25400000
42.21160126 -95.84239197 0.60867012 28 9 16043 104.72800000 3176694461 3176694461 0.33300000
43.70061111 -133.22956848 -0.81492329 28 10 16044 140.21600000 3176694463 3176694463 -0.33300000
10.32832909 -26.96246529 -3.11009836 3 11 16044 29.04000000 3176694463 3176694463 -6.14800000
9.98504162 -36.37442017 -3.52109313 5 12 16045 37.88400000 3176694465 3176694465 -5.33300000
39.30303955 -102.65559387 2.55782890 28 13 16045 109.95200000 3176694465 3176694465 1.33300000
36.89325333 -134.49005127 1.62355864 28 14 16046 139.46800000 3176694468 3176694468 0.66700000
16.55106163 -43.25231934 -3.23837447 8 15 16046 46.42400000 3176694468 3176694468 -4.00000000
12.99992657 -39.70291901 -3.41047335 8 16 16047 41.91600000 3176694470 3176694470 -4.66700000
42.55716705 -96.81017303 3.07766223 28 17 16047 105.79600000 3176694470 3176694470 1.66700000
43.64148712 -133.36363220 2.44934058 28 18 16048 140.34400000 3176694472 3176694472 1.00000000
19.30944633 -43.94646072 -3.07635760 18 19 16048 48.10000000 3176694472 3176694472 -3.66700000
16.77531433 -61.23623276 -3.69764185 28 20 16048 63.60000000 3176694475 3176694475 -3.33300000
39.93351364 -104.46609497 6.51319838 42 21 16048 112.02800000 3176694475 3176694475 3.33300000
38.92992401 -119.03589630 5.10241318 28 22 16049 125.34400000 3176694477 3176694477 2.33300000
19.46854210 -50.95638275 -2.54097152 16 23 16049 54.60800000 3176694477 3176694477 -2.66700000
19.30379677 -59.06003952 -3.25634313 28 24 16050 62.22000000 3176694479 3176694479 -3.00000000
40.17804337 -105.21589661 13.82875824 28 25 16050 113.47200000 3176694479 3176694479 7.00000000
36.75520325 -112.51918030 9.66316986 28 26 16051 118.76400000 3176694482 3176694482 4.66700000
36.43435287 -133.36445618 -4.82785654 28 28 16052 138.33600000 3176694484 3176694484 -2.00000000
37.25634003 -97.66699982 -2.43239403 28 31 16052 104.56000000 3176694486 3176694486 -1.33300000
2.05904794 -6.34086323 -3.10877991 4 0 16061 7.35600000 3176694507 3176694507 -25.00000000
37.59764099 -86.09855652 -1.63989794 28 1 16061 93.96400000 3176694507 3176694507 -1.00000000
37.07465744 -114.23973083 -3.49540210 28 2 16062 120.15600000 3176694509 3176694509 -1.66700000
3.59548664 -9.47514725 -2.83701110 16 3 16062 10.52400000 3176694509 3176694509 -15.63900000
5.00622797 -15.43507957 -3.24534893 6 4 16063 16.54800000 3176694511 3176694511 -11.31000000
38.07598495 -100.39405060 0.00000000 28 5 16063 107.37200000 3176694511 3176694511 0.00000000
36.43917847 -134.48947144 -1.62216163 29 6 16064 139.34800000 3176694514 3176694514 -0.66700000
7.11689615 -18.77483559 -3.12374187 3 7 16064 20.32000000 3176694514 3176694514 -8.84300000
8.01051521 -24.71252060 -3.30671215 3 8 16064 26.18800000 3176694516 3176694516 -7.25400000
41.79288864 -95.84246826 0.60769367 28 9 16064 104.56000000 3176694516 3176694516 0.33300000
43.17502594 -133.27468872 -0.81422585 28 10 16065 140.09600000 3176694518 3176694518 -0.33300000
10.27029896 -27.10799026 -3.12252164 3 11 16065 29.15600000 3176694518 3176694518 -6.14800000
9.90054417 -36.59146118 -3.53856659 5 12 16066 38.07200000 3176694521 3176694521 -5.33300000
38.30059814 -101.14597321 2.51669955 28 13 16066 108.18400000 3176694521 3176694521 1.33300000
37.07761002 -137.13021851 1.65377879 28 14 16067 142.06400000 3176694523 3176694523 0.66700000
16.51106644 -43.62617111 -3.26181269 8 15 16067 46.76000000 3176694523 3176694523 -4.00000000
12.85309410 -39.74650574 -3.41014791 8 16 16068 41.91200000 3176694525 3176694525 -4.66700000
42.28183365 -97.14881134 3.08348036 28 17 16068 105.99600000 3176694525 3176694525 1.66700000
43.26798630 -133.80056763 2.45457625 28 18 16068 140.64400000 3176694528 3176694528 1.00000000
19.20849609 -44.13438034 -3.08480000 18 19 16068 48.23200000 3176694528 3176694528 -3.66700000
16.59656143 -61.46693420 -3.70787430 28 20 16069 63.77600000 3176694530 3176694530 -3.33300000
39.60684204 -104.76116943 6.52250051 42 21 16069 112.18800000 3176694530 3176694530 3.33300000
38.50565720 -119.21581268 5.10404158 28 22 16070 125.38400000 3176694532 3176694532 2.33300000
19.45112991 -51.47592545 -2.56330657 16 23 16070 55.08800000 3176694532 3176694532 -2.66700000
19.27862549 -59.72340775 -3.28900075 28 24 16071 62.84400000 3176694535 3176694535 -3.00000000
39.66729736 -105.03189087 13.78537273 28 25 16071 113.11600000 3176694535 3176694535 7.00000000
36.41721725 -112.88458252 9.68302345 28 26 16072 119.00800000 3176694537 3176694537 4.66700000
37.05222702 -137.60809326 -4.97652864 28 28 16073 142.59600000 3176694539 3176694539 -2.00000000
37.13501740 -98.48284149 -2.44914341 28 31 16074 105.28000000 3176694541 3176694541 -1.33300000
2.05463266 -6.39943171 -3.13413692 4 0 16080 7.41600000 3176694562 3176694562 -25.00000000
37.56764603 -86.81370544 -1.65113723 28 1 16080 94.60800000 3176694562 3176694562 -1.00000000
36.94482803 -115.13870239 -3.51914001 28 2 16081 120.97200000 3176694564 3176694564 -1.66700000
3.54914522 -9.44735432 -2.82514977 18 3 16081 10.48000000 3176694564 3176694564 -15.63900000
4.96220255 -15.47400665 -3.25005579 6 4 16082 16.57200000 3176694567 3176694567 -11.31000000
44.14323807 -117.56577301 0.00000000 28 5 16082 125.58000000 3176694567 3176694567 0.00000000
35.90827560 -134.29272461 -1.61834335 29 6 16083 139.02000000 3176694569 3176694569 -0.66700000
7.06015205 -18.81313324 -3.12620139 3 7 16083 20.33600000 3176694569 3176694569 -8.84300000
7.93820906 -24.76917648 -3.31075287 3 8 16083 26.22000000 3176694571 3176694571 -7.25400000
40.81478882 -94.45307159 0.59802270 28 9 16083 102.89600000 3176694571 3176694571 0.33300000
43.83580399 -136.86074829 -0.83524173 28 10 16084 143.71200000 3176694574 3176694574 -0.33300000
10.19431591 -27.17913628 -3.12680554 3 11 16084 29.19600000 3176694574 3176694574 -6.14800000
9.82538319 -36.79724503 -3.55529642 5 12 16085 38.25200000 3176694576 3176694576 -5.33300000
37.88215256 -101.05150604 2.51120949 28 13 16085 107.94800000 3176694576 3176694576 1.33300000
36.57110977 -137.05918884 1.65145063 28 14 16086 141.86400000 3176694578 3176694578 0.66700000
16.37190628 -43.69563293 -3.26292872 8 15 16086 46.77600000 3176694578 3176694578 -4.00000000
12.78799438 -39.99776459 -3.42804790 8 16 16087 42.13200000 3176694581 3176694581 -4.66700000
41.86127090 -97.06085968 3.07626581 28 17 16087 105.74800000 3176694581 3176694581 1.66700000
43.08347321 -134.75471497 2.46944571 28 18 16087 141.49600000 3176694583 3176694583 1.00000000
19.13791656 -44.37377548 -3.09707999 19 19 16087 48.42400000 3176694583 3176694583 -3.66700000
16.52115631 -62.00395966 -3.73694372 28 20 16088 64.27600000 3176694585 3176694585 -3.33300000
39.21443176 -104.77225494 6.51505852 42 21 16088 112.06000000 3176694585 3176694585 3.33300000
41.02922058 -128.48411560 5.49499416 28 22 16089 134.98800000 3176694588 3176694588 2.33300000
19.43572044 -51.95554733 -2.58396626 16 23 16089 55.53200000 3176694588 3176694588 -2.66700000
19.26749611 -60.37304306 -3.32123971 28 24 16090 63.46000000 3176694590 3176694590 -3.00000000
39.38830185 -105.34879303 13.80974674 28 25 16090 113.31600000 3176694590 3176694590 7.00000000
38.00884247 -119.16924286 10.21124172 28 26 16091 125.50000000 3176694592 3176694592 4.66700000
37.29786301 -140.37283325 -5.07201385 28 28 16092 145.33200000 3176694594 3176694594 -2.00000000
37.18222046 -99.55429077 -2.47287178 28 31 16092 106.30000000 3176694597 3176694597 -1.33300000
2.00707030 -6.32708740 -3.09525609 4 0 16100 7.32400000 3176694617 3176694617 -25.00000000
37.45501709 -87.38910675 -1.65958428 28 1 16100 95.09200000 3176694617 3176694617 -1.00000000
37.28700638 -117.61476135 -3.59081912 28 2 16101 123.43600000 3176694620 3176694620 -1.66700000
3.49735761 -9.40913773 -2.81005359 23 3 16101 10.42400000 3176694620 3176694620 -15.63900000
4.91289663 -15.50619030 -3.25319362 4 4 16102 16.58800000 3176694622 3176694622 -11.31000000
36.09231186 -136.79724121 -1.64707363 29 6 16102 141.48800000 3176694624 3176694624 -0.66700000
7.01424360 -18.88090324 -3.13358045 2 7 16102 20.38400000 3176694624 3176694624 -8.84300000
7.86846972 -24.84969711 -3.31782389 3 8 16103 26.27600000 3176694627 3176694627 -7.25400000
40.51788712 -94.67218781 0.59851086 28 9 16103 102.98000000 3176694627 3176694627 0.33300000
42.94869995 -135.72013855 -0.82736081 28 10 16104 142.35600000 3176694629 3176694629 -0.33300000
10.11044979 -27.24438286 -3.13023257 3 11 16104 29.22800000 3176694629 3176694629 -6.14800000
9.70296097 -36.85442734 -3.55752707 5 12 16105 38.27600000 3176694631 3176694631 -5.33300000
37.32059097 -100.62072754 2.49725151 28 13 16105 107.34800000 3176694631 3176694631 1.33300000
36.07414246 -137.11637878 1.65061247 28 14 16106 141.79200000 3176694634 3176694634 0.66700000
16.29140282 -43.94706726 -3.27743816 8 15 16106 46.98400000 3176694634 3176694634 -4.00000000
12.65670395 -40.06877136 -3.43032622 8 16 16107 42.16000000 3176694636 3176694636 -4.66700000
42.29180908 -99.00807190 3.13328314 28 17 16107 107.70800000 3176694636 3176694636 1.66700000
43.13805008 -136.56704712 2.49988270 28 18 16107 143.24000000 3176694638 3176694638 1.00000000
19.05190086 -44.60182953 -3.10833645 19 19 16107 48.60000000 3176694638 3176694638 -3.66700000
16.25388718 -61.86814117 -3.72531581 28 20 16108 64.07600000 3176694641 3176694641 -3.33300000
39.17434311 -105.78851318 6.56970930 42 21 16108 113.00000000 3176694641 3176694641 3.33300000
42.81711197 -135.71592712 5.79785633 28 22 16109 142.42800000 3176694643 3176694643 2.33300000
19.42899132 -52.49522781 -2.60741806 16 23 16109 56.03600000 3176694643 3176694643 -2.66700000
19.24882507 -61.04947662 -3.35473490 28 24 16110 64.10000000 3176694645 3176694645 -3.00000000
38.98588943 -105.39255524 13.79755974 28 25 16110 113.21600000 3176694645 3176694645 7.00000000
37.57465744 -119.24415588 10.20635986 28 26 16111 125.44000000 3176694647 3176694647 4.66700000
37.41446686 -142.81855774 -5.15563297 28 28 16112 147.72800000 3176694650 3176694650 -2.00000000
36.92653275 -99.98625183 -2.48022294 28 31 16113 106.61600000 3176694652 3176694652 -1.33300000
1.96003830 -6.25448990 -3.05637527 4 0 16120 7.23200000 3176694673 3176694673 -25.00000000
37.53104019 -88.41759491 -1.67661774 28 1 16120 96.06800000 3176694673 3176694673 -1.00000000
37.11522675 -118.50730896 -3.61409163 28 2 16121 124.23600000 3176694675 3176694675 -1.66700000
3.46582174 -9.42490292 -2.81113195 24 3 16121 10.42800000 3176694675 3176694675 -15.63900000
4.86342621 -15.53821754 -3.25633144 6 4 16122 16.60400000 3176694677 3176694677 -11.31000000
36.30125809 -139.56236267 -1.67883050 29 6 16122 144.21600000 3176694680 3176694680 -0.66700000
6.95920229 -18.93495178 -3.13849974 3 7 16122 20.41600000 3176694680 3176694680 -8.84300000
7.81484938 -24.98304749 -3.33196592 3 8 16123 26.38800000 3176694682 3176694682 -7.25400000
40.63360977 -95.86631775 0.60515970 28 9 16123 104.12400000 3176694682 3176694682 0.33300000
42.58090591 -136.20899963 -0.82942981 28 10 16124 142.71200000 3176694684 3176694684 -0.33300000
10.06051922 -27.40270996 -3.14436936 3 11 16124 29.36000000 3176694684 3176694684 -6.14800000
9.62428284 -37.08081818 -3.57611609 5 12 16125 38.47600000 3176694687 3176694687 -5.33300000
37.14683533 -101.23467255 2.50925541 28 13 16125 107.86400000 3176694687 3176694687 1.33300000
35.52299881 -136.96270752 1.64725983 28 14 16126 141.50400000 3176694689 3176694689 0.66700000
16.20659447 -44.19098282 -3.29138947 8 15 16126 47.18400000 3176694689 3176694689 -4.00000000
12.56070042 -40.25351715 -3.44236803 8 16 16127 42.30800000 3176694691 3176694691 -4.66700000
41.11098480 -97.18135071 3.07091308 28 17 16127 105.56400000 3176694691 3176694691 1.66700000
42.12617874 -135.00257874 2.46853828 28 18 16127 141.44400000 3176694694 3176694694 1.00000000
18.97230148 -44.84820557 -3.12087202 19 19 16127 48.79600000 3176694694 3176694694 -3.66700000
16.18800545 -62.50435638 -3.76019931 28 20 16128 64.67600000 3176694696 3176694696 -3.33300000
40.86664200 -111.55268097 6.91877604 42 21 16128 119.00400000 3176694696 3176694696 3.33300000
42.24798203 -135.55931091 5.78483009 28 22 16129 142.10800000 3176694698 3176694698 2.33300000
19.40911293 -53.00922394 -2.62956691 16 23 16129 56.51200000 3176694698 3176694698 -2.66700000
19.24110794 -61.77608490 -3.39095140 28 24 16130 64.79200000 3176694700 3176694700 -3.00000000
40.43376923 -110.49047089 14.44639206 28 25 16130 118.54000000 3176694700 3176694700 7.00000000
36.94918442 -101.13243866 -2.50544024 28 31 16133 107.70000000 3176694707 3176694707 -1.33300000
1.94141018 -6.27168274 -3.06144667 4 0 16140 7.24400000 3176694728 3176694728 -25.00000000
37.49649811 -89.20063782 -1.68897414 28 1 16140 96.77600000 3176694728 3176694728 -1.00000000
37.13027573 -120.02269745 -3.65633106 28 2 16141 125.68800000 3176694730 3176694730 -1.66700000
3.41183281 -9.37902641 -2.79387903 26 3 16141 10.36400000 3176694730 3176694730 -15.63900000
4.81610966 -15.57758331 -3.26103830 2 4 16142 16.62800000 3176694733 3176694733 -11.31000000
35.61520386 -138.91334534 -1.66951764 29 6 16142 143.41600000 3176694735 3176694735 -0.66700000
7.73227978 -25.02533913 -3.33398628 3 8 16143 26.40400000 3176694737 3176694737 -7.25400000
40.32504654 -96.07027435 0.60555494 28 9 16143 104.19200000 3176694737 3176694737 0.33300000
37.36573029 -121.00816345 -0.73606724 28 10 16144 126.64800000 3176694740 3176694740 -0.33300000
9.98109531 -27.48251724 -3.14950991 3 11 16144 29.40800000 3176694740 3176694740 -6.14800000
9.51354313 -37.18750000 -3.58317971 5 12 16145 38.55200000 3176694742 3176694742 -5.33300000
36.79596329 -101.37123871 2.50944138 28 13 16145 107.87200000 3176694742 3176694742 1.33300000
35.10214996 -137.31063843 1.64996052 28 14 16146 141.73600000 3176694744 3176694744 0.66700000
16.10803413 -44.40107727 -3.30282950 8 15 16146 47.34800000 3176694744 3176694744 -4.00000000
12.48587132 -40.51047134 -3.46059370 9 16 16147 42.53200000 3176694747 3176694747 -4.66700000
40.86574936 -97.54921722 3.07801127 28 17 16147 105.80800000 3176694747 3176694747 1.66700000
41.61226654 -135.01121521 2.46602511 28 18 16147 141.30000000 3176694749 3176694749 1.00000000
18.87733269 -45.06142807 -3.13110518 19 19 16147 48.95600000 3176694749 3176694749 -3.66700000
16.11787605 -63.14085388 -3.79508281 28 20 16148 65.27600000 3176694751 3176694751 -3.33300000
40.51781845 -111.80728149 6.92575264 42 21 16148 119.12400000 3176694751 3176694751 3.33300000
42.16256332 -136.96649170 5.83856392 28 22 16149 143.42800000 3176694753 3176694753 2.33300000
19.40084839 -53.56504059 -2.65376306 16 23 16149 57.03200000 3176694753 3176694753 -2.66700000
19.21915245 -62.47283173 -3.42549300 28 24 16150 65.45200000 3176694756 3176694756 -3.00000000
39.02620316 -107.80870056 14.07785892 28 25 16150 115.51600000 3176694756 3176694756 7.00000000
37.00714111 -145.39682007 -5.23925209 28 28 16152 150.12400000 3176694760 3176694760 -2.00000000
37.15728378 -102.81403351 -2.54387093 28 31 16153 109.35200000 3176694763 3176694763 -1.33300000
1.94171512 -6.35503054 -3.09863710 2 0 16161 7.33200000 3176694783 3176694783 -25.00000000
37.40589905 -89.90612793 -1.69972479 28 1 16161 97.39200000 3176694783 3176694783 -1.00000000
37.00188446 -121.17898560 -3.68739963 28 2 16162 126.75600000 3176694786 3176694786 -1.66700000
3.36961269 -9.36972046 -2.78740931 18 3 16162 10.34000000 3176694786 3176694786 -15.63900000
41.06161880 -114.24067688 0.00000000 28 5 16163 121.39600000 3176694788 3176694788 0.00000000
35.30164719 -139.81855774 -1.67883050 29 6 16163 144.21600000 3176694790 3176694790 -0.66700000
6.84759378 -19.05121613 -3.14956808 32 7 16163 20.48800000 3176694790 3176694790 -8.84300000
7.65671015 -25.10664749 -3.34105730 3 8 16164 26.46000000 3176694793 3176694793 -7.25400000
40.33481979 -97.08917236 0.61104137 28 9 16164 105.13600000 3176694793 3176694793 0.33300000
36.90213776 -121.07926178 -0.73567206 28 10 16165 126.58000000 3176694795 3176694795 -0.33300000
9.89508343 -27.56008911 -3.15422225 3 11 16165 29.45200000 3176694795 3176694795 -6.14800000
9.41415119 -37.36887360 -3.59730721 5 12 16166 38.70400000 3176694797 3176694797 -5.33300000
36.46063995 -101.60704803 2.51195383 28 13 16166 107.98000000 3176694797 3176694797 1.33300000
34.70312119 -137.85339355 1.65494299 28 14 16167 142.16400000 3176694799 3176694799 0.66700000
15.95731163 -44.49362183 -3.30534077 8 15 16167 47.38400000 3176694799 3176694799 -4.00000000
12.33962917 -40.56359100 -3.46124458 9 16 16168 42.54000000 3176694802 3176694802 -4.66700000
40.89078140 -98.62169647 3.10710168 28 17 16168 106.80800000 3176694802 3176694802 1.66700000
18.78543472 -45.30731201 -3.14338517 20 19 16168 49.14800000 3176694804 3176694804 -3.66700000
15.93501949 -63.39314270 -3.80671048 28 20 16169 65.47600000 3176694806 3176694806 -3.33300000
39.06536102 -109.04535675 6.74575424 42 21 16169 116.02800000 3176694806 3176694806 3.33300000
43.34378815 -142.66120911 6.07450342 28 22 16170 149.22400000 3176694809 3176694809 2.33300000
19.37006378 -54.09849167 -2.67665625 16 23 16170 57.52400000 3176694809 3176694809 -2.66700000
19.17689705 -63.15822983 -3.45919728 28 24 16171 66.09600000 3176694811 3176694811 -3.00000000
38.61474991 -107.90615845 14.07200909 28 25 16171 115.46800000 3176694811 3176694811 7.00000000
37.54203415 -149.79301453 -5.39267015 28 28 16173 154.52000000 3176694816 3176694816 -2.00000000
36.97662735 -103.49933624 -2.55745649 28 31 16174 109.93600000 3176694818 3176694818 -1.33300000
1.90800083 -6.32359219 -3.08004189 2 0 16181 7.28800000 3176694839 3176694839 -25.00000000
37.32796860 -90.60932159 -1.71054530 28 1 16181 98.01200000 3176694839 3176694839 -1.00000000
37.19852829 -123.36307526 -3.74988627 28 2 16182 128.90400000 3176694841 3176694841 -1.66700000
3.35366702 -9.42860508 -2.80142713 23 3 16182 10.39200000 3176694841 3176694841 -15.63900000
3.50150919 -11.61954212 -2.42714763 6 4 16183 12.37600000 3176694843 3176694843 -11.31000000
40.72958374 -114.57176208 0.00000000 28 5 16183 121.59600000 3176694843 3176694843 0.00000000
36.43556595 -146.46173096 -1.75705850 29 6 16183 150.93600000 3176694846 3176694846 -0.66700000
7.60449600 -25.25100327 -3.35671449 3 8 16184 26.58400000 3176694848 3176694848 -7.25400000
39.71263885 -96.54132843 0.60671729 28 9 16184 104.39200000 3176694848 3176694848 0.33300000
40.63959885 -135.03060913 -0.81957281 28 10 16185 141.01600000 3176694850 3176694850 -0.33300000
9.83741379 -27.70314598 -3.16664553 3 11 16185 29.56800000 3176694850 3176694850 -6.14800000
9.32394981 -37.56385422 -3.61292171 5 12 16186 38.87200000 3176694852 3176694852 -5.33300000
39.69023514 -111.83358002 2.76133466 28 13 16186 118.70000000 3176694852 3176694852 1.33300000
15.87526989 -44.75588989 -3.32068729 8 15 16187 47.60400000 3176694855 3176694855 -4.00000000
12.20828342 -40.64078140 -3.46417379 9 16 16188 42.57600000 3176694857 3176694857 -4.66700000
40.60853577 -98.91548157 3.11187267 28 17 16188 106.97200000 3176694857 3176694857 1.66700000
41.14560318 -136.97171021 2.49639225 28 18 16188 143.04000000 3176694859 3176694859 1.00000000
18.70751572 -45.56832504 -3.15694404 20 19 16188 49.36000000 3176694859 3176694859 -3.66700000
40.73806381 -135.78704834 5.77571201 28 22 16190 141.88400000 3176694864 3176694864 2.33300000
19.36250114 -54.67801666 -2.70196939 16 23 16190 58.06800000 3176694864 3176694864 -2.66700000
19.17543221 -63.95559692 -3.49918199 28 24 16191 66.86000000 3176694866 3176694866 -3.00000000
40.15590668 -113.45970917 14.77787685 28 25 16191 121.26000000 3176694866 3176694866 7.00000000
37.30641937 -151.08744812 -5.43454981 28 28 16193 155.72000000 3176694871 3176694871 -2.00000000
37.29965591 -105.50650787 -2.60398293 28 31 16193 111.93600000 3176694873 3176694873 -1.33300000
1.87148523 -6.27777243 -3.05468488 4 0 16200 7.22800000 3176694894 3176694894 -25.00000000
37.69369888 -92.36559296 -1.74133134 28 1 16200 99.77600000 3176694894 3176694894 -1.00000000
37.01298904 -124.23680115 -3.77269316 28 2 16201 129.68800000 3176694896 3176694896 -1.66700000
3.31982470 -9.43240738 -2.79927063 15 3 16201 10.38400000 3176694896 3176694896 -15.63900000
3.46183896 -11.62733078 -2.42636323 7 4 16202 12.37200000 3176694899 3176694899 -11.31000000
6.73277807 -19.15075874 -3.15817666 2 7 16203 20.54400000 3176694901 3176694901 -8.84300000
7.52750874 -25.29890060 -3.35974479 3 8 16203 26.60800000 3176694903 3176694903 -7.25400000
39.83151245 -97.75041199 0.61348236 28 9 16203 105.55600000 3176694903 3176694903 0.33300000
39.87010193 -134.08343506 -0.81301701 28 10 16204 139.88800000 3176694905 3176694905 -0.33300000
9.75999546 -27.77688789 -3.17135787 3 11 16204 29.61200000 3176694905 3176694905 -6.14800000
9.20974541 -37.63711929 -3.61701131 5 12 16205 38.91600000 3176694908 3176694908 -5.33300000
39.32048798 -111.96836090 2.76142788 28 13 16205 118.70400000 3176694908 3176694908 1.33300000
40.73224640 -166.58486938 1.99649239 28 14 16206 171.50400000 3176694910 3176694910 0.66700000
15.77830315 -44.95512772 -3.33156919 8 15 16206 47.76000000 3176694910 3176694910 -4.00000000
12.18233871 -41.04795074 -3.49541783 9 16 16207 42.96000000 3176694912 3176694912 -4.66700000
40.10557938 -98.61996460 3.09837461 28 17 16207 106.50800000 3176694912 3176694912 1.66700000
40.48527527 -136.50100708 2.48522258 28 18 16208 142.40000000 3176694915 3176694915 1.00000000
18.60846329 -45.78126907 -3.16717744 20 19 16208 49.52000000 3176694915 3176694915 -3.66700000
40.27165222 -135.86773682 5.77343225 28 22 16209 141.82800000 3176694919 3176694919 2.33300000
19.36077118 -55.25476456 -2.72728229 16 23 16209 58.61200000 3176694919 3176694919 -2.66700000
19.17312431 -64.72738647 -3.53791070 28 24 16210 67.60000000 3176694922 3176694922 -3.00000000
39.64165878 -113.19880676 14.72669125 28 25 16210 120.84000000 3176694922 3176694922 7.00000000
39.38855743 -133.05882263 11.32821274 28 26 16211 139.22800000 3176694924 3176694924 4.66700000
37.13442993 -106.15806580 -2.61701012 28 31 16212 112.49600000 3176694929 3176694929 -1.33300000
1.85767007 -6.31589079 -3.06989908 2 0 16221 7.26400000 3176694949 3176694949 -25.00000000
37.52263641 -92.91847229 -1.74915004 28 1 16221 100.22400000 3176694949 3176694949 -1.00000000
37.07606125 -126.13619995 -3.82621980 28 2 16222 131.52800000 3176694952 3176694952 -1.66700000
3.24346948 -9.32445431 -2.76368666 28 3 16222 10.25200000 3176694952 3176694952 -15.63900000
3.42141032 -11.64746761 -2.42793202 7 4 16223 12.38000000 3176694954 3176694954 -11.31000000
36.76232147 -152.42274475 -1.82536840 29 6 16224 156.80400000 3176694956 3176694956 -0.66700000
6.67940569 -19.22384262 -3.16617060 2 7 16224 20.59600000 3176694956 3176694956 -8.84300000
7.44479179 -25.36058617 -3.36429048 3 8 16224 26.64400000 3176694958 3176694958 -7.25400000
39.56571198 -98.12574768 0.61492372 28 9 16224 105.80400000 3176694958 3176694958 0.33300000
39.55517578 -134.83125305 -0.81666684 28 10 16225 140.51600000 3176694961 3176694961 -0.33300000
9.70247936 -27.94020844 -3.18592310 3 11 16225 29.74800000 3176694961 3176694961 -6.14800000
9.11276340 -37.84099197 -3.63336945 5 12 16226 39.09200000 3176694963 3176694963 -5.33300000
40.12889481 -166.76416016 1.99686480 28 14 16227 171.53600000 3176694965 3176694965 0.66700000
15.70234966 -45.26900864 -3.35054302 8 15 16227 48.03200000 3176694965 3176694965 -4.00000000
12.01836586 -41.04641342 -3.49151230 9 16 16228 42.91200000 3176694968 3176694968 -4.66700000
41.08570862 -102.10091400 3.20298409 28 17 16228 110.10400000 3176694968 3176694968 1.66700000
39.98832321 -136.57241821 2.48396611 28 18 16228 142.32800000 3176694970 3176694970 1.00000000
18.51858330 -46.01999664 -3.17920136 20 19 16228 49.70800000 3176694970 3176694970 -3.66700000
41.03926849 -118.44747925 7.30040073 42 21 16229 125.56800000 3176694972 3176694972 3.33300000
39.06670761 -133.59773254 5.67084980 28 22 16230 139.30800000 3176694975 3176694975 2.33300000
19.34378052 -55.86150360 -2.75371194 16 23 16230 59.18000000 3176694975 3176694975 -2.66700000
19.12959862 -65.46053314 -3.57412720 28 24 16231 68.29200000 3176694977 3176694977 -3.00000000
38.97069931 -112.60422516 14.63065815 28 25 16231 120.05200000 3176694977 3176694977 7.00000000
38.82684708 -132.94972229 11.30673218 28 26 16232 138.96400000 3176694979 3176694979 4.66700000
37.69219208 -157.36221313 -5.65064716 28 28 16233 161.91200000 3176694982 3176694982 -2.00000000
37.19715500 -107.60115051 -2.64920640 28 31 16233 113.88000000 3176694984 3176694984 -1.33300000
1.85299921 -6.37391233 -3.09525609 2 0 16239 7.32400000 3176695005 3176695005 -25.00000000
37.48908615 -93.68197632 -1.76129687 28 1 16239 100.92000000 3176695005 3176695005 -1.00000000
37.15369797 -127.88385773 -3.87567377 28 2 16240 133.22800000 3176695007 3176695007 -1.66700000
3.21415973 -9.33459759 -2.76368666 20 3 16240 10.25200000 3176695007 3176695007 -15.63900000
3.38698912 -11.66569233 -2.42950106 9 4 16241 12.38800000 3176695010 3176695010 -11.31000000
37.23523712 -156.41825867 -1.87188613 29 6 16241 160.80000000 3176695012 3176695012 -0.66700000
6.63648558 -19.28468704 -3.17293453 2 7 16241 20.64000000 3176695012 3176695012 -8.84300000
7.39493656 -25.48674202 -3.37792754 3 8 16242 26.75200000 3176695014 3176695014 -7.25400000
39.24537277 -98.21984863 0.61473775 28 9 16242 105.77200000 3176695014 3176695014 0.33300000
39.12693787 -134.93948364 -0.81657386 28 10 16243 140.50000000 3176695017 3176695017 -0.33300000
9.62629032 -28.00440216 -3.18977857 3 11 16243 29.78400000 3176695017 3176695017 -6.14800000
9.03156948 -38.02830505 -3.64861226 5 12 16244 39.25600000 3176695019 3176695019 -5.33300000
39.39699554 -166.01377869 1.98638785 28 14 16245 170.63600000 3176695021 3176695021 0.66700000
15.56005573 -45.31811523 -3.35054302 8 15 16245 48.03200000 3176695021 3176695021 -4.00000000
11.91262913 -41.16438675 -3.49834681 9 16 16246 42.99600000 3176695023 3176695023 -4.66700000
