# .PCD v0.7 - Point Cloud Data file format
VERSION 0.7
FIELDS x y z intensity laser_id azimuth distance_m adjustedtime timestamp vertical_angle
SIZE 4 4 4 1 1 2 8 8 4 8
TYPE F F F U U U F U U F
COUNT 1 1 1 1 1 1 1 1 1 1
WIDTH 511
HEIGHT 1
VIEWPOINT 0 0 0 1 0 0 0
POINTS 511
DATA ascii
20.31153679 -7.50540638 -2.02134752 14 12 10608 21.74800000 3182879213 3182879213 -5.33300000
38.67604065 -10.13204193 0.93033952 18 13 10608 39.99200000 3182879213 3182879213 1.33300000
39.26740646 -14.51766396 0.48738888 30 14 10609 41.86800000 3182879216 3182879216 0.66700000
20.41074371 -5.35085106 -1.47548890 28 15 10609 21.15200000 3182879216 3182879216 -4.00000000
20.37989616 -6.42575645 -1.74445426 33 16 10610 21.44000000 3182879218 3182879218 -4.66700000
39.33506393 -8.28919792 1.16990495 22 17 10610 40.21600000 3182879218 3182879218 1.66700000
39.18416977 -12.35472107 0.71715426 18 18 10610 41.09200000 3182879220 3182879220 1.00000000
20.42849731 -4.30495977 -1.33799171 24 19 10610 20.92000000 3182879220 3182879220 -3.66700000
20.40633202 -7.55258036 -1.26719809 16 20 10611 21.79600000 3182879223 3182879223 -3.33300000
39.41913986 -10.34877110 2.37346745 17 21 10611 40.82400000 3182879223 3182879223 3.33300000
39.46967697 -12.45989037 1.68625844 26 22 10612 41.42400000 3182879225 3182879225 2.33300000
20.47425842 -5.37896061 -0.98608756 22 23 10612 21.19200000 3182879225 3182879225 -2.66700000
20.44295692 -6.45740986 -1.12354827 29 24 10613 21.46800000 3182879227 3182879227 -3.00000000
94.90211487 -24.95022011 12.04849052 28 25 10613 98.86400000 3182879227 3182879227 7.00000000
46.13736725 -14.58247566 3.95008254 23 26 10614 48.54800000 3182879229 3182879229 4.66700000
36.03263474 -7.61954355 -1.50047040 6 27 10614 36.86000000 3182879229 3182879229 -2.33300000
39.21218872 -14.54394341 -1.46047413 16 28 10615 41.84800000 3182879232 3182879232 -2.00000000
97.09545898 -30.72590446 18.56826401 28 30 10616 103.52000000 3182879234 3182879234 10.33300000
39.82968140 -10.49371338 -0.95844138 16 31 10616 41.20000000 3182879234 3182879234 -1.33300000
5.74560213 -1.82592392 -2.81125665 7 0 10623 6.65200000 3182879255 3182879255 -25.00000000
39.76881790 -8.47488880 -0.70975447 25 1 10623 40.66800000 3182879255 3182879255 -1.00000000
39.88245392 -12.68211079 -1.21796250 27 2 10624 41.86800000 3182879257 3182879257 -1.66700000
8.92135239 -2.36378717 -2.58361030 3 3 10624 9.58400000 3182879257 3182879257 -15.63900000
11.74380302 -3.73663664 -2.46480203 4 4 10625 12.56800000 3182879259 3182879259 -11.31000000
39.67313385 -10.51914120 0.00000000 20 5 10625 41.04400000 3182879259 3182879259 0.00000000
39.54901123 -14.74744511 -0.49139342 21 6 10625 42.21200000 3182879262 3182879262 -0.66700000
14.16619778 -3.75609922 -2.28008556 3 7 10625 14.83200000 3182879262 3182879262 -8.84300000
16.52669525 -5.26163149 -2.20767355 3 8 10626 17.48400000 3182879264 3182879264 -7.25400000
39.35121155 -8.40743828 0.23387140 33 9 10626 40.24000000 3182879264 3182879264 0.33300000
39.62904358 -12.62438107 -0.24172911 23 10 10627 41.59200000 3182879266 3182879266 -0.33300000
18.15045738 -4.81928825 -2.02284908 3 11 10627 18.88800000 3182879266 3182879266 -6.14800000
20.30760002 -7.58462191 -2.02357817 14 12 10628 21.77200000 3182879269 3182879269 -5.33300000
39.29745865 -10.44155788 0.94615841 37 13 10628 40.67200000 3182879269 3182879269 1.33300000
39.13781357 -14.62524319 0.48641101 30 14 10629 41.78400000 3182879271 3182879271 0.66700000
20.40350914 -5.42514086 -1.47632599 30 15 10629 21.16400000 3182879271 3182879271 -4.00000000
20.36873436 -6.50049257 -1.74543071 35 16 10630 21.45200000 3182879273 3182879273 -4.66700000
39.19642258 -8.40298462 1.16664672 22 17 10630 40.10400000 3182879273 3182879273 1.66700000
39.38464737 -12.56924438 0.72162211 27 18 10630 41.34800000 3182879276 3182879276 1.00000000
20.43286133 -4.38042593 -1.33927083 24 19 10630 20.94000000 3182879276 3182879276 -3.66700000
20.40602493 -7.63355970 -1.26882601 20 20 10631 21.82400000 3182879278 3182879278 -3.33300000
39.42522049 -10.49760914 2.37602544 23 21 10631 40.86800000 3182879278 3182879278 3.33300000
39.40690994 -12.59150696 1.68544424 26 22 10632 41.40400000 3182879280 3182879280 2.33300000
20.46694183 -5.45348263 -0.98664594 22 23 10632 21.20400000 3182879280 3182879280 -2.66700000
20.43551254 -6.53359556 -1.12438571 29 24 10633 21.48400000 3182879282 3182879282 -3.00000000
94.25820160 -25.13302231 11.97780609 28 25 10633 98.28400000 3182879282 3182879282 7.00000000
45.79000473 -14.64868546 3.92469668 34 26 10634 48.23600000 3182879285 3182879285 4.66700000
36.13866425 -7.77385187 -1.50600660 6 27 10634 36.99600000 3182879285 3182879285 -2.33300000
39.18738556 -14.69055367 -1.46145129 16 28 10635 41.87600000 3182879287 3182879287 -2.00000000
96.92390442 -31.04423904 18.55606842 28 30 10636 103.45200000 3182879289 3182879289 10.33300000
39.81598663 -10.63887501 -0.95899969 16 31 10636 41.22400000 3182879289 3182879289 -1.33300000
5.73919344 -1.84596872 -2.81125665 7 0 10643 6.65200000 3182879310 3182879310 -25.00000000
39.86406708 -8.64076710 -0.71198839 25 1 10643 40.79600000 3182879310 3182879310 -1.00000000
39.89503098 -12.83962345 -1.21970797 27 2 10644 41.92800000 3182879312 3182879312 -1.66700000
8.92048645 -2.39691329 -2.58576679 2 3 10644 9.59200000 3182879312 3182879312 -15.63900000
11.74562263 -3.78241658 -2.46794009 4 4 10645 12.58400000 3182879315 3182879315 -11.31000000
39.48938751 -10.61809349 0.00000000 13 5 10645 40.89200000 3182879315 3182879315 0.00000000
39.52349091 -14.89528084 -0.49171937 21 6 10645 42.24000000 3182879317 3182879317 -0.66700000
14.15681648 -3.80655193 -2.28070045 2 7 10645 14.83600000 3182879317 3182879317 -8.84300000
16.51200485 -5.32050514 -2.20817876 3 8 10646 17.48800000 3182879319 3182879319 -7.25400000
39.58350754 -8.60165691 0.23542900 16 9 10646 40.50800000 3182879319 3182879319 0.33300000
39.66848755 -12.78963852 -0.24224056 23 10 10647 41.68000000 3182879322 3182879322 -0.33300000
18.15656471 -4.88881969 -2.02541947 3 11 10647 18.91200000 3182879322 3182879322 -6.14800000
20.30708313 -7.66530800 -2.02618074 15 12 10648 21.80000000 3182879324 3182879324 -5.33300000
39.07157135 -10.52768898 0.94159883 25 13 10648 40.47600000 3182879324 3182879324 1.33300000
39.08277893 -14.76035690 0.48636445 20 14 10649 41.78000000 3182879326 3182879326 0.66700000
20.39985847 -5.50048494 -1.47744215 30 15 10649 21.18000000 3182879326 3182879326 -4.00000000
20.38006401 -6.58258152 -1.74835980 33 16 10650 21.48800000 3182879329 3182879329 -4.66700000
39.26451492 -8.56104851 1.16955578 15 17 10650 40.20400000 3182879329 3182879329 1.66700000
39.42425919 -12.73368931 0.72315794 18 18 10650 41.43600000 3182879331 3182879331 1.00000000
20.43304634 -4.45512486 -1.34029424 24 19 10650 20.95600000 3182879331 3182879331 -3.66700000
20.40913582 -7.71604061 -1.27068639 20 20 10651 21.85600000 3182879333 3182879333 -3.33300000
39.99360275 -10.79859066 2.41253686 24 21 10651 41.49600000 3182879333 3182879333 3.33300000
39.40074539 -12.74128342 1.68707252 26 22 10652 41.44400000 3182879335 3182879335 2.33300000
20.46706772 -5.53010368 -0.98757654 23 23 10652 21.22400000 3182879335 3182879335 -2.66700000
20.44298553 -6.61472702 -1.12606049 25 24 10653 21.51600000 3182879338 3182879338 -3.00000000
93.84412384 -25.37380981 11.93637085 28 25 10653 97.94400000 3182879338 3182879338 7.00000000
48.01054001 -15.54400444 4.11964607 26 26 10654 50.63200000 3182879340 3182879340 4.66700000
36.16987610 -7.91276407 -1.50844896 6 27 10654 37.05600000 3182879340 3182879340 -2.33300000
39.18820190 -14.84708214 -1.46340573 16 28 10655 41.93200000 3182879342 3182879342 -2.00000000
97.00212097 -31.44304657 18.59194183 28 30 10656 103.65200000 3182879345 3182879345 10.33300000
39.83264542 -10.79243469 -0.96030241 16 31 10656 41.28000000 3182879345 3182879345 -1.33300000
5.73616171 -1.86711311 -2.81294703 7 0 10663 6.65600000 3182879365 3182879365 -25.00000000
39.83756638 -8.78072739 -0.71205819 25 1 10663 40.80000000 3182879365 3182879365 -1.00000000
39.91460037 -12.99985409 -1.22168612 18 2 10664 41.99600000 3182879368 3182879368 -1.66700000
8.91206551 -2.42803693 -2.58576679 3 3 10664 9.59200000 3182879368 3182879368 -15.63900000
11.73234844 -3.82339358 -2.46794009 3 4 10665 12.58400000 3182879370 3182879370 -11.31000000
39.53312683 -10.77796745 0.00000000 20 5 10665 40.97600000 3182879370 3182879370 0.00000000
39.65441132 -15.10290909 -0.49400100 21 6 10665 42.43600000 3182879372 3182879372 -0.66700000
14.15869617 -3.86010361 -2.28316021 3 7 10665 14.85200000 3182879372 3182879372 -8.84300000
16.51219559 -5.38426113 -2.21070409 3 8 10666 17.50800000 3182879375 3182879375 -7.25400000
39.44388199 -8.71561241 0.23477806 25 9 10666 40.39600000 3182879375 3182879375 0.33300000
39.53233719 -12.89825344 -0.24168262 23 10 10667 41.58400000 3182879377 3182879377 -0.33300000
18.14706230 -4.95426321 -2.02627611 3 11 10667 18.92000000 3182879377 3182879377 -6.14800000
20.29880905 -7.74324369 -2.02803946 15 12 10668 21.82000000 3182879379 3182879379 -5.33300000
39.24289322 -10.72091866 0.94662368 18 13 10668 40.69200000 3182879379 3182879379 1.33300000
39.07585907 -14.91380596 0.48692322 30 14 10669 41.82800000 3182879381 3182879381 0.66700000
20.39977837 -5.57692146 -1.47883725 28 15 10669 21.20000000 3182879381 3182879381 -4.00000000
20.37211990 -6.65863514 -1.74966168 33 16 10670 21.50400000 3182879384 3182879384 -4.66700000
39.30075455 -8.71276760 1.17153394 22 17 10670 40.27200000 3182879384 3182879384 1.66700000
39.31874847 -12.85134792 0.72204095 27 18 10670 41.37200000 3182879386 3182879386 1.00000000
20.42126846 -4.52728605 -1.34055007 24 19 10670 20.96000000 3182879386 3182879386 -3.66700000
20.39699745 -7.79293537 -1.27161670 20 20 10671 21.87200000 3182879388 3182879388 -3.33300000
40.15209198 -10.99190140 2.42439723 18 21 10671 41.70000000 3182879388 3182879388 3.33300000
39.66750336 -12.98066616 1.70042455 35 22 10672 41.77200000 3182879391 3182879391 2.33300000
20.46690750 -5.60679197 -0.98850721 22 23 10672 21.24400000 3182879391 3182879391 -2.66700000
20.43875122 -6.69226074 -1.12710714 29 24 10673 21.53600000 3182879393 3182879393 -3.00000000
93.36060333 -25.59312057 11.88616085 28 25 10673 97.53200000 3182879393 3182879393 7.00000000
48.98648453 -16.04911232 4.20817041 14 26 10674 51.72000000 3182879395 3182879395 4.66700000
36.27857971 -8.06934357 -1.51414800 6 27 10674 37.19600000 3182879395 3182879395 -2.33300000
39.18466949 -15.00236511 -1.46522045 24 28 10675 41.98400000 3182879398 3182879398 -2.00000000
39.85256958 -10.94729900 -0.96169823 11 31 10676 41.34000000 3182879400 3182879400 -1.33300000
5.72616625 -1.88599050 -2.81125665 7 0 10683 6.65200000 3182879421 3182879421 -25.00000000
39.85350418 -8.93022633 -0.71289587 25 1 10683 40.84800000 3182879421 3182879421 -1.00000000
39.88416672 -13.14410877 -1.22215152 18 2 10684 42.01200000 3182879423 3182879423 -1.66700000
8.90353584 -2.45913100 -2.58576679 2 3 10684 9.59200000 3182879423 3182879423 -15.63900000
11.73010540 -3.86800861 -2.47029328 4 4 10685 12.59600000 3182879425 3182879425 -11.31000000
39.55309296 -10.93188190 0.00000000 20 5 10685 41.03600000 3182879425 3182879425 0.00000000
39.54545593 -15.21968651 -0.49330255 32 6 10685 42.37600000 3182879428 3182879428 -0.66700000
14.16037464 -3.91371489 -2.28561974 2 7 10685 14.86800000 3182879428 3182879428 -8.84300000
16.51214027 -5.44808292 -2.21322942 3 8 10686 17.52800000 3182879430 3182879430 -7.25400000
39.66299057 -8.90934944 0.23626591 25 9 10686 40.65200000 3182879430 3182879430 0.33300000
39.45668793 -13.02613640 -0.24149664 23 10 10687 41.55200000 3182879432 3182879432 -0.33300000
18.14882278 -5.02288198 -2.02841806 3 11 10687 18.94000000 3182879432 3182879432 -6.14800000
20.28652000 -7.81978226 -2.02952671 12 12 10688 21.83600000 3182879434 3182879434 -5.33300000
39.11273956 -10.83222103 0.94439042 18 13 10688 40.59600000 3182879434 3182879434 1.33300000
39.05341721 -15.06162930 0.48729575 30 14 10689 41.86000000 3182879437 3182879437 0.66700000
20.39556885 -5.65235853 -1.47995329 28 15 10689 21.21600000 3182879437 3182879437 -4.00000000
20.36767769 -6.73596573 -1.75128889 33 16 10690 21.52400000 3182879439 3182879439 -4.66700000
39.05557251 -8.80155373 1.16513407 22 17 10690 40.05200000 3182879439 3182879439 1.66700000
39.29643250 -12.99605179 0.72245979 18 18 10690 41.39600000 3182879441 3182879441 1.00000000
20.43649483 -4.60556269 -1.34259665 24 19 10690 20.99200000 3182879441 3182879441 -3.66700000
20.39947319 -7.87559223 -1.27347708 20 20 10691 21.90400000 3182879444 3182879444 -3.33300000
40.05191040 -11.11490631 2.42067623 36 21 10691 41.63600000 3182879444 3182879444 3.33300000
39.67127609 -13.13538361 1.70254135 26 22 10692 41.82400000 3182879446 3182879446 2.33300000
20.46261024 -5.68247700 -0.98925167 22 23 10692 21.26000000 3182879446 3182879446 -2.66700000
20.43801880 -6.77110195 -1.12836325 32 24 10693 21.56000000 3182879448 3182879448 -3.00000000
94.97675323 -26.39294624 12.10357571 28 25 10693 99.31600000 3182879448 3182879448 7.00000000
48.71067810 -16.14725113 4.18929386 14 26 10694 51.48800000 3182879451 3182879451 4.66700000
36.26968384 -8.20033741 -1.51496220 6 27 10694 37.21600000 3182879451 3182879451 -2.33300000
39.08359528 -15.12030315 -1.46340573 24 28 10695 41.93200000 3182879453 3182879453 -2.00000000
39.74670410 -11.06009865 -0.96002328 28 31 10695 41.26800000 3182879455 3182879455 -1.33300000
5.72642660 -1.90825927 -2.81463766 8 0 10703 6.66000000 3182879476 3182879476 -25.00000000
39.76359940 -9.05596542 -0.71184874 17 1 10703 40.78800000 3182879476 3182879476 -1.00000000
39.91011047 -13.30727959 -1.22436237 18 2 10704 42.08800000 3182879478 3182879478 -1.66700000
8.89860725 -2.49123359 -2.58684516 2 3 10704 9.59600000 3182879478 3182879478 -15.63900000
11.71653175 -3.90893078 -2.47029328 4 4 10705 12.59600000 3182879481 3182879481 -11.31000000
39.49158478 -11.06340694 0.00000000 20 5 10705 41.01200000 3182879481 3182879481 0.00000000
39.16511536 -15.23834991 -0.48925143 31 6 10706 42.02800000 3182879483 3182879483 -0.66700000
14.15354633 -3.96772289 -2.28684950 5 7 10706 14.87600000 3182879483 3182879483 -8.84300000
16.50431442 -5.50945711 -2.21474457 3 8 10706 17.54000000 3182879485 3182879485 -7.25400000
39.55365753 -9.02993965 0.23580097 25 9 10706 40.57200000 3182879485 3182879485 0.33300000
39.45270920 -13.17772579 -0.24175236 23 10 10707 41.59600000 3182879487 3182879487 -0.33300000
18.14649582 -5.09049940 -2.03013158 4 11 10707 18.95600000 3182879487 3182879487 -6.14800000
20.28507805 -7.90066576 -2.03212905 10 12 10708 21.86400000 3182879490 3182879490 -5.33300000
39.02848816 -10.95571423 0.94327378 25 13 10708 40.54800000 3182879490 3182879490 1.33300000
39.02669144 -15.20802498 0.48762169 20 14 10709 41.88800000 3182879492 3182879492 0.66700000
20.39492226 -5.72891331 -1.48134851 26 15 10709 21.23600000 3182879492 3182879492 -4.00000000
20.37050629 -6.81587601 -1.75356710 33 16 10710 21.55200000 3182879494 3182879494 -4.66700000
39.13373947 -8.96282291 1.16839218 22 17 10710 40.16400000 3182879494 3182879494 1.66700000
39.33955383 -13.17046547 0.72413522 27 18 10711 41.49200000 3182879497 3182879497 1.00000000
20.42725754 -4.68221903 -1.34310830 24 19 10711 21.00000000 3182879497 3182879497 -3.66700000
20.39789963 -7.95691013 -1.27510500 20 20 10711 21.93200000 3182879499 3182879499 -3.33300000
39.40166473 -11.08272839 2.38369989 23 21 10711 41.00000000 3182879499 3182879499 3.33300000
39.63276291 -13.27632141 1.70286691 26 22 10712 41.83200000 3182879501 3182879501 2.33300000
20.45418930 -5.75711823 -0.98981005 20 23 10712 21.27200000 3182879501 3182879501 -2.66700000
20.42940712 -6.84748077 -1.12920058 29 24 10713 21.57600000 3182879504 3182879504 -3.00000000
96.42793274 -27.15915680 12.30051613 28 25 10713 100.93200000 3182879504 3182879504 7.00000000
49.04333878 -16.44775391 4.22281599 30 26 10714 51.90000000 3182879506 3182879506 4.66700000
36.27589417 -8.33494759 -1.51642764 6 27 10714 37.25200000 3182879506 3182879506 -2.33300000
39.03802490 -15.25954914 -1.46368492 24 28 10715 41.94000000 3182879508 3182879508 -2.00000000
39.81177139 -11.22808075 -0.96253568 16 31 10715 41.37600000 3182879511 3182879511 -1.33300000
5.71629524 -1.92707849 -2.81294703 8 0 10723 6.65600000 3182879531 3182879531 -25.00000000
39.63822937 -9.17306995 -0.71017331 25 1 10723 40.69200000 3182879531 3182879531 -1.00000000
39.72702789 -13.40050507 -1.22017336 18 2 10724 41.94400000 3182879534 3182879534 -1.66700000
8.89356232 -2.52333188 -2.58792353 2 3 10724 9.60000000 3182879534 3182879534 -15.63900000
11.71396542 -3.95356822 -2.47264671 4 4 10725 12.60800000 3182879536 3182879536 -11.31000000
39.51044464 -11.21757793 0.00000000 20 5 10725 41.07200000 3182879536 3182879536 0.00000000
39.68494034 -15.60031796 -0.49642235 32 6 10726 42.64400000 3182879538 3182879538 -0.66700000
14.14341164 -4.01818371 -2.28746438 3 7 10726 14.88000000 3182879538 3182879538 -8.84300000
16.50377846 -5.57338238 -2.21726990 3 8 10726 17.56000000 3182879540 3182879540 -7.25400000
39.59592819 -9.18512535 0.23624267 25 9 10726 40.64800000 3182879540 3182879540 0.33300000
39.64899445 -13.39731026 -0.24324021 23 10 10727 41.85200000 3182879543 3182879543 -0.33300000
18.14391708 -5.15816164 -2.03184509 4 11 10727 18.97200000 3182879543 3182879543 -6.14800000
20.29073143 -7.98455095 -2.03547502 7 12 10728 21.90000000 3182879545 3182879545 -5.33300000
39.05154800 -11.10939026 0.94476265 31 13 10728 40.61200000 3182879545 3182879545 1.33300000
39.17061615 -15.42181969 0.49008960 30 14 10729 42.10000000 3182879547 3182879547 0.66700000
20.38247681 -5.80225515 -1.48190653 28 15 10729 21.24400000 3182879547 3182879547 -4.00000000
20.35791969 -6.89077568 -1.75454354 33 16 10730 21.56400000 3182879550 3182879550 -4.66700000
39.17620468 -9.11658859 1.17060304 30 17 10730 40.24000000 3182879550 3182879550 1.66700000
39.42825317 -13.34572697 0.72657859 18 18 10730 41.63200000 3182879552 3182879552 1.00000000
20.43105888 -4.75445652 -1.34438753 26 19 10730 21.02000000 3182879552 3182879552 -3.66700000
20.38857651 -8.03538418 -1.27626777 20 20 10731 21.95200000 3182879554 3182879554 -3.33300000
39.25905228 -11.19064331 2.37742090 47 21 10731 40.89200000 3182879554 3182879554 3.33300000
39.49533081 -13.38379955 1.69895911 35 22 10732 41.73600000 3182879557 3182879557 2.33300000
20.44933891 -5.83286524 -0.99055457 20 23 10732 21.28800000 3182879557 3182879557 -2.66700000
20.43186188 -6.92772961 -1.13066602 29 24 10733 21.60400000 3182879559 3182879559 -3.00000000
97.45494843 -27.81594849 12.44383526 28 25 10733 102.10800000 3182879559 3182879559 7.00000000
48.05310822 -16.30247879 4.14242792 40 26 10734 50.91200000 3182879561 3182879561 4.66700000
36.38280106 -8.49332333 -1.52212667 6 27 10734 37.39200000 3182879561 3182879561 -2.33300000
39.02542114 -15.41187572 -1.46522045 16 28 10735 41.98400000 3182879564 3182879564 -2.00000000
39.83385468 -11.38456345 -0.96402454 16 31 10735 41.44000000 3182879566 3182879566 -1.33300000
5.70953369 -1.94702041 -2.81294703 9 0 10743 6.65600000 3182879586 3182879586 -25.00000000
39.60207748 -9.31046200 -0.71010351 25 1 10743 40.68800000 3182879586 3182879586 -1.00000000
39.68757629 -13.54167938 -1.22040606 27 2 10744 41.95200000 3182879588 3182879588 -1.66700000
8.89950752 -2.55861807 -2.59223676 3 3 10744 9.61600000 3182879588 3182879588 -15.63900000
11.70380497 -3.99570084 -2.47343135 4 4 10745 12.61200000 3182879591 3182879591 -11.31000000
39.40569687 -11.33662605 0.00000000 20 5 10745 41.00400000 3182879591 3182879591 0.00000000
39.80399704 -15.79971123 -0.49856430 32 6 10745 42.82800000 3182879593 3182879593 -0.66700000
14.13760662 -4.06724834 -2.28869438 2 7 10745 14.88800000 3182879593 3182879593 -8.84300000
16.49173355 -5.63352251 -2.21828008 3 8 10746 17.56800000 3182879595 3182879595 -7.25400000
39.55973053 -9.32236767 0.23621942 25 9 10746 40.64400000 3182879595 3182879595 0.33300000
39.63605118 -13.54727173 -0.24344943 23 10 10747 41.88800000 3182879598 3182879598 -0.33300000
18.14491081 -5.22696877 -2.03398705 4 11 10747 18.99200000 3182879598 3182879598 -6.14800000
20.29234505 -8.06710052 -2.03844929 12 12 10748 21.93200000 3182879600 3182879600 -5.33300000
39.08938217 -11.26778984 0.94662368 18 13 10748 40.69200000 3182879600 3182879600 1.33300000
39.11283112 -15.55697823 0.49004304 30 14 10749 42.09600000 3182879602 3182879602 0.66700000
20.38893509 -5.88110924 -1.48385966 28 15 10749 21.27200000 3182879602 3182879602 -4.00000000
20.34882927 -6.96696138 -1.75584531 33 16 10750 21.58000000 3182879604 3182879604 -4.66700000
39.11690521 -9.24684525 1.16978860 38 17 10750 40.21200000 3182879604 3182879604 1.66700000
39.40791321 -13.49234486 0.72706723 28 18 10750 41.66000000 3182879607 3182879607 1.00000000
20.43376160 -4.83033657 -1.34566665 26 19 10750 21.04000000 3182879607 3182879607 -3.66700000
20.39750290 -8.12127686 -1.27859330 20 20 10751 21.99200000 3182879609 3182879609 -3.33300000
39.16603851 -11.31210136 2.37416506 17 21 10751 40.83600000 3182879609 3182879609 3.33300000
39.46727371 -13.52806187 1.69977319 26 22 10752 41.75600000 3182879611 3182879611 2.33300000
20.45188522 -5.91086769 -0.99167132 20 23 10752 21.31200000 3182879611 3182879611 -2.66700000
20.42266846 -7.00419140 -1.13150334 29 24 10753 21.62000000 3182879614 3182879614 -3.00000000
94.68372345 -27.38276672 12.10211372 28 25 10753 99.30400000 3182879614 3182879614 7.00000000
48.34660339 -16.59045982 4.17269564 42 26 10754 51.28400000 3182879616 3182879616 4.66700000
36.39570999 -8.63041496 -1.52391779 6 27 10754 37.43600000 3182879616 3182879616 -2.33300000
39.09020233 -15.59540844 -1.46968758 25 28 10755 42.11200000 3182879618 3182879618 -2.00000000
51.26852417 -17.60313797 9.88322449 20 30 10755 55.10000000 3182879621 3182879621 10.33300000
39.91678619 -11.55913448 -0.96700221 17 31 10755 41.56800000 3182879621 3182879621 -1.33300000
5.70612955 -1.96812057 -2.81463766 7 0 10763 6.66000000 3182879641 3182879641 -25.00000000
39.66658401 -9.47186470 -0.71184874 17 1 10763 40.78800000 3182879641 3182879641 -1.00000000
39.82904434 -13.74534988 -1.22622418 18 2 10764 42.15200000 3182879644 3182879644 -1.66700000
8.89791870 -2.59182191 -2.59439325 2 3 10764 9.62400000 3182879644 3182879644 -15.63900000
11.70461655 -4.04165125 -2.47656918 4 4 10765 12.62800000 3182879646 3182879646 -11.31000000
39.47724915 -11.50656891 0.00000000 20 5 10765 41.12000000 3182879646 3182879646 0.00000000
39.58154678 -15.87156963 -0.49646890 32 6 10765 42.64800000 3182879648 3182879648 -0.66700000
14.14988422 -4.12431526 -2.29299855 6 7 10765 14.91600000 3182879648 3182879648 -8.84300000
16.48321915 -5.69494247 -2.21979547 3 8 10766 17.58000000 3182879651 3182879651 -7.25400000
39.66699219 -9.49391842 0.23705633 25 9 10766 40.78800000 3182879651 3182879651 0.33300000
39.58474350 -13.68423843 -0.24342619 23 10 10767 41.88400000 3182879653 3182879653 -0.33300000
18.14564323 -5.29584551 -2.03612900 4 11 10767 19.01200000 3182879653 3182879653 -6.14800000
20.29732323 -8.15124321 -2.04179525 12 12 10768 21.96800000 3182879655 3182879655 -5.33300000
38.97687912 -11.38286972 0.94485569 18 13 10768 40.61600000 3182879655 3182879655 1.33300000
39.19931793 -15.75007915 0.49181247 20 14 10769 42.24800000 3182879657 3182879657 0.66700000
20.38360214 -5.95672083 -1.48497581 28 15 10769 21.28800000 3182879657 3182879657 -4.00000000
20.35452461 -7.04838610 -1.75844896 33 16 10770 21.61200000 3182879660 3182879660 -4.66700000
39.17381287 -9.40480042 1.17246485 22 17 10770 40.30400000 3182879660 3182879660 1.66700000
39.44371796 -13.65861225 0.72860307 18 18 10770 41.74800000 3182879662 3182879662 1.00000000
20.42453957 -4.90349817 -1.34617829 28 19 10770 21.04800000 3182879662 3182879662 -3.66700000
20.38385010 -8.19838810 -1.27952361 20 20 10771 22.00800000 3182879664 3182879664 -3.33300000
39.46740723 -11.54855537 2.39486265 18 21 10771 41.19200000 3182879664 3182879664 3.33300000
39.45002365 -13.67621899 1.70107579 26 22 10772 41.78800000 3182879667 3182879667 2.33300000
20.45030022 -5.98783588 -0.99260193 20 23 10772 21.33200000 3182879667 3182879667 -2.66700000
20.42451286 -7.08460045 -1.13296878 29 24 10773 21.64800000 3182879669 3182879669 -3.00000000
94.51136017 -27.69078255 12.09236336 28 25 10773 99.22400000 3182879669 3182879669 7.00000000
48.05864716 -16.67938232 4.15284252 27 26 10774 51.04000000 3182879671 3182879671 4.66700000
36.50912857 -8.79202843 -1.52994239 6 27 10774 37.58400000 3182879671 3182879671 -2.33300000
39.11709595 -15.76463795 -1.47275877 16 28 10775 42.20000000 3182879674 3182879674 -2.00000000
51.62682724 -17.92786217 9.96429920 20 30 10775 55.55200000 3182879676 3182879676 10.33300000
39.97212601 -11.72654247 -0.96932852 17 31 10775 41.66800000 3182879676 3182879676 -1.33300000
5.70264769 -1.98922074 -2.81632805 6 0 10783 6.66400000 3182879697 3182879697 -25.00000000
39.73044968 -9.63383007 -0.71359402 25 1 10783 40.88800000 3182879697 3182879697 -1.00000000
39.78082275 -13.88429546 -1.22622418 18 2 10784 42.15200000 3182879699 3182879699 -1.66700000
8.88142872 -2.62068534 -2.59223676 2 3 10784 9.61600000 3182879699 3182879699 -15.63900000
11.70154572 -4.08636284 -2.47892261 3 4 10785 12.64000000 3182879701 3182879701 -11.31000000
39.37929916 -11.62730980 0.00000000 20 5 10785 41.06000000 3182879701 3182879701 0.00000000
39.48141479 -15.99162006 -0.49591014 32 6 10785 42.60000000 3182879704 3182879704 -0.66700000
14.14298344 -4.17592096 -2.29422855 4 7 10785 14.92400000 3182879704 3182879704 -8.84300000
16.47822380 -5.75768042 -2.22181559 3 8 10786 17.59600000 3182879706 3182879706 -7.25400000
39.48202515 -9.59548378 0.23614968 25 9 10786 40.63200000 3182879706 3182879706 0.33300000
39.55561447 -13.82893181 -0.24354243 23 10 10787 41.90400000 3182879708 3182879708 -0.33300000
18.13467407 -5.36140823 -2.03698587 3 11 10787 19.02000000 3182879708 3182879708 -6.14800000
20.29088974 -8.23102665 -2.04402590 15 12 10788 21.99200000 3182879710 3182879710 -5.33300000
39.15547943 -11.58351612 0.95015967 25 13 10788 40.84400000 3182879710 3182879710 1.33300000
39.20339966 -15.91088009 0.49255753 31 14 10789 42.31200000 3182879713 3182879713 0.66700000
20.40094757 -6.03916311 -1.48776603 26 15 10789 21.32800000 3182879713 3182879713 -4.00000000
20.35613632 -7.12861729 -1.76072717 33 16 10790 21.64000000 3182879715 3182879715 -4.66700000
39.10189819 -9.53201485 1.17130125 22 17 10790 40.26400000 3182879715 3182879715 1.66700000
39.51039886 -13.84408665 0.73076719 28 18 10791 41.87200000 3182879717 3182879717 1.00000000
20.41806412 -4.98116302 -1.34694576 26 19 10791 21.06000000 3182879717 3182879717 -3.66700000
20.38470459 -8.28151512 -1.28138399 16 20 10791 22.04000000 3182879720 3182879720 -3.33300000
39.53405762 -11.71802711 2.40137410 18 21 10791 41.30400000 3182879720 3182879720 3.33300000
39.30398178 -13.77946281 1.69684231 17 22 10792 41.68400000 3182879722 3182879722 2.33300000
20.45608902 -6.06713772 -0.99390483 20 23 10792 21.36000000 3182879722 3182879722 -2.66700000
20.42981339 -7.16643000 -1.13464355 29 24 10793 21.68000000 3182879724 3182879724 -3.00000000
64.93207550 -19.27074432 8.31636429 28 25 10793 68.24000000 3182879724 3182879724 7.00000000
47.55248260 -16.68992043 4.11411333 26 26 10794 50.56400000 3182879727 3182879727 4.66700000
36.53645325 -8.93365479 -1.53238487 6 27 10794 37.64400000 3182879727 3182879727 -2.33300000
39.10625839 -15.91917229 -1.47443390 25 28 10795 42.24800000 3182879729 3182879729 -2.00000000
39.97311401 -11.87852955 -0.97035211 17 31 10795 41.71200000 3182879731 3182879731 -1.33300000
5.70592594 -2.01273251 -2.82139945 7 0 10803 6.67600000 3182879752 3182879752 -25.00000000
39.68492889 -9.76958847 -0.71338457 25 1 10803 40.87600000 3182879752 3182879752 -1.00000000
39.81129074 -14.05101681 -1.22866786 27 2 10804 42.23600000 3182879754 3182879754 -1.66700000
8.88698864 -2.65608358 -2.59654999 4 3 10804 9.63200000 3182879754 3182879754 -15.63900000
11.69830608 -4.13110209 -2.48127604 3 4 10805 12.65200000 3182879756 3182879756 -11.31000000
39.29248428 -11.75094509 0.00000000 20 5 10805 41.01200000 3182879756 3182879756 0.00000000
39.58541107 -16.20288467 -0.49795899 21 6 10806 42.77600000 3182879759 3182879759 -0.66700000
14.13136959 -4.22886276 -2.29484344 3 7 10806 14.92800000 3182879759 3182879759 -8.84300000
16.47673225 -5.82177448 -2.22434092 3 8 10806 17.61600000 3182879761 3182879761 -7.25400000
39.60751343 -9.77252865 0.23710284 17 9 10806 40.79600000 3182879761 3182879761 0.33300000
39.64286423 -14.01491833 -0.24437934 23 10 10807 42.04800000 3182879763 3182879763 -0.33300000
18.14251709 -5.43266344 -2.03998446 3 11 10807 19.04800000 3182879763 3182879763 -6.14800000
20.28414726 -8.31086445 -2.04625654 15 12 10808 22.01600000 3182879766 3182879766 -5.33300000
39.11097717 -11.71897602 0.95006663 19 13 10808 40.84000000 3182879766 3182879766 1.33300000
39.22904205 -16.08100510 0.49358192 31 14 10809 42.40000000 3182879768 3182879768 0.66700000
20.38356400 -6.11148500 -1.48804510 24 15 10809 21.33200000 3182879768 3182879768 -4.00000000
20.36119270 -7.21027660 -1.76333082 30 16 10810 21.67200000 3182879770 3182879770 -4.66700000
38.95582962 -9.64059353 1.16792679 22 17 10810 40.14800000 3182879770 3182879770 1.66700000
39.46804428 -13.97636700 0.73083699 28 18 10810 41.87600000 3182879773 3182879773 1.00000000
20.42080879 -5.05363941 -1.34822488 26 19 10810 21.08000000 3182879773 3182879773 -3.66700000
20.38522720 -8.36474705 -1.28324449 16 20 10811 22.07200000 3182879775 3182879775 -3.33300000
39.20667267 -13.89921474 1.69472551 26 22 10812 41.63200000 3182879777 3182879777 2.33300000
20.44626617 -6.14195442 -0.99446315 19 23 10812 21.37200000 3182879777 3182879777 -2.66700000
20.42726135 -7.24571180 -1.13589954 29 24 10813 21.70400000 3182879780 3182879780 -3.00000000
64.86441040 -19.49728203 8.31636429 28 25 10813 68.24000000 3182879780 3182879780 7.00000000
47.55029297 -16.87581062 4.11899519 13 26 10814 50.62400000 3182879782 3182879782 4.66700000
36.64080811 -9.09483528 -1.53808391 7 27 10814 37.78400000 3182879782 3182879782 -2.33300000
39.09481812 -16.07382393 -1.47610915 25 28 10815 42.29600000 3182879784 3182879784 -2.00000000
39.93313980 -12.02611160 -0.97044516 17 31 10816 41.71600000 3182879786 3182879786 -1.33300000
5.69922018 -2.03164291 -2.82139945 8 0 10822 6.67600000 3182879807 3182879807 -25.00000000
39.78036118 -9.93310833 -0.71568829 17 1 10822 41.00800000 3182879807 3182879807 -1.00000000
39.83979797 -14.20982265 -1.23099506 18 2 10823 42.31600000 3182879809 3182879809 -1.66700000
8.88550568 -2.68776989 -2.59870648 3 3 10823 9.64000000 3182879809 3182879809 -15.63900000
11.68823719 -4.17119074 -2.48206043 3 4 10824 12.65600000 3182879812 3182879812 -11.31000000
39.74334717 -12.02950573 0.00000000 20 5 10824 41.52400000 3182879812 3182879812 0.00000000
39.40577698 -16.28213310 -0.49637580 21 6 10825 42.64000000 3182879814 3182879814 -0.66700000
14.13239956 -4.28028345 -2.29730296 3 7 10825 14.94400000 3182879814 3182879814 -8.84300000
16.47228432 -5.88171864 -2.22636127 3 8 10825 17.63200000 3182879816 3182879816 -7.25400000
39.19850159 -9.80962563 0.23484781 25 9 10825 40.40800000 3182879816 3182879816 0.33300000
39.58486938 -14.14226532 -0.24430960 23 10 10826 42.03600000 3182879819 3182879819 -0.33300000
18.14343262 -5.49856329 -2.04212642 4 11 10826 19.06800000 3182879819 3182879819 -6.14800000
20.27855682 -8.38721657 -2.04848719 15 12 10827 22.04000000 3182879821 3182879821 -5.33300000
39.22114563 -11.89386749 0.95369571 19 13 10827 40.99600000 3182879821 3182879821 1.33300000
39.09419250 -16.17735863 0.49255753 31 14 10828 42.31200000 3182879823 3182879823 0.66700000
20.38609505 -6.18599749 -1.48971927 28 15 10828 21.35600000 3182879823 3182879823 -4.00000000
20.36344528 -7.28715992 -1.76560903 33 16 10829 21.70000000 3182879826 3182879826 -4.66700000
38.92752457 -9.77069664 1.16804314 22 17 10829 40.15200000 3182879826 3182879826 1.66700000
39.92229462 -14.28639126 0.74012166 58 18 10829 42.40800000 3182879828 3182879828 1.00000000
20.41942406 -5.12521648 -1.34924829 28 19 10829 21.09600000 3182879828 3182879828 -3.66700000
20.39057922 -8.44605446 -1.28533745 20 20 10830 22.10800000 3182879830 3182879830 -3.33300000
40.12201691 -12.19000053 2.44207144 12 21 10830 42.00400000 3182879830 3182879830 3.33300000
39.13026428 -14.01836872 1.69342291 17 22 10831 41.60000000 3182879833 3182879833 2.33300000
20.45254707 -6.21785831 -0.99576604 19 23 10831 21.40000000 3182879833 3182879833 -2.66700000
20.42568207 -7.32149839 -1.13715565 29 24 10832 21.72800000 3182879835 3182879835 -3.00000000
64.72343445 -19.68916321 8.30661488 56 25 10832 68.16000000 3182879835 3182879835 7.00000000
43.96278381 -15.76693058 3.81273913 32 26 10833 46.86000000 3182879837 3182879837 4.66700000
36.64920807 -9.22604752 -1.53971219 7 27 10833 37.82400000 3182879837 3182879837 -2.33300000
39.04868698 -16.20644379 -1.47638834 25 28 10834 42.30400000 3182879839 3182879839 -2.00000000
39.97549438 -12.17597485 -0.97239923 17 31 10834 41.80000000 3182879842 3182879842 -1.33300000
5.69550419 -2.05275369 -2.82309008 7 0 10842 6.68000000 3182879862 3182879862 -25.00000000
39.66791153 -10.05225849 -0.71429211 17 1 10842 40.92800000 3182879862 3182879862 -1.00000000
39.69968414 -14.31625080 -1.22820234 27 2 10843 42.22000000 3182879865 3182879865 -1.66700000
8.87607002 -2.71876955 -2.59870648 2 3 10843 9.64000000 3182879865 3182879865 -15.63900000
11.68098450 -4.21462727 -2.48362947 3 4 10844 12.66400000 3182879867 3182879867 -11.31000000
39.61697769 -12.14237499 0.00000000 20 5 10844 41.43600000 3182879867 3182879867 0.00000000
39.34049225 -16.40810013 -0.49623609 32 6 10844 42.62800000 3182879869 3182879869 -0.66700000
14.12190628 -4.32828283 -2.29791784 3 7 10844 14.94800000 3182879869 3182879869 -8.84300000
16.47031403 -5.94591856 -2.22888660 3 8 10845 17.65200000 3182879872 3182879872 -7.25400000
39.33460236 -9.98971653 0.23587070 16 9 10845 40.58400000 3182879872 3182879872 0.33300000
39.52021408 -14.27492046 -0.24421661 23 10 10846 42.02000000 3182879874 3182879874 -0.33300000
18.14313889 -5.56769609 -2.04426837 3 11 10846 19.08800000 3182879874 3182879874 -6.14800000
20.27855682 -8.47023106 -2.05146146 15 12 10847 22.07200000 3182879876 3182879876 -5.33300000
38.82769775 -11.92270851 0.94513488 37 13 10847 40.62800000 3182879876 3182879876 1.33300000
39.04117584 -16.31526756 0.49260408 20 14 10848 42.31600000 3182879879 3182879879 0.66700000
20.38726425 -6.26415205 -1.49139345 28 15 10848 21.38000000 3182879879 3182879879 -4.00000000
20.36037827 -7.36633492 -1.76756179 35 16 10849 21.72400000 3182879881 3182879881 -4.66700000
39.18377686 -9.98053646 1.17677033 23 17 10849 40.45200000 3182879881 3182879881 1.66700000
39.18771362 -14.17801952 0.72741628 28 18 10849 41.68000000 3182879883 3182879883 1.00000000
20.40914726 -5.19843292 -1.34975994 26 19 10849 21.10400000 3182879883 3182879883 -3.66700000
20.37570953 -8.52334404 -1.28626776 13 20 10850 22.12400000 3182879886 3182879886 -3.33300000
39.19756317 -12.05874443 2.38835096 18 21 10850 41.08000000 3182879886 3182879886 3.33300000
39.20510101 -14.19978809 1.69879627 26 22 10851 41.73200000 3182879888 3182879888 2.33300000
20.45745087 -6.29744196 -0.99706894 19 23 10851 21.42800000 3182879888 3182879888 -2.66700000
20.42629051 -7.40227938 -1.13862109 29 24 10852 21.75600000 3182879890 3182879890 -3.00000000
64.65810394 -19.91613960 8.30710220 56 25 10852 68.16400000 3182879890 3182879890 7.00000000
43.67885590 -15.83739662 3.79288626 32 26 10853 46.61600000 3182879892 3182879892 4.66700000
36.64001083 -9.35985565 -1.54068911 7 27 10853 37.84800000 3182879892 3182879892 -2.33300000
39.03980637 -16.36273766 -1.47820306 25 28 10854 42.35600000 3182879895 3182879895 -2.00000000
39.92295456 -12.32005215 -0.97221315 17 31 10855 41.79200000 3182879897 3182879897 -1.33300000
5.68830395 -2.07262230 -2.82309008 7 0 10862 6.68000000 3182879918 3182879918 -25.00000000
39.62870407 -10.18966866 -0.71422225 25 1 10862 40.92400000 3182879918 3182879918 -1.00000000
39.74713516 -14.49034786 -1.23122776 18 2 10863 42.32400000 3182879920 3182879920 -1.66700000
8.87020493 -2.75087738 -2.59978485 3 3 10863 9.64400000 3182879920 3182879920 -15.63900000
11.66620159 -4.25537586 -2.48362947 3 4 10864 12.66400000 3182879922 3182879922 -11.31000000
39.74626160 -12.33393764 0.00000000 20 5 10864 41.61600000 3182879922 3182879922 0.00000000
39.27191925 -16.54066658 -0.49609640 21 6 10864 42.61600000 3182879925 3182879925 -0.66700000
14.13313580 -4.38575125 -2.30222225 3 7 10864 14.97600000 3182879925 3182879925 -8.84300000
16.46809578 -6.01017666 -2.23141193 3 8 10865 17.67200000 3182879927 3182879927 -7.25400000
39.33822632 -10.13694000 0.23610318 17 9 10865 40.62400000 3182879927 3182879927 0.33300000
39.38372803 -14.38122845 -0.24368192 31 10 10866 41.92800000 3182879929 3182879929 -0.33300000
18.14258194 -5.63689375 -2.04641032 3 11 10866 19.10800000 3182879929 3182879929 -6.14800000
20.28556252 -8.55644321 -2.05517936 17 12 10867 22.11200000 3182879932 3182879932 -5.33300000
39.04550934 -12.13889790 0.95146245 19 13 10867 40.90000000 3182879932 3182879932 1.33300000
38.92134094 -16.42500877 0.49181247 20 14 10868 42.24800000 3182879934 3182879934 0.66700000
20.38432503 -6.34120512 -1.49278855 30 15 10868 21.40000000 3182879934 3182879934 -4.00000000
20.35326195 -7.44420815 -1.76918912 35 16 10869 21.74400000 3182879936 3182879936 -4.66700000
39.22225189 -10.13626099 1.17898118 23 17 10869 40.52800000 3182879936 3182879936 1.66700000
39.22061920 -14.34494686 0.72895211 28 18 10869 41.76800000 3182879939 3182879939 1.00000000
20.41793060 -5.27663422 -1.35155070 28 19 10869 21.13200000 3182879939 3182879939 -3.66700000
20.37526131 -8.60684681 -1.28812814 10 20 10870 22.15600000 3182879941 3182879941 -3.33300000
43.36050797 -13.50529480 2.64486027 15 21 10870 45.49200000 3182879941 3182879941 3.33300000
39.50432587 -14.46434975 1.71393931 26 22 10871 42.10400000 3182879943 3182879943 2.33300000
20.45441628 -6.37475777 -0.99799955 21 23 10871 21.44800000 3182879943 3182879943 -2.66700000
20.42283249 -7.48177958 -1.13987708 29 24 10872 21.78000000 3182879945 3182879945 -3.00000000
64.62988281 -20.15471840 8.31246376 56 25 10872 68.20800000 3182879945 3182879945 7.00000000
36.75800323 -9.52680206 -1.54703951 7 27 10873 38.00400000 3182879948 3182879948 -2.33300000
39.08184814 -16.54098129 -1.48197222 25 28 10874 42.46400000 3182879950 3182879950 -2.00000000
39.91787720 -12.47125912 -0.97314370 17 31 10875 41.83200000 3182879952 3182879952 -1.33300000
5.67763233 -2.09121251 -2.82139945 7 0 10882 6.67600000 3182879973 3182879973 -25.00000000
39.78639221 -10.37841034 -0.71771276 25 1 10882 41.12400000 3182879973 3182879973 -1.00000000
39.55750275 -14.57784748 -1.22692239 27 2 10883 42.17600000 3182879975 3182879975 -1.66700000
8.86422348 -2.78297710 -2.60086298 2 3 10883 9.64800000 3182879975 3182879975 -15.63900000
11.66599655 -4.30150032 -2.48676729 3 4 10884 12.68000000 3182879978 3182879978 -11.31000000
39.27174377 -12.33713531 0.00000000 20 5 10884 41.16400000 3182879978 3182879978 0.00000000
39.13296890 -16.64321136 -0.49507198 32 6 10884 42.52800000 3182879980 3182879980 -0.66700000
14.11774063 -4.43505812 -2.30222225 3 7 10884 14.97600000 3182879980 3182879980 -8.84300000
16.46562958 -6.07449150 -2.23393750 3 8 10885 17.69200000 3182879982 3182879982 -7.25400000
39.48835754 -10.32275295 0.23721907 17 9 10885 40.81600000 3182879982 3182879982 0.33300000
39.24322891 -14.48537350 -0.24312398 15 10 10886 41.83200000 3182879985 3182879985 -0.33300000
18.13417625 -5.70376825 -2.04769564 3 11 10886 19.12000000 3182879985 3182879985 -6.14800000
20.28122139 -8.63812542 -2.05778170 17 12 10887 22.14000000 3182879987 3182879987 -5.33300000
39.04104614 -12.28712368 0.95239294 19 13 10887 40.94000000 3182879987 3182879987 1.33300000
38.89320374 -16.57331467 0.49218500 20 14 10888 42.28000000 3182879989 3182879989 0.66700000
20.38490105 -6.41951275 -1.49446273 26 15 10888 21.42400000 3182879989 3182879989 -4.00000000
20.35332870 -7.52488661 -1.77146733 35 16 10889 21.77200000 3182879992 3182879992 -4.66700000
38.96617508 -10.21531677 1.17234850 22 17 10889 40.30000000 3182879992 3182879992 1.66700000
39.21907425 -14.49979401 0.72985965 28 18 10889 41.82000000 3182879994 3182879994 1.00000000
20.41097069 -5.35091066 -1.35231817 28 19 10889 21.14400000 3182879994 3182879994 -3.66700000
20.37815094 -8.69201756 -1.29022110 16 20 10890 22.19200000 3182879996 3182879996 -3.33300000
39.47422028 -12.44617367 2.41044378 30 21 10890 41.46000000 3182879996 3182879996 3.33300000
39.46858978 -14.60770607 1.71459067 26 22 10891 42.12000000 3182879998 3182879998 2.33300000
20.43966103 -6.44852257 -0.99837178 21 23 10891 21.45600000 3182879998 3182879998 -2.66700000
20.41906738 -7.56134605 -1.14113319 29 24 10892 21.80400000 3182880001 3182880001 -3.00000000
64.26382446 -20.28697205 8.27444077 28 25 10892 67.89600000 3182880001 3182880001 7.00000000
36.90619278 -9.70281601 -1.55469251 7 27 10893 38.19200000 3182880003 3182880003 -2.33300000
39.12312317 -16.71971893 -1.48574138 25 28 10894 42.57200000 3182880005 3182880005 -2.00000000
39.83597183 -12.59846401 -0.97221315 17 31 10895 41.79200000 3182880008 3182880008 -1.33300000
5.67709303 -2.11354804 -2.82478046 6 0 10902 6.68400000 3182880028 3182880028 -25.00000000
39.71899033 -10.50904369 -0.71715426 17 1 10902 41.09200000 3182880028 3182880028 -1.00000000
39.57381821 -14.74096203 -1.22901690 18 2 10903 42.24800000 3182880031 3182880031 -1.66700000
8.85812569 -2.81506872 -2.60194135 3 3 10903 9.65200000 3182880031 3182880031 -15.63900000
11.64723492 -4.34082651 -2.48598289 3 4 10904 12.67600000 3182880033 3182880033 -11.31000000
39.16744995 -12.45474911 0.00000000 20 5 10904 41.10000000 3182880033 3182880033 0.00000000
39.33557129 -16.89176369 -0.49837804 21 6 10904 42.81200000 3182880035 3182880035 -0.66700000
14.12100697 -4.49029970 -2.30529690 4 7 10904 14.99600000 3182880035 3182880035 -8.84300000
16.45547867 -6.13608932 -2.23545265 3 8 10905 17.70400000 3182880038 3182880038 -7.25400000
39.49461365 -10.47180653 0.23747480 17 9 10905 40.86000000 3182880038 3182880038 0.33300000
39.96818161 -14.91169548 -0.24793623 56 10 10906 42.66000000 3182880040 3182880040 -0.33300000
18.14447212 -5.77668571 -2.05112267 4 11 10906 19.15200000 3182880040 3182880040 -6.14800000
20.28387260 -8.72302818 -2.06112766 15 12 10907 22.17600000 3182880042 3182880042 -5.33300000
39.08936310 -12.45245934 0.95462620 19 13 10907 41.03600000 3182880042 3182880042 1.33300000
38.92696762 -16.74849510 0.49334911 31 14 10908 42.38000000 3182880044 3182880044 0.66700000
20.37377548 -6.49426556 -1.49529982 26 15 10908 21.43600000 3182880044 3182880044 -4.00000000
20.34934425 -7.60426044 -1.77342010 37 16 10909 21.79600000 3182880047 3182880047 -4.66700000
39.05393219 -10.38414860 1.17607212 23 17 10909 40.42800000 3182880047 3182880047 1.66700000
39.30308914 -14.68700504 0.73237276 28 18 10909 41.96400000 3182880049 3182880049 1.00000000
20.40759850 -5.42622852 -1.35334158 26 19 10909 21.16000000 3182880049 3182880049 -3.66700000
20.37702560 -8.77573395 -1.29208159 20 20 10910 22.22400000 3182880051 3182880051 -3.33300000
42.57280350 -13.58671474 2.60253525 14 21 10910 44.76400000 3182880051 3182880051 3.33300000
39.58955002 -14.80980301 1.72208083 27 22 10911 42.30400000 3182880054 3182880054 2.33300000
20.43225288 -6.52469301 -0.99911630 19 23 10911 21.47200000 3182880054 3182880054 -2.66700000
20.41125298 -7.63957691 -1.14217997 29 24 10912 21.82400000 3182880056 3182880056 -3.00000000
63.31523514 -20.23082352 8.16134644 28 25 10912 66.96800000 3182880056 3182880056 7.00000000
43.21566391 -16.18347168 3.76717520 21 26 10913 46.30000000 3182880058 3182880058 4.66700000
36.88754654 -9.83570194 -1.55534375 7 27 10913 38.20800000 3182880058 3182880058 -2.33300000
39.14160156 -16.88944054 -1.48867297 25 28 10914 42.65600000 3182880061 3182880061 -2.00000000
39.91362762 -12.77645302 -0.97519082 11 31 10915 41.92000000 3182880063 3182880063 -1.33300000
5.67307377 -2.13462853 -2.82647085 7 0 10922 6.68800000 3182880084 3182880084 -25.00000000
39.79022217 -10.67664528 -0.71910894 17 1 10922 41.20400000 3182880084 3182880084 -1.00000000
39.56328201 -14.89450645 -1.23029685 27 2 10923 42.29200000 3182880086 3182880086 -1.66700000
8.85191250 -2.84715152 -2.60301971 2 3 10923 9.65600000 3182880086 3182880086 -15.63900000
11.64669418 -4.38698673 -2.48912072 4 4 10924 12.69200000 3182880088 3182880088 -11.31000000
39.57685089 -12.73722076 0.00000000 13 5 10924 41.57600000 3182880088 3182880088 0.00000000
39.48187256 -17.11806679 -0.50098568 22 6 10924 43.03600000 3182880091 3182880091 -0.66700000
14.11277103 -4.54198599 -2.30652666 4 7 10924 15.00400000 3182880091 3182880091 -8.84300000
16.46366310 -6.20468664 -2.23949313 3 8 10925 17.73600000 3182880093 3182880093 -7.25400000
39.45395660 -10.60856628 0.23745154 17 9 10925 40.85600000 3182880093 3182880093 0.33300000
39.35448074 -14.83942986 -0.24444909 23 10 10926 42.06000000 3182880095 3182880095 -0.33300000
18.13933945 -5.84486532 -2.05283618 3 11 10926 19.16800000 3182880095 3182880095 -6.14800000
20.27887344 -8.80488205 -2.06373000 15 12 10927 22.20400000 3182880097 3182880097 -5.33300000
39.35013580 -12.68699837 0.96207041 19 13 10927 41.35600000 3182880097 3182880097 1.33300000
39.02234650 -16.95120621 0.49530479 31 14 10928 42.54800000 3182880100 3182880100 0.66700000
20.36996841 -6.57146931 -1.49669492 26 15 10928 21.45600000 3182880100 3182880100 -4.00000000
20.34505463 -7.68369770 -1.77537286 34 16 10929 21.82000000 3182880102 3182880102 -4.66700000
39.05218887 -10.52977753 1.17711937 23 17 10929 40.46400000 3182880102 3182880102 1.66700000
39.26654816 -14.82976055 0.73265201 28 18 10929 41.98000000 3182880104 3182880104 1.00000000
20.41936684 -5.50574493 -1.35538816 26 19 10929 21.19200000 3182880104 3182880104 -3.66700000
20.37922668 -8.86114025 -1.29417455 16 20 10930 22.26000000 3182880107 3182880107 -3.33300000
40.49975204 -13.08106327 2.47858286 13 21 10930 42.63200000 3182880107 3182880107 3.33300000
39.57125854 -14.96062660 1.72354627 27 22 10931 42.34000000 3182880109 3182880109 2.33300000
20.43976784 -6.60580540 -1.00060523 19 23 10931 21.50400000 3182880109 3182880109 -2.66700000
20.40687943 -7.71925831 -1.14343596 29 24 10932 21.84800000 3182880111 3182880111 -3.00000000
63.65976715 -20.58608627 8.21496868 56 25 10932 67.40800000 3182880111 3182880111 7.00000000
43.23721313 -16.36385727 3.77400970 32 26 10933 46.38400000 3182880114 3182880114 4.66700000
36.93400955 -9.98631001 -1.55876315 7 27 10933 38.29200000 3182880114 3182880114 -2.33300000
39.13738251 -17.04991722 -1.49076688 25 28 10934 42.71600000 3182880116 3182880116 -2.00000000
39.87864685 -12.91120434 -0.97537696 17 31 10934 41.92800000 3182880118 3182880118 -1.33300000
5.66558790 -2.15441823 -2.82647085 7 0 10942 6.68800000 3182880139 3182880139 -25.00000000
39.79516220 -10.82702351 -0.71987689 17 1 10942 41.24800000 3182880139 3182880139 -1.00000000
39.53347015 -15.04104805 -1.23099506 27 2 10943 42.31600000 3182880141 3182880141 -1.66700000
8.85657120 -2.88280201 -2.60733294 2 3 10943 9.67200000 3182880141 3182880141 -15.63900000
11.64597321 -4.43319607 -2.49225855 4 4 10944 12.70800000 3182880144 3182880144 -11.31000000
39.36860275 -12.82202721 0.00000000 20 5 10944 41.40400000 3182880144 3182880144 0.00000000
39.40054703 -17.25463676 -0.50075281 22 6 10945 43.01600000 3182880146 3182880146 -0.66700000
14.11106110 -4.59857988 -2.30898619 3 7 10945 15.02000000 3182880146 3182880146 -8.84300000
16.44932175 -6.26494265 -2.24050331 3 8 10945 17.74400000 3182880148 3182880148 -7.25400000
39.45527649 -10.75674248 0.23768403 17 9 10945 40.89600000 3182880148 3182880148 0.33300000
39.17909622 -14.92970943 -0.24368192 23 10 10946 41.92800000 3182880150 3182880150 -0.33300000
