# .PCD v0.7 - Point Cloud Data file format
VERSION 0.7
FIELDS x y z intensity laser_id azimuth distance_m adjustedtime timestamp vertical_angle
SIZE 4 4 4 1 1 2 8 8 4 8
TYPE F F F U U U F U U F
COUNT 1 1 1 1 1 1 1 1 1 1
WIDTH 508
HEIGHT 1
VIEWPOINT 0 0 0 1 0 0 0
POINTS 508
DATA ascii
3.17055631 -5.51599407 -2.96678019 17 0 14871 7.02000000 3180191094 3180191094 -25.00000000
38.19972992 -53.57382202 -1.14850795 28 1 14871 65.80800000 3180191094 3180191094 -1.00000000
38.88979721 -67.68609619 -2.27185440 28 2 14872 78.09600000 3180191096 3180191096 -1.66700000
5.76944685 -8.99374104 -2.99120831 6 3 14872 11.09600000 3180191096 3180191096 -15.63900000
7.47780180 -13.02006626 -3.00294805 3 4 14873 15.31200000 3180191099 3180191099 -11.31000000
38.23077011 -59.61918640 0.00000000 50 5 14873 70.82400000 3180191099 3180191099 0.00000000
37.32484818 -73.03342438 -0.95484823 29 6 14873 82.02400000 3180191101 3180191101 -0.66700000
9.89532471 -15.43131924 -2.85195160 3 7 14873 18.55200000 3180191101 3180191101 -8.84300000
11.54534626 -20.11044884 -2.95164609 2 8 14874 23.37600000 3180191103 3180191103 -7.25400000
38.51099396 -54.07023239 0.38581806 56 9 14874 66.38400000 3180191103 3180191103 0.33300000
37.27743530 -64.95855713 -0.43528908 28 10 14875 74.89600000 3180191106 3180191106 -0.33300000
13.84133816 -21.60154343 -2.76353216 3 11 14875 25.80400000 3180191106 3180191106 -6.14800000
14.72362232 -28.84693146 -3.02328467 4 12 14876 32.52800000 3180191108 3180191108 -5.33300000
40.90468597 -63.86260223 1.76474178 26 13 14876 75.86000000 3180191108 3180191108 1.33300000
36.19777298 -70.95026398 0.92728209 28 14 14877 79.65600000 3180191110 3180191110 0.66700000
19.75377846 -30.85251999 -2.56173682 10 15 14877 36.72400000 3180191110 3180191110 -4.00000000
17.32913971 -30.23390770 -2.84482741 6 16 14878 34.96400000 3180191112 3180191112 -4.66700000
43.38646317 -61.00557327 2.17864823 28 17 14878 74.89200000 3180191112 3180191112 1.66700000
37.80518341 -65.95817566 1.32701123 28 18 14878 76.03600000 3180191115 3180191115 1.00000000
19.93556976 -28.03134537 -2.20448852 12 19 14878 34.46800000 3180191115 3180191115 -3.66700000
19.78178024 -38.80718613 -2.53672171 19 20 14879 43.63200000 3180191117 3180191117 -3.33300000
40.33325195 -63.04310226 4.35856628 35 21 14879 74.96800000 3180191117 3180191117 3.33300000
37.87179184 -66.12787628 3.10466290 28 22 14880 76.26800000 3180191119 3180191119 2.33300000
19.87848282 -31.08311653 -1.71867359 12 23 14880 36.93600000 3180191119 3180191119 -2.66700000
19.77223587 -34.53824615 -2.08569264 18 24 14881 39.85200000 3180191122 3180191122 -3.00000000
68.48363495 -119.67601776 11.25628662 28 26 14882 138.34400000 3180191124 3180191124 4.66700000
38.18904495 -53.77695084 -2.68716908 28 27 14882 66.01200000 3180191124 3180191124 -2.33300000
38.54598999 -75.74879456 -2.96799278 28 28 14883 85.04400000 3180191126 3180191126 -2.00000000
38.44570541 -60.18527985 -1.66182566 21 31 14883 71.43600000 3180191129 3180191129 -1.33300000
3.18195891 -5.57630587 -2.99382782 15 0 14889 7.08400000 3180191149 3180191149 -25.00000000
38.15143967 -53.86327362 -1.15213811 28 1 14889 66.01600000 3180191149 3180191149 -1.00000000
38.80770874 -68.03715515 -2.27953434 28 2 14890 78.36000000 3180191152 3180191152 -1.66700000
5.74530268 -9.01831913 -2.99336481 6 3 14890 11.10400000 3180191152 3180191152 -15.63900000
7.44463205 -13.05712414 -3.00608587 3 4 14891 15.32800000 3180191154 3180191154 -11.31000000
38.23450851 -60.03927612 0.00000000 50 5 14891 71.18000000 3180191154 3180191154 0.00000000
38.00876617 -74.95178986 -0.97836322 29 6 14891 84.04400000 3180191156 3180191156 -0.66700000
9.85741234 -15.47899914 -2.85502625 3 7 14891 18.57200000 3180191156 3180191156 -8.84300000
11.49979305 -20.17764664 -2.95619154 5 8 14892 23.41200000 3180191159 3180191159 -7.25400000
38.55117035 -54.48809052 0.38793361 56 9 14892 66.74800000 3180191159 3180191159 0.33300000
37.40383530 -65.65575409 -0.43917143 56 10 14893 75.56400000 3180191161 3180191161 -0.33300000
13.80543327 -21.69524956 -2.76995802 3 11 14893 25.86400000 3180191161 3180191161 -6.14800000
14.65811634 -28.94278717 -3.02848959 4 12 14894 32.58400000 3180191163 3180191163 -5.33300000
40.76180267 -64.08189392 1.76725423 26 13 14894 75.96800000 3180191163 3180191163 1.33300000
36.08308792 -71.27774048 0.93007600 28 14 14895 79.89600000 3180191165 3180191165 0.66700000
19.76166534 -31.07941818 -2.57540894 10 15 14895 36.92000000 3180191165 3180191165 -4.00000000
17.26364708 -30.34017563 -2.84970927 6 16 14896 35.02400000 3180191168 3180191168 -4.66700000
43.17383194 -61.11218643 2.17760110 56 17 14896 74.85600000 3180191168 3180191168 1.66700000
38.29993439 -67.31062317 1.35179365 28 18 14896 77.45600000 3180191170 3180191170 1.00000000
19.93493271 -28.21772575 -2.21421003 12 19 14896 34.62000000 3180191170 3180191170 -3.66700000
19.74808121 -39.04374313 -2.54811692 19 20 14897 43.82800000 3180191172 3180191172 -3.33300000
40.07717896 -63.07849884 4.35228729 35 21 14897 74.86000000 3180191172 3180191172 3.33300000
37.66188431 -66.24305725 3.10450006 28 22 14898 76.26400000 3180191175 3180191175 2.33300000
19.88570023 -31.31068611 -1.72779369 12 23 14898 37.13200000 3180191175 3180191175 -2.66700000
19.78600121 -34.81550980 -2.09867191 19 24 14899 40.10000000 3180191177 3180191177 -3.00000000
67.29403687 -118.45893097 11.12187290 28 26 14900 136.69200000 3180191179 3180191179 4.66700000
38.26181030 -54.23957443 -2.70426607 28 27 14900 66.43200000 3180191179 3180191179 -2.33300000
38.57809830 -76.40478516 -2.98893261 28 28 14901 85.64400000 3180191182 3180191182 -2.00000000
38.33998108 -60.43745804 -1.66545475 42 31 14901 71.59200000 3180191184 3180191184 -1.33300000
3.16068888 -5.58422422 -2.99213719 19 0 14909 7.08000000 3180191205 3180191205 -25.00000000
38.07360077 -54.15316391 -1.15548897 56 1 14909 66.20800000 3180191205 3180191205 -1.00000000
38.87318420 -68.70812225 -2.29745412 28 2 14910 78.97600000 3180191207 3180191207 -1.66700000
5.71584654 -9.04157448 -2.99444318 6 3 14910 11.10800000 3180191207 3180191207 -15.63900000
7.41059399 -13.10351562 -3.01079273 1 4 14911 15.35200000 3180191209 3180191209 -11.31000000
38.25120163 -60.53080368 0.00000000 50 5 14911 71.60400000 3180191209 3180191209 0.00000000
37.65348434 -74.89817810 -0.97594184 29 6 14911 83.83600000 3180191212 3180191212 -0.66700000
9.82443523 -15.54672623 -2.86117530 3 7 14911 18.61200000 3180191212 3180191212 -8.84300000
11.43905354 -20.23493576 -2.95871711 2 8 14912 23.43200000 3180191214 3180191214 -7.25400000
38.48947144 -54.80563736 0.38923550 56 9 14912 66.97200000 3180191214 3180191214 0.33300000
37.18623352 -65.80681610 -0.43931094 56 10 14913 75.58800000 3180191216 3180191216 -0.33300000
13.78270245 -21.82737541 -2.78066778 3 11 14913 25.96400000 3180191216 3180191216 -6.14800000
14.60167313 -29.08275795 -3.03778386 4 12 14914 32.68400000 3180191218 3180191218 -5.33300000
40.45035172 -64.08514404 1.76343906 52 13 14914 75.80400000 3180191218 3180191218 1.33300000
37.07373810 -73.87345886 0.96225196 28 14 14915 82.66000000 3180191221 3180191221 0.66700000
19.76165009 -31.32031822 -2.58963943 15 15 14915 37.12400000 3180191221 3180191221 -4.00000000
17.22425842 -30.51829720 -2.86077499 6 16 14916 35.16000000 3180191223 3180191223 -4.66700000
43.10028076 -61.46220779 2.18469906 28 17 14916 75.10000000 3180191223 3180191223 1.66700000
37.88396835 -67.15097809 1.34578991 28 18 14917 77.11200000 3180191225 3180191225 1.00000000
19.92532158 -28.42461967 -2.22469902 12 19 14917 34.78400000 3180191225 3180191225 -3.66700000
19.72622490 -39.34089661 -2.56300068 10 20 14917 44.08400000 3180191228 3180191228 -3.33300000
41.10473251 -65.19747925 4.48856497 38 21 14917 77.20400000 3180191228 3180191228 3.33300000
37.46379852 -66.43329620 3.10726810 28 22 14918 76.33200000 3180191230 3180191230 2.33300000
19.87854195 -31.54216766 -1.73672771 12 23 14918 37.32400000 3180191230 3180191230 -2.66700000
19.78008080 -35.08966827 -2.11102319 19 24 14919 40.33600000 3180191232 3180191232 -3.00000000
66.03466034 -117.19264221 10.98127460 28 26 14920 134.96400000 3180191235 3180191235 4.66700000
38.37484360 -54.80495453 -2.72575951 57 27 14920 66.96000000 3180191235 3180191235 -2.33300000
38.56882477 -77.05374908 -3.00903463 28 28 14921 86.22000000 3180191237 3180191237 -2.00000000
38.10961151 -60.54046249 -1.66461730 21 31 14921 71.55600000 3180191239 3180191239 -1.33300000
3.14552283 -5.60525560 -2.99720860 17 0 14930 7.09200000 3180191260 3180191260 -25.00000000
38.01902390 -54.49899292 -1.15988696 28 1 14930 66.46000000 3180191260 3180191260 -1.00000000
38.86169434 -69.27905273 -2.31176662 28 2 14931 79.46800000 3180191262 3180191262 -1.66700000
5.68880796 -9.07225418 -2.99767804 6 3 14931 11.12000000 3180191262 3180191262 -15.63900000
7.39704704 -13.19217110 -3.02491307 1 4 14932 15.42400000 3180191264 3180191264 -11.31000000
38.18629456 -60.92139816 0.00000000 50 5 14932 71.90000000 3180191264 3180191264 0.00000000
37.44940948 -75.21048737 -0.97813040 29 6 14933 84.02400000 3180191267 3180191267 -0.66700000
9.78565311 -15.61782742 -2.86732435 2 7 14933 18.65200000 3180191267 3180191267 -8.84300000
11.37257290 -20.29057312 -2.96073723 5 8 14933 23.44800000 3180191269 3180191269 -7.25400000
38.53303146 -55.29748535 0.39172298 28 9 14933 67.40000000 3180191269 3180191269 0.33300000
36.95847321 -65.96709442 -0.43947366 56 10 14934 75.61600000 3180191271 3180191271 -0.33300000
13.72371864 -21.91144943 -2.78495169 3 11 14934 26.00400000 3180191271 3180191271 -6.14800000
14.51804256 -29.18243599 -3.04261708 4 12 14935 32.73600000 3180191274 3180191274 -5.33300000
40.22368622 -64.24652863 1.76381123 52 13 14935 75.82000000 3180191274 3180191274 1.33300000
36.79560852 -73.99451447 0.96206570 28 14 14936 82.64400000 3180191276 3180191276 0.66700000
19.74621582 -31.55151367 -2.60275364 10 15 14936 37.31200000 3180191276 3180191276 -4.00000000
17.13759613 -30.62645149 -2.86500573 6 16 14937 35.21200000 3180191278 3180191278 -4.66700000
43.44333649 -62.43698502 2.21367335 28 17 14937 76.09600000 3180191278 3180191278 1.66700000
37.69620895 -67.36657715 1.34746540 28 18 14937 77.20800000 3180191281 3180191281 1.00000000
19.91489410 -28.62178802 -2.23467636 13 19 14937 34.94000000 3180191281 3180191281 -3.66700000
19.73825645 -39.72763443 -2.58346558 10 20 14938 44.43600000 3180191283 3180191283 -3.33300000
40.14139175 -64.18978119 4.40903091 74 21 14938 75.83600000 3180191283 3180191283 3.33300000
39.52741623 -70.69700623 3.29989505 28 22 14939 81.06400000 3180191285 3180191285 2.33300000
19.86870003 -31.78422165 -1.74603391 12 23 14939 37.52400000 3180191285 3180191285 -2.66700000
19.76436615 -35.36417007 -2.12316513 19 24 14940 40.56800000 3180191288 3180191288 -3.00000000
65.56968689 -117.37123871 10.97541618 28 26 14941 134.89200000 3180191290 3180191290 4.66700000
38.35386658 -55.20454025 -2.73862290 28 27 14941 67.27600000 3180191290 3180191290 -2.33300000
38.56145859 -77.74968719 -3.03067231 28 28 14942 86.84000000 3180191292 3180191292 -2.00000000
38.12036514 -61.07647324 -1.67531836 21 31 14943 72.01600000 3180191294 3180191294 -1.33300000
3.13122678 -5.62570429 -3.00228024 16 0 14950 7.10400000 3180191315 3180191315 -25.00000000
38.18373108 -55.14431000 -1.17077720 28 1 14950 67.08400000 3180191315 3180191315 -1.00000000
38.75959015 -69.66584778 -2.32014465 28 2 14951 79.75600000 3180191317 3180191317 -1.66700000
5.66320992 -9.10186768 -3.00091290 6 3 14951 11.13200000 3180191317 3180191317 -15.63900000
7.36048460 -13.23505020 -3.02883554 1 4 14952 15.44400000 3180191320 3180191320 -11.31000000
38.12339783 -61.29548264 0.00000000 50 5 14952 72.18400000 3180191320 3180191320 0.00000000
37.32649994 -75.62409973 -0.98180896 29 6 14953 84.34000000 3180191322 3180191322 -0.66700000
9.73942471 -15.66531754 -2.86978412 2 7 14953 18.66800000 3180191322 3180191322 -8.84300000
11.35758686 -20.43072128 -2.97538447 5 8 14953 23.56400000 3180191324 3180191324 -7.25400000
38.47629547 -55.62903595 0.39311785 56 9 14953 67.64000000 3180191324 3180191324 0.33300000
36.72798157 -66.09570312 -0.43947366 56 10 14954 75.61600000 3180191327 3180191327 -0.33300000
13.67024136 -21.99637604 -2.78966403 3 11 14954 26.04800000 3180191327 3180191327 -6.14800000
14.44779587 -29.29723167 -3.04930902 4 12 14955 32.80800000 3180191329 3180191329 -5.33300000
40.07303619 -64.50543213 1.76706815 26 13 14955 75.96000000 3180191329 3180191329 1.33300000
38.46819687 -78.04011536 1.01291394 28 14 14956 87.01200000 3180191331 3180191331 0.66700000
19.73700142 -31.78295898 -2.61614680 15 15 14956 37.50400000 3180191331 3180191331 -4.00000000
17.12151337 -30.84992218 -2.88030243 6 16 14957 35.40000000 3180191334 3180191334 -4.66700000
43.18422699 -62.52903366 2.21157885 28 17 14957 76.02400000 3180191334 3180191334 1.66700000
38.62528992 -69.59590912 1.38935113 28 18 14957 79.60800000 3180191336 3180191336 1.00000000
19.91240883 -28.83236885 -2.24567723 19 19 14957 35.11200000 3180191336 3180191336 -3.66700000
19.75119019 -40.10437393 -2.60346532 10 20 14958 44.78000000 3180191338 3180191338 -3.33300000
39.82233810 -64.17681885 4.39856577 36 21 14958 75.65600000 3180191338 3180191338 3.33300000
39.35404968 -70.96736908 3.30608249 28 22 14959 81.21600000 3180191341 3180191341 2.33300000
19.85661888 -32.01296997 -1.75478172 12 23 14959 37.71200000 3180191341 3180191341 -2.66700000
19.76861763 -35.66352844 -2.13698173 19 24 14960 40.83200000 3180191343 3180191343 -3.00000000
64.41375732 -116.25334167 10.84978962 28 26 14961 133.34800000 3180191345 3180191345 4.66700000
38.42639542 -55.72303772 -2.75767398 57 27 14961 67.74400000 3180191345 3180191345 -2.33300000
38.55085373 -78.41476440 -3.05133271 28 28 14962 87.43200000 3180191347 3180191347 -2.00000000
38.25880051 -61.75325012 -1.69039285 22 31 14962 72.66400000 3180191350 3180191350 -1.33300000
3.12482214 -5.65827084 -3.01411343 14 0 14969 7.13200000 3180191370 3180191370 -25.00000000
38.29294968 -55.69576263 -1.17978263 28 1 14969 67.60000000 3180191370 3180191370 -1.00000000
38.77762604 -70.24554443 -2.33515525 28 2 14970 80.27200000 3180191373 3180191373 -1.66700000
5.63299608 -9.12059784 -3.00091290 6 3 14970 11.13200000 3180191373 3180191373 -15.63900000
7.32223988 -13.26968861 -3.03118896 1 4 14971 15.45600000 3180191375 3180191375 -11.31000000
37.97666168 -61.51346588 0.00000000 51 5 14971 72.29200000 3180191375 3180191375 0.00000000
37.51617432 -76.61388397 -0.99312407 29 6 14971 85.31200000 3180191377 3180191377 -0.66700000
9.70677280 -15.72274303 -2.87470341 2 7 14971 18.70000000 3180191377 3180191377 -8.84300000
11.29552269 -20.47869682 -2.97689962 5 8 14972 23.57600000 3180191380 3180191380 -7.25400000
38.60410309 -56.21134186 0.39632601 56 9 14972 68.19200000 3180191380 3180191380 0.33300000
36.62640381 -66.43080139 -0.44089177 28 10 14973 75.86000000 3180191382 3180191382 -0.33300000
13.65360069 -22.13297653 -2.80123043 3 11 14973 26.15600000 3180191382 3180191382 -6.14800000
14.39255428 -29.43084717 -3.05823159 4 12 14974 32.90400000 3180191384 3180191384 -5.33300000
39.08020020 -63.37516022 1.73254561 25 13 14974 74.47600000 3180191384 3180191384 1.33300000
37.69453812 -77.11438751 0.99927056 28 14 14975 85.84000000 3180191387 3180191387 0.66700000
19.73828125 -32.02147293 -2.63037705 10 15 14975 37.70800000 3180191387 3180191387 -4.00000000
17.02873230 -30.92399025 -2.88192964 6 16 14976 35.42000000 3180191389 3180191389 -4.66700000
43.10778809 -62.86314774 2.21832776 28 17 14976 76.25600000 3180191389 3180191389 1.66700000
37.75380707 -68.56050110 1.36617434 28 18 14976 78.28000000 3180191391 3180191391 1.00000000
19.90698814 -29.02992630 -2.25591040 19 19 14976 35.27200000 3180191391 3180191391 -3.66700000
19.73725319 -40.41364670 -2.61927915 10 20 14977 45.05200000 3180191394 3180191394 -3.33300000
39.84593964 -64.69273376 4.42484474 37 21 14977 76.10800000 3180191394 3180191394 3.33300000
40.50182343 -73.61166382 3.42299390 28 22 14978 84.08800000 3180191396 3180191396 2.33300000
19.86137962 -32.25897598 -1.76464629 12 23 14978 37.92400000 3180191396 3180191396 -2.66700000
19.76959229 -35.94589233 -2.14996099 20 24 14979 41.08000000 3180191398 3180191398 -3.00000000
63.74171829 -115.94575500 10.80129623 28 26 14980 132.75200000 3180191400 3180191400 4.66700000
38.49655533 -56.22279739 -2.77607369 57 27 14980 68.19600000 3180191400 3180191400 -2.33300000
38.72505569 -79.43331146 -3.08595300 28 28 14981 88.42400000 3180191403 3180191403 -2.00000000
38.14143372 -62.04653549 -1.69476628 22 31 14982 72.85200000 3180191405 3180191405 -1.33300000
3.08491230 -5.63470745 -2.99551821 16 0 14990 7.08800000 3180191426 3180191426 -25.00000000
38.23279953 -56.04718781 -1.18425047 28 1 14990 67.85600000 3180191426 3180191426 -1.00000000
38.83277512 -70.95891571 -2.35412240 28 2 14991 80.92400000 3180191428 3180191428 -1.66700000
7.27920246 -13.30675983 -3.03354216 1 4 14992 15.46800000 3180191430 3180191430 -11.31000000
37.83867645 -61.79551697 0.00000000 51 5 14992 72.46000000 3180191430 3180191430 0.00000000
37.28749466 -76.85883331 -0.99452102 29 6 14992 85.43200000 3180191433 3180191433 -0.66700000
9.65940094 -15.77506733 -2.87777781 2 7 14992 18.72000000 3180191433 3180191433 -8.84300000
11.22800350 -20.53388596 -2.97891998 5 8 14993 23.59200000 3180191435 3180191435 -7.25400000
38.62981033 -56.69292450 0.39872053 56 9 14993 68.60400000 3180191435 3180191435 0.33300000
36.55533600 -66.88048553 -0.44298407 28 10 14994 76.22000000 3180191437 3180191437 -0.33300000
13.58276558 -22.19983292 -2.80337238 3 11 14994 26.17600000 3180191437 3180191437 -6.14800000
14.31410885 -29.54433250 -3.06455183 4 12 14995 32.97200000 3180191440 3180191440 -5.33300000
38.82053375 -63.47362137 1.73133600 25 13 14995 74.42400000 3180191440 3180191440 1.33300000
39.12881851 -80.79784393 1.04513645 28 14 14996 89.78000000 3180191442 3180191442 0.66700000
19.72693253 -32.26722717 -2.64460754 10 15 14996 37.91200000 3180191442 3180191442 -4.00000000
16.98977470 -31.12266731 -2.89462256 6 16 14997 35.57600000 3180191444 3180191444 -4.66700000
42.77588272 -62.87196350 2.21309137 28 17 14997 76.07600000 3180191444 3180191444 1.66700000
37.39112091 -68.49481201 1.36212540 28 18 14997 78.04800000 3180191447 3180191447 1.00000000
19.89251900 -29.23801041 -2.26639938 19 19 14997 35.43600000 3180191447 3180191447 -3.66700000
19.73161507 -40.78047180 -2.63834882 10 20 14998 45.38000000 3180191449 3180191449 -3.33300000
39.67725754 -64.95079041 4.43251896 75 21 14998 76.24000000 3180191449 3180191449 3.33300000
39.35332108 -72.14913177 3.34825516 28 22 14999 82.25200000 3180191451 3180191451 2.33300000
19.84504700 -32.49864960 -1.77376640 12 23 14999 38.12000000 3180191451 3180191451 -2.66700000
19.75435257 -36.23204422 -2.16273117 20 24 15000 41.32400000 3180191453 3180191453 -3.00000000
63.38500977 -116.30462646 10.81301308 28 26 15001 132.89600000 3180191456 3180191456 4.66700000
38.49909592 -56.67097473 -2.79121685 28 27 15001 68.56800000 3180191456 3180191456 -2.33300000
38.64576721 -80.01387024 -3.10298395 28 28 15002 88.91200000 3180191458 3180191458 -2.00000000
38.38214493 -62.95414734 -1.71570313 23 31 15003 73.75200000 3180191460 3180191460 -1.33300000
3.02987242 -5.57800865 -2.96001840 16 0 15009 7.00400000 3180191481 3180191481 -25.00000000
38.25979614 -56.48824310 -1.19088244 28 1 15009 68.23600000 3180191481 3180191481 -1.00000000
38.82046890 -71.49841309 -2.36773682 28 2 15010 81.39200000 3180191483 3180191483 -1.66700000
3.57804656 -5.88485289 -1.92800295 220 3 15010 7.15200000 3180191483 3180191483 -15.63900000
7.28180981 -13.41700840 -3.05315399 3 4 15011 15.56800000 3180191486 3180191486 -11.31000000
37.68756104 -62.00952911 0.00000000 51 5 15011 72.56400000 3180191486 3180191486 0.00000000
37.10350800 -77.12983704 -0.99643016 29 6 15011 85.59600000 3180191488 3180191488 -0.66700000
9.61730003 -15.82390022 -2.88085246 2 7 15011 18.74000000 3180191488 3180191488 -8.84300000
11.17120171 -20.59193230 -2.98195028 5 8 15012 23.61600000 3180191490 3180191490 -7.25400000
38.65452576 -57.13544464 0.40092906 56 9 15012 68.98400000 3180191490 3180191490 0.33300000
36.93207169 -68.10543060 -0.45028383 28 10 15013 77.47600000 3180191493 3180191493 -0.33300000
13.52558804 -22.27194595 -2.80679941 3 11 15013 26.20800000 3180191493 3180191493 -6.14800000
14.24020290 -29.64189529 -3.06975675 4 12 15014 33.02800000 3180191495 3180191495 -5.33300000
38.84017181 -63.98144150 1.74166477 51 13 15014 74.86800000 3180191495 3180191495 1.33300000
38.91434097 -81.03893280 1.04657996 28 14 15015 89.90400000 3180191497 3180191497 0.66700000
19.72539330 -32.50644302 -2.65883780 10 15 15015 38.11600000 3180191497 3180191497 -4.00000000
16.90925980 -31.22090340 -2.89852810 6 16 15016 35.62400000 3180191500 3180191500 -4.66700000
42.43958282 -62.82461548 2.20645881 28 17 15016 75.84800000 3180191500 3180191500 1.66700000
37.24377441 -68.76612854 1.36505747 28 18 15016 78.21600000 3180191502 3180191502 1.00000000
19.88930130 -29.44274330 -2.27714419 20 19 15016 35.60400000 3180191502 3180191502 -3.66700000
19.70509338 -41.07250214 -2.65299988 10 20 15017 45.63200000 3180191504 3180191504 -3.33300000
40.71838379 -67.15466309 4.57368040 40 21 15017 78.66800000 3180191504 3180191504 3.33300000
39.95459747 -73.83287048 3.42022562 28 22 15018 84.02000000 3180191506 3180191506 2.33300000
19.84072113 -32.73513031 -1.78307271 12 23 15018 38.32000000 3180191506 3180191506 -2.66700000
19.75572586 -36.52221298 -2.17612910 30 24 15019 41.58000000 3180191509 3180191509 -3.00000000
63.28151321 -117.03671265 10.86150646 28 26 15020 133.49200000 3180191511 3180191511 4.66700000
38.51880646 -57.10647583 -2.80636001 28 27 15020 68.94000000 3180191511 3180191511 -2.33300000
38.69792557 -80.80498505 -3.12866998 28 28 15021 89.64800000 3180191513 3180191513 -2.00000000
38.19387436 -63.11529541 -1.71663368 23 31 15022 73.79200000 3180191516 3180191516 -1.33300000
2.98019004 -5.53481340 -2.93128037 14 0 15030 6.93600000 3180191536 3180191536 -25.00000000
38.26663971 -56.94676971 -1.19758415 28 1 15030 68.62000000 3180191536 3180191536 -1.00000000
38.83670807 -72.15776062 -2.38484192 28 2 15031 81.98000000 3180191539 3180191539 -1.66700000
3.55446434 -5.89462900 -1.92692471 217 3 15031 7.14800000 3180191539 3180191539 -15.63900000
7.23444319 -13.44706154 -3.05393839 3 4 15032 15.57200000 3180191541 3180191541 -11.31000000
37.56328201 -62.31853485 0.00000000 25 5 15032 72.76400000 3180191541 3180191541 0.00000000
36.84981537 -77.32669067 -0.99722177 29 6 15032 85.66400000 3180191543 3180191543 -0.66700000
9.57352066 -15.88273907 -2.88515687 3 7 15032 18.76800000 3180191543 3180191543 -8.84300000
11.09753323 -20.63623238 -2.98245549 5 8 15033 23.62000000 3180191546 3180191546 -7.25400000
38.68114853 -57.62878036 0.40339330 56 9 15033 69.40800000 3180191546 3180191546 0.33300000
36.66326904 -68.20510864 -0.45005134 28 10 15034 77.43600000 3180191548 3180191548 -0.33300000
13.45823002 -22.34521866 -2.80979824 3 11 15034 26.23600000 3180191548 3180191548 -6.14800000
14.16398144 -29.76221848 -3.07682037 4 12 15035 33.10400000 3180191550 3180191550 -5.33300000
38.65284729 -64.20216370 1.74380493 51 13 15035 74.96000000 3180191550 3180191550 1.33300000
38.68062592 -81.31465149 1.04830277 28 14 15036 90.05200000 3180191552 3180191552 0.66700000
19.71928406 -32.76655960 -2.67418408 10 15 15036 38.33600000 3180191552 3180191552 -4.00000000
16.86826134 -31.41965866 -2.91122079 6 16 15037 35.78000000 3180191555 3180191555 -4.66700000
42.08438110 -62.79374695 2.19994259 56 17 15037 75.62400000 3180191555 3180191555 1.66700000
37.09363937 -69.09245300 1.36882710 28 18 15037 78.43200000 3180191557 3180191557 1.00000000
19.88570595 -29.67129326 -2.28916836 20 19 15037 35.79200000 3180191557 3180191557 -3.66700000
19.71383476 -41.47986221 -2.67462754 10 20 15038 46.00400000 3180191559 3180191559 -3.33300000
40.47609329 -67.31029510 4.57414579 81 21 15038 78.67600000 3180191559 3180191559 3.33300000
40.04834366 -74.65855408 3.45165181 28 22 15039 84.79200000 3180191562 3180191562 2.33300000
19.82971001 -32.98913574 -1.79293728 13 23 15039 38.53200000 3180191562 3180191562 -2.66700000
19.73687744 -36.80912018 -2.18889904 20 24 15040 41.82400000 3180191564 3180191564 -3.00000000
63.37004089 -118.23417664 10.95100689 28 26 15041 134.59200000 3180191566 3180191566 4.66700000
38.43371582 -57.43328094 -2.81547832 28 27 15041 69.16400000 3180191566 3180191566 -2.33300000
38.60711288 -81.37969208 -3.14542174 28 28 15042 90.12800000 3180191569 3180191569 -2.00000000
38.16189575 -63.58745193 -1.72565973 23 31 15043 74.18000000 3180191571 3180191571 -1.33300000
2.98060846 -5.57983923 -2.94987535 13 0 15049 6.98000000 3180191592 3180191592 -25.00000000
38.29954910 -57.40604401 -1.20456505 28 1 15049 69.02000000 3180191592 3180191592 -1.00000000
38.73092270 -72.53657532 -2.39310360 28 2 15050 82.26400000 3180191594 3180191594 -1.66700000
3.54478812 -5.92290926 -1.93231618 47 3 15050 7.16800000 3180191594 3180191594 -15.63900000
7.19165802 -13.47443867 -3.05472302 3 4 15051 15.57600000 3180191596 3180191596 -11.31000000
37.66650772 -62.96108246 0.00000000 51 5 15051 73.36800000 3180191596 3180191596 0.00000000
36.73159027 -77.74139404 -1.00099349 29 6 15051 85.98800000 3180191599 3180191599 -0.66700000
9.53500271 -15.93814087 -2.88946104 2 7 15051 18.79600000 3180191599 3180191599 -8.84300000
11.04771709 -20.70792961 -2.98750615 5 8 15052 23.66000000 3180191601 3180191601 -7.25400000
38.67837906 -58.03966141 0.40536934 56 9 15052 69.74800000 3180191601 3180191601 0.33300000
36.97142410 -69.32866669 -0.45665368 28 10 15053 78.57200000 3180191603 3180191603 -0.33300000
13.44935417 -22.49895859 -2.82350659 3 11 15053 26.36400000 3180191603 3180191603 -6.14800000
14.09410095 -29.87025452 -3.08314061 4 12 15054 33.17200000 3180191605 3180191605 -5.33300000
38.34742737 -64.17551422 1.73961759 51 13 15054 74.78000000 3180191605 3180191605 1.33300000
38.56602478 -81.77167511 1.05254018 28 14 15055 90.41600000 3180191608 3180191608 0.66700000
19.72101021 -33.01675797 -2.68925166 10 15 15055 38.55200000 3180191608 3180191608 -4.00000000
16.79021454 -31.52468681 -2.91577721 6 16 15056 35.83600000 3180191610 3180191610 -4.66700000
41.90471268 -62.97623062 2.20145535 56 17 15056 75.67600000 3180191610 3180191610 1.66700000
37.61070251 -70.61646271 1.39654160 28 18 15056 80.02000000 3180191612 3180191612 1.00000000
19.88007927 -29.87665367 -2.29991317 20 19 15056 35.96000000 3180191612 3180191612 -3.66700000
19.69021606 -41.78703308 -2.69020867 10 20 15057 46.27200000 3180191615 3180191615 -3.33300000
40.26903152 -67.47158051 4.57600594 40 21 15057 78.70800000 3180191615 3180191615 3.33300000
39.84373093 -74.87209320 3.45539689 28 22 15058 84.88400000 3180191617 3180191617 2.33300000
19.82665634 -33.23314285 -1.80261576 13 23 15058 38.74000000 3180191617 3180191617 -2.66700000
19.73476410 -37.10007095 -2.20229697 20 24 15059 42.08000000 3180191619 3180191619 -3.00000000
38.36248016 -57.74017715 -2.82427120 28 27 15060 69.38000000 3180191622 3180191622 -2.33300000
38.63989258 -82.15116119 -3.17027020 28 28 15061 90.84000000 3180191624 3180191624 -2.00000000
37.94966125 -63.68641663 -1.72510147 23 31 15061 74.15600000 3180191626 3180191626 -1.33300000
2.98049355 -5.62917280 -2.97016120 13 0 15070 7.02800000 3180191647 3180191647 -25.00000000
38.20367432 -57.71945572 -1.20819521 28 1 15070 69.22800000 3180191647 3180191647 -1.00000000
38.47789383 -72.70278168 -2.39391828 28 2 15071 82.29200000 3180191649 3180191649 -1.66700000
7.14589214 -13.50764084 -3.05629182 3 4 15072 15.58400000 3180191652 3180191652 -11.31000000
37.57835770 -63.33951950 0.00000000 25 5 15072 73.64800000 3180191652 3180191652 0.00000000
37.36664200 -79.87808990 -1.02665043 29 6 15073 88.19200000 3180191654 3180191654 -0.66700000
9.48784733 -15.99843216 -2.89376545 2 7 15073 18.82400000 3180191654 3180191654 -8.84300000
11.02182674 -20.84299088 -3.00114322 5 8 15073 23.76800000 3180191656 3180191656 -7.25400000
38.59995651 -58.38457108 0.40678746 56 9 15073 69.99200000 3180191656 3180191656 0.33300000
37.75822830 -71.43343353 -0.46960261 28 10 15074 80.80000000 3180191658 3180191658 -0.33300000
13.38505363 -22.57889175 -2.82736206 3 11 15074 26.40000000 3180191658 3180191658 -6.14800000
14.04523277 -30.05160332 -3.09652448 4 12 15075 33.31600000 3180191661 3180191661 -5.33300000
38.01002502 -64.14362335 1.73496497 50 13 15075 74.58000000 3180191661 3180191661 1.33300000
38.45058441 -82.30747223 1.05761564 28 14 15076 90.85200000 3180191663 3180191663 0.66700000
19.70561218 -33.26734161 -2.70376086 10 15 15076 38.76000000 3180191663 3180191663 -4.00000000
16.73225403 -31.69530869 -2.92586637 6 16 15077 35.96000000 3180191665 3180191665 -4.66700000
43.64506149 -66.11585236 2.30559945 28 17 15077 79.25600000 3180191665 3180191665 1.66700000
37.24968719 -70.59057617 1.39319074 28 18 15078 79.82800000 3180191668 3180191668 1.00000000
19.85975456 -30.09603310 -2.31091380 13 19 15078 36.13200000 3180191668 3180191668 -3.66700000
19.69061470 -42.18820572 -2.71137142 10 20 15078 46.63600000 3180191670 3180191670 -3.33300000
40.62554169 -68.63934326 4.64507532 42 21 15078 79.89600000 3180191670 3180191670 3.33300000
39.99604034 -75.82715607 3.49268460 28 22 15079 85.80000000 3180191672 3180191672 2.33300000
19.82068825 -33.50160599 -1.81322479 13 23 15079 38.96800000 3180191672 3180191672 -2.66700000
19.71415901 -37.39123154 -2.21527624 21 24 15080 42.32800000 3180191675 3180191675 -3.00000000
62.96129227 -119.46725464 11.02423477 28 26 15081 135.49200000 3180191677 3180191677 4.66700000
38.27816772 -58.07394028 -2.83371520 28 27 15081 69.61200000 3180191677 3180191677 -2.33300000
38.51916885 -82.67996216 -3.18520737 28 28 15082 91.26800000 3180191679 3180191679 -2.00000000
38.11676025 -64.50330353 -1.74343276 24 31 15082 74.94400000 3180191682 3180191682 -1.33300000
2.97936273 -5.67484951 -2.98875642 19 0 15090 7.07200000 3180191702 3180191702 -25.00000000
38.24788666 -58.22684479 -1.21601391 28 1 15090 69.67600000 3180191702 3180191702 -1.00000000
37.61446762 -71.67539978 -2.35575151 28 2 15091 80.98000000 3180191705 3180191705 -1.66700000
5.47236586 -9.29394245 -3.01924396 6 3 15091 11.20000000 3180191705 3180191705 -15.63900000
37.64108658 -63.95291901 0.00000000 26 5 15092 74.20800000 3180191707 3180191707 0.00000000
37.77389526 -81.48859406 -1.04564869 29 6 15093 89.82400000 3180191709 3180191709 -0.66700000
9.44998264 -16.06211281 -2.89929962 2 7 15093 18.86000000 3180191709 3180191709 -8.84300000
10.94716167 -20.87782288 -3.00063801 5 8 15093 23.76400000 3180191711 3180191711 -7.25400000
38.51441193 -58.69954681 0.40804285 84 9 15093 70.20800000 3180191711 3180191711 0.33300000
37.50865173 -71.56479645 -0.46960261 28 10 15094 80.80000000 3180191714 3180191714 -0.33300000
13.33438206 -22.67346954 -2.83335948 3 11 15094 26.45600000 3180191714 3180191714 -6.14800000
13.97204781 -30.16911125 -3.10358834 4 12 15095 33.39200000 3180191716 3180191716 -5.33300000
37.78588867 -64.27590942 1.73496497 50 13 15095 74.58000000 3180191716 3180191716 1.33300000
38.23529053 -82.59726715 1.05961800 28 14 15096 91.02400000 3180191718 3180191718 0.66700000
19.69651222 -33.51825714 -2.71854925 10 15 15096 38.97200000 3180191718 3180191718 -4.00000000
16.66403961 -31.83475876 -2.93335199 6 16 15097 36.05200000 3180191721 3180191721 -4.66700000
41.58884048 -63.48183823 2.20866966 28 17 15097 75.92400000 3180191721 3180191721 1.66700000
37.11183929 -70.89796448 1.39682078 28 18 15097 80.03600000 3180191723 3180191723 1.00000000
19.85828209 -30.31198311 -2.32242608 14 19 15097 36.31200000 3180191723 3180191723 -3.66700000
19.63542366 -42.45602417 -2.72416186 10 20 15098 46.85600000 3180191725 3180191725 -3.33300000
40.55553818 -69.06999207 4.66460991 42 21 15098 80.23200000 3180191725 3180191725 3.33300000
39.73296356 -75.96984863 3.49284744 28 22 15099 85.80400000 3180191728 3180191728 2.33300000
19.82093239 -33.77045441 -1.82402003 13 23 15099 39.20000000 3180191728 3180191728 -2.66700000
19.70936394 -37.70053482 -2.22951174 21 24 15100 42.60000000 3180191730 3180191730 -3.00000000
60.75839996 -116.26951599 10.70951748 28 26 15101 131.62400000 3180191732 3180191732 4.66700000
38.17148209 -58.35436630 -2.84087968 28 27 15101 69.78800000 3180191732 3180191732 -2.33300000
38.41296005 -83.20952606 -3.20042348 28 28 15102 91.70400000 3180191735 3180191735 -2.00000000
38.20484161 -65.17068481 -1.75785589 24 31 15102 75.56400000 3180191737 3180191737 -1.33300000
2.97324538 -5.70668697 -3.00058961 15 0 15108 7.10000000 3180191758 3180191758 -25.00000000
38.17403793 -58.51419449 -1.21950436 28 1 15108 69.87600000 3180191758 3180191758 -1.00000000
38.07428360 -73.10886383 -2.39892173 28 2 15109 82.46400000 3180191760 3180191760 -1.66700000
5.44508553 -9.31441402 -3.02032232 7 3 15109 11.20400000 3180191760 3180191760 -15.63900000
7.01449347 -13.47471619 -3.03824902 24 4 15110 15.49200000 3180191763 3180191763 -11.31000000
37.52878189 -64.22281647 0.00000000 26 5 15110 74.38400000 3180191763 3180191763 0.00000000
37.60214615 -81.75292969 -1.04760432 29 6 15110 89.99200000 3180191765 3180191765 -0.66700000
9.41624355 -16.11396980 -2.90360403 2 7 15110 18.88800000 3180191765 3180191765 -8.84300000
10.89433956 -20.93675232 -3.00417352 5 8 15111 23.79200000 3180191767 3180191767 -7.25400000
38.52198792 -59.11515808 0.41008863 56 9 15111 70.56000000 3180191767 3180191767 0.33300000
37.28363800 -71.68228149 -0.46960261 28 10 15112 80.80000000 3180191770 3180191770 -0.33300000
13.26308537 -22.71525002 -2.83335948 3 11 15112 26.45600000 3180191770 3180191770 -6.14800000
13.92540836 -30.31781197 -3.11436987 4 12 15113 33.50800000 3180191772 3180191772 -5.33300000
37.86396408 -64.87436676 1.74789929 25 13 15113 75.13600000 3180191772 3180191772 1.33300000
37.87715530 -82.50251770 1.05687070 28 14 15114 90.78800000 3180191774 3180191774 0.66700000
19.70372009 -33.77297974 -2.73417473 10 15 15114 39.19600000 3180191774 3180191774 -4.00000000
16.62275505 -32.00016785 -2.94376659 7 16 15115 36.18000000 3180191776 3180191776 -4.66700000
41.37611771 -63.59207153 2.20797157 28 17 15115 75.90000000 3180191776 3180191776 1.66700000
39.79999542 -76.61825562 1.50705016 28 18 15115 86.35200000 3180191779 3180191779 1.00000000
19.86092186 -30.52478600 -2.33393860 14 19 15115 36.49200000 3180191779 3180191779 -3.66700000
19.66343689 -42.86957169 -2.74671984 10 20 15116 47.24400000 3180191781 3180191781 -3.33300000
40.47309113 -69.42819977 4.68019104 42 21 15116 80.50000000 3180191781 3180191781 3.33300000
42.23738480 -81.37985992 3.73546290 28 22 15117 91.76400000 3180191783 3180191783 2.33300000
19.81934929 -34.01207733 -1.83369851 13 23 15117 39.40800000 3180191783 3180191783 -2.66700000
19.71591377 -38.00337982 -2.24374723 21 24 15118 42.87200000 3180191786 3180191786 -3.00000000
60.28821564 -116.25808716 10.69096661 28 26 15119 131.39600000 3180191788 3180191788 4.66700000
38.11643219 -58.67173767 -2.85048652 28 27 15119 70.02400000 3180191788 3180191788 -2.33300000
38.21625900 -83.47154999 -3.20586777 28 28 15120 91.86000000 3180191790 3180191790 -2.00000000
38.16485977 -65.57379150 -1.76548624 24 31 15120 75.89200000 3180191793 3180191793 -1.33300000
2.92668581 -5.66549683 -2.97354198 15 0 15128 7.03600000 3180191813 3180191813 -25.00000000
38.15213013 -58.92909622 -1.22536838 28 1 15128 70.21200000 3180191813 3180191813 -1.00000000
37.90874100 -73.41539764 -2.40462351 28 2 15129 82.66000000 3180191816 3180191816 -1.66700000
5.41833591 -9.34336090 -3.02355719 6 3 15129 11.21600000 3180191816 3180191816 -15.63900000
6.97640991 -13.51654720 -3.04217148 13 4 15130 15.51200000 3180191818 3180191818 -11.31000000
37.70357895 -65.04208374 0.00000000 53 5 15130 75.18000000 3180191818 3180191818 0.00000000
37.62671661 -82.56429291 -1.05631185 29 6 15130 90.74000000 3180191820 3180191820 -0.66700000
9.36984825 -16.16383743 -2.90667868 2 7 15130 18.90800000 3180191820 3180191820 -8.84300000
10.83574390 -21.00286293 -3.00821424 5 8 15131 23.82400000 3180191823 3180191823 -7.25400000
38.53043747 -59.58178711 0.41239014 56 9 15131 70.95600000 3180191823 3180191823 0.33300000
36.96169281 -71.67334747 -0.46869597 28 10 15132 80.64400000 3180191825 3180191825 -0.33300000
13.23753262 -22.85432625 -2.84492588 3 11 15132 26.56400000 3180191825 3180191825 -6.14800000
13.83929062 -30.40973663 -3.11883116 4 12 15133 33.55600000 3180191827 3180191827 -5.33300000
37.77153015 -65.23800659 1.75413382 25 13 15133 75.40400000 3180191827 3180191827 1.33300000
37.58065796 -82.61602783 1.05663788 28 14 15134 90.76800000 3180191829 3180191829 0.66700000
19.69164276 -34.02459335 -2.74896312 11 15 15134 39.40800000 3180191829 3180191829 -4.00000000
16.56206512 -32.15723419 -2.95287943 7 16 15135 36.29200000 3180191832 3180191832 -4.66700000
41.13219833 -63.70252609 2.20680785 28 17 15135 75.86000000 3180191832 3180191832 1.66700000
39.40229034 -76.50427246 1.50209367 28 18 15135 86.06800000 3180191834 3180191834 1.00000000
19.85385323 -30.74818802 -2.34570670 14 19 15135 36.67600000 3180191834 3180191834 -3.66700000
19.66897774 -43.27967834 -2.76858020 10 20 15136 47.62000000 3180191836 3180191836 -3.33300000
40.39841461 -69.85942841 4.69972610 41 21 15136 80.83600000 3180191836 3180191836 3.33300000
39.87378693 -77.48617554 3.55032611 28 22 15137 87.21600000 3180191839 3180191839 2.33300000
19.81048584 -34.27131271 -1.84393537 13 23 15137 39.62800000 3180191839 3180191839 -2.66700000
19.70372772 -38.30641174 -2.25756383 21 24 15138 43.13600000 3180191841 3180191841 -3.00000000
59.88203049 -116.46782684 10.69096661 28 26 15139 131.39600000 3180191843 3180191843 4.66700000
38.22108078 -59.28478241 -2.87377119 28 27 15139 70.59600000 3180191843 3180191843 -2.33300000
38.38705063 -84.62378693 -3.24495530 28 28 15140 92.98000000 3180191846 3180191846 -2.00000000
38.62354660 -66.89794159 -1.79749632 25 31 15140 77.26800000 3180191848 3180191848 -1.33300000
2.89764094 -5.66005087 -2.96508980 17 0 15149 7.01600000 3180191869 3180191869 -25.00000000
38.37029266 -59.74493027 -1.23940015 28 1 15149 71.01600000 3180191869 3180191869 -1.00000000
37.82154465 -73.90978241 -2.41625977 28 2 15150 83.06000000 3180191871 3180191871 -1.66700000
5.38981485 -9.37317467 -3.02679205 7 3 15150 11.22800000 3180191871 3180191871 -15.63900000
37.33137894 -64.94748688 0.00000000 26 5 15151 74.91200000 3180191873 3180191873 0.00000000
37.92932129 -84.04324341 -1.07344759 29 6 15151 92.21200000 3180191876 3180191876 -0.66700000
9.31842041 -16.21177673 -2.90913820 2 7 15151 18.92400000 3180191876 3180191876 -8.84300000
10.76411152 -21.05303574 -3.00972939 5 8 15152 23.83600000 3180191878 3180191878 -7.25400000
38.63360214 -60.22425079 0.41585404 56 9 15152 71.55200000 3180191878 3180191878 0.33300000
36.77519989 -71.95792389 -0.46967238 28 10 15153 80.81200000 3180191880 3180191880 -0.33300000
13.17150497 -22.93372917 -2.84878159 3 11 15153 26.60000000 3180191880 3180191880 -6.14800000
13.78337765 -30.58370972 -3.13147163 4 12 15154 33.69200000 3180191882 3180191882 -5.33300000
37.66556168 -65.60836792 1.76036835 26 13 15154 75.67200000 3180191882 3180191882 1.33300000
44.28399277 -98.30681610 1.25523472 28 14 15155 107.82800000 3180191885 3180191885 0.66700000
19.67802429 -34.29034424 -2.76458859 11 15 15155 39.63200000 3180191885 3180191885 -4.00000000
16.46946526 -32.26743698 -2.95743585 7 16 15156 36.34800000 3180191887 3180191887 -4.66700000
40.92216492 -63.88988876 2.20808792 28 17 15156 75.90400000 3180191887 3180191887 1.66700000
39.25365067 -76.94000244 1.50767851 28 18 15157 86.38800000 3180191889 3180191889 1.00000000
19.83896065 -30.98556137 -2.35798645 21 19 15157 36.86800000 3180191889 3180191889 -3.66700000
19.66098976 -43.68649292 -2.78997540 10 20 15157 47.98800000 3180191892 3180191892 -3.33300000
39.37536621 -68.66986084 4.60995913 41 21 15157 79.29200000 3180191892 3180191892 3.33300000
39.70572281 -77.85966492 3.56074715 28 22 15158 87.47200000 3180191894 3180191894 2.33300000
19.79799843 -34.54129028 -1.85454452 13 23 15158 39.85600000 3180191894 3180191894 -2.66700000
19.69018173 -38.62748718 -2.27221799 22 24 15159 43.41600000 3180191896 3180191896 -3.00000000
59.35701752 -116.49470520 10.67339134 28 26 15160 131.18000000 3180191899 3180191899 4.66700000
38.31576538 -59.91268921 -2.89738131 28 27 15160 71.17600000 3180191899 3180191899 -2.33300000
38.32234192 -85.31089020 -3.26589489 28 28 15161 93.58000000 3180191901 3180191901 -2.00000000
38.62643433 -67.47286224 -1.80912793 26 31 15161 77.76800000 3180191903 3180191903 -1.33300000
2.89755511 -5.70892334 -2.98537540 17 0 15169 7.06400000 3180191924 3180191924 -25.00000000
38.31842041 -60.12471008 -1.24449623 28 1 15169 71.30800000 3180191924 3180191924 -1.00000000
37.97576904 -74.85433197 -2.44279027 28 2 15170 83.97200000 3180191926 3180191926 -1.66700000
5.36088037 -9.39862347 -3.02894878 6 3 15170 11.23600000 3180191926 3180191926 -15.63900000
6.90966749 -13.62559223 -3.05550742 1 4 15171 15.58000000 3180191928 3180191928 -11.31000000
37.17180252 -65.19554901 0.00000000 26 5 15171 75.04800000 3180191928 3180191928 0.00000000
37.78749084 -84.55416870 -1.07819712 29 6 15172 92.62000000 3180191931 3180191931 -0.66700000
9.27851009 -16.28016090 -2.91528726 2 7 15172 18.96400000 3180191931 3180191931 -8.84300000
10.70132065 -21.11171722 -3.01275992 5 8 15172 23.86000000 3180191933 3180191933 -7.25400000
38.53698730 -60.53757858 0.41708618 28 9 15172 71.76400000 3180191933 3180191933 0.33300000
36.60695648 -72.24999237 -0.47074175 28 10 15173 80.99600000 3180191935 3180191935 -0.33300000
13.10908890 -23.01066589 -2.85263705 3 11 15173 26.63600000 3180191935 3180191935 -6.14800000
13.70089245 -30.68618584 -3.13704824 4 12 15174 33.75200000 3180191938 3180191938 -5.33300000
37.48974609 -65.83327484 1.76288080 26 13 15174 75.78000000 3180191938 3180191938 1.33300000
43.00819397 -96.37155914 1.22859991 28 14 15175 105.54000000 3180191940 3180191940 0.66700000
19.74771118 -34.69173431 -2.79137516 11 15 15175 40.01600000 3180191940 3180191940 -4.00000000
16.39813042 -32.40654373 -2.96492147 7 16 15176 36.44000000 3180191942 3180191942 -4.66700000
40.66243744 -63.97498322 2.20610976 28 17 15176 75.83600000 3180191942 3180191942 1.66700000
41.45407867 -81.92296600 1.60261953 28 18 15176 91.82800000 3180191945 3180191945 1.00000000
19.83459854 -31.20614815 -2.36975479 21 19 15176 37.05200000 3180191945 3180191945 -3.66700000
19.62220192 -44.01015854 -2.80625415 10 20 15177 48.26800000 3180191947 3180191947 -3.33300000
39.15516281 -68.84159851 4.61228466 82 21 15177 79.33200000 3180191947 3180191947 3.33300000
40.15860748 -79.43162537 3.62620449 28 22 15178 89.08000000 3180191949 3180191949 2.33300000
19.78987122 -34.80817795 -1.86515355 13 23 15178 40.08400000 3180191949 3180191949 -2.66700000
19.68854904 -38.95980453 -2.28770924 22 24 15179 43.71200000 3180191952 3180191952 -3.00000000
58.84934998 -116.50191498 10.65516567 28 26 15180 130.95600000 3180191954 3180191954 4.66700000
38.12567139 -60.07644272 -2.89884686 28 27 15180 71.21200000 3180191954 3180191954 -2.33300000
38.30874634 -86.08328247 -3.29032445 28 28 15181 94.28000000 3180191956 3180191956 -2.00000000
38.69077301 -68.16346741 -1.82383025 26 31 15182 78.40000000 3180191958 3180191958 -1.33300000
2.89327765 -5.74764347 -3.00058961 14 0 15188 7.10000000 3180191979 3180191979 -25.00000000
38.32624054 -60.57928848 -1.25126779 28 1 15188 71.69600000 3180191979 3180191979 -1.00000000
38.01847076 -75.55845642 -2.46164107 28 2 15189 84.62000000 3180191981 3180191981 -1.66700000
5.33727312 -9.42975807 -3.03326201 6 3 15189 11.25200000 3180191981 3180191981 -15.63900000
6.88735628 -13.69398403 -3.06570554 3 4 15190 15.63200000 3180191984 3180191984 -11.31000000
37.23706818 -65.81629944 0.00000000 26 5 15190 75.62000000 3180191984 3180191984 0.00000000
37.67211533 -85.05203247 -1.08294666 29 6 15191 93.02800000 3180191986 3180191986 -0.66700000
9.23614597 -16.33148193 -2.91897678 2 7 15191 18.98800000 3180191986 3180191986 -8.84300000
10.67937469 -21.24280739 -3.02639675 5 8 15191 23.96800000 3180191988 3180191988 -7.25400000
38.54756927 -60.99979401 0.41938770 56 9 15191 72.16000000 3180191988 3180191988 0.33300000
36.46055984 -72.55683899 -0.47195065 28 10 15192 81.20400000 3180191991 3180191991 -0.33300000
13.05228233 -23.08863258 -2.85692096 3 11 15192 26.67600000 3180191991 3180191991 -6.14800000
13.65707684 -30.86256409 -3.15043211 4 12 15193 33.89600000 3180191993 3180191993 -5.33300000
39.16184235 -69.30296326 1.85230422 28 13 15193 79.62400000 3180191993 3180191993 1.33300000
42.49908066 -96.08567810 1.22315192 28 14 15194 105.07200000 3180191995 3180191995 0.66700000
19.71891022 -34.90989685 -2.80365229 11 15 15194 40.19200000 3180191995 3180191995 -4.00000000
16.34779930 -32.57476807 -2.97533607 7 16 15195 36.56800000 3180191998 3180191998 -4.66700000
40.46926498 -64.13990784 2.20715690 56 17 15195 75.87200000 3180191998 3180191998 1.66700000
41.28264236 -82.26015472 1.60652888 28 18 15195 92.05200000 3180192000 3180192000 1.00000000
19.83963966 -31.44392586 -2.38280201 22 19 15195 37.25600000 3180192000 3180192000 -3.66700000
19.63109589 -44.42562866 -2.82857966 10 20 15196 48.65200000 3180192002 3180192002 -3.33300000
38.99339676 -69.08930206 4.62019157 83 21 15196 79.46800000 3180192002 3180192002 3.33300000
39.85198975 -79.47861481 3.62229657 28 22 15197 88.98400000 3180192005 3180192005 2.33300000
19.79213333 -35.08241653 -1.87632108 13 23 15197 40.32400000 3180192005 3180192005 -2.66700000
19.68811226 -39.28199768 -2.30278206 22 24 15198 44.00000000 3180192007 3180192007 -3.00000000
58.73054886 -117.23108673 10.70398426 28 26 15199 131.55600000 3180192009 3180192009 4.66700000
38.02210236 -60.35471344 -2.90617418 28 27 15199 71.39200000 3180192009 3180192009 -2.33300000
38.40701675 -87.08036041 -3.32354879 28 28 15200 95.23200000 3180192011 3180192011 -2.00000000
38.72574997 -68.72713470 -1.83564782 27 31 15200 78.90800000 3180192014 3180192014 -1.33300000
2.89747763 -5.80636454 -3.02594686 14 0 15208 7.16000000 3180192034 3180192034 -25.00000000
38.18259048 -60.82109451 -1.25350165 28 1 15208 71.82400000 3180192034 3180192034 -1.00000000
38.04003525 -76.26317596 -2.48025894 28 2 15209 85.26000000 3180192037 3180192037 -1.66700000
5.30621052 -9.45168972 -3.03434038 8 3 15209 11.25600000 3180192037 3180192037 -15.63900000
6.84301376 -13.72496223 -3.06727433 3 4 15210 15.64000000 3180192039 3180192039 -11.31000000
37.09714890 -66.10633850 0.00000000 26 5 15210 75.80400000 3180192039 3180192039 0.00000000
37.60207748 -85.65992737 -1.08909321 29 6 15210 93.55600000 3180192041 3180192041 -0.66700000
9.19741249 -16.38959503 -2.92389607 2 7 15210 19.02000000 3180192041 3180192041 -8.84300000
10.61400795 -21.29771423 -3.02892208 5 8 15211 23.98800000 3180192044 3180192044 -7.25400000
38.47677612 -61.36102676 0.42094529 56 9 15211 72.42800000 3180192044 3180192044 0.33300000
37.75158691 -75.78420258 -0.49208310 28 10 15212 84.66800000 3180192046 3180192046 -0.33300000
13.02412510 -23.22771263 -2.86848736 3 11 15212 26.78400000 3180192046 3180192046 -6.14800000
13.57164860 -30.96111488 -3.15563703 4 12 15213 33.95200000 3180192048 3180192048 -5.33300000
39.12107468 -69.79853821 1.86188865 28 13 15213 80.03600000 3180192048 3180192048 1.33300000
42.23083878 -96.38730621 1.22510755 28 14 15214 105.24000000 3180192051 3180192051 0.66700000
19.63398743 -35.04465866 -2.80895376 5 15 15214 40.26800000 3180192051 3180192051 -4.00000000
16.29792023 -32.76013184 -2.98705244 7 16 15215 36.71200000 3180192053 3180192053 -4.66700000
40.33211899 -64.41972351 2.21192789 28 17 15215 76.03600000 3180192053 3180192053 1.66700000
39.93888092 -80.28037262 1.56513178 28 18 15215 89.68000000 3180192055 3180192055 1.00000000
19.83143616 -31.67539024 -2.39508200 22 19 15215 37.44800000 3180192055 3180192055 -3.66700000
