# .PCD v0.7 - Point Cloud Data file format
VERSION 0.7
FIELDS x y z intensity laser_id azimuth distance_m adjustedtime timestamp vertical_angle
SIZE 4 4 4 1 1 2 8 8 4 8
TYPE F F F U U U F U U F
COUNT 1 1 1 1 1 1 1 1 1 1
WIDTH 522
HEIGHT 1
VIEWPOINT 0 0 0 1 0 0 0
POINTS 522
DATA ascii
20.93753052 21.04744720 -0.69082218 19 31 4625 29.69600000 3178962728 3178962728 -1.33300000
3.88380408 3.53151250 -2.44780493 10 0 4632 5.79200000 3178962749 3178962749 -25.00000000
20.94902611 23.16848373 -0.54521316 14 1 4632 31.24000000 3178962749 3178962749 -1.00000000
20.87053490 18.97075844 -0.82081848 12 2 4633 28.21600000 3178962751 3178962751 -1.66700000
6.38746881 6.40309572 -2.53185177 6 3 4633 9.39200000 3178962751 3178962751 -15.63900000
8.73776913 7.93961430 -2.36125207 1 4 4634 12.04000000 3178962754 3178962754 -11.31000000
39.53388596 39.61677551 0.00000000 32 5 4634 55.96800000 3178962754 3178962754 0.00000000
20.97097015 17.25642014 -0.31617182 9 6 4635 27.16000000 3178962756 3178962756 -0.66700000
9.83471489 9.85189438 -2.16571236 2 7 4635 14.08800000 3178962756 3178962756 -8.84300000
11.89555550 10.80516148 -2.04554534 2 8 4635 16.20000000 3178962758 3178962758 -7.25400000
40.29059219 44.51233292 0.34894729 56 9 4635 60.04000000 3178962758 3178962758 0.33300000
39.12754822 35.52850342 -0.30717126 14 10 4636 52.85200000 3178962760 3178962760 -0.33300000
12.51099110 12.52847195 -1.90718424 2 11 4636 17.80800000 3178962760 3178962760 -6.14800000
15.04584408 12.37199497 -1.81835771 2 12 4637 19.56400000 3178962763 3178962763 -5.33300000
40.13459396 40.17664337 1.32143939 29 13 4637 56.80400000 3178962763 3178962763 1.33300000
40.04739761 32.91872025 0.60352033 38 14 4638 51.84400000 3178962765 3178962765 0.66700000
16.25484276 16.26619339 -1.60802627 2 15 4638 23.05200000 3178962765 3178962765 -4.00000000
15.60326195 14.15313721 -1.71971953 2 16 4639 21.13600000 3178962767 3178962767 -4.66700000
40.06629181 44.20246124 1.73623943 55 17 4639 59.68400000 3178962767 3178962767 1.66700000
40.01809311 36.28619385 0.94291860 19 18 4640 54.02800000 3178962770 3178962770 1.00000000
16.19017982 17.85528183 -1.54470253 3 19 4640 24.15200000 3178962770 3178962770 -3.66700000
19.00794792 15.61330509 -1.43254542 3 20 4640 24.64000000 3178962772 3178962772 -3.33300000
39.60158920 39.60158920 3.26159906 27 21 4640 56.10000000 3178962772 3178962772 3.33300000
40.14540482 36.38886642 2.20747447 36 22 4641 54.22800000 3178962774 3178962774 2.33300000
19.11974525 19.11307335 -1.25931835 4 23 4641 27.06400000 3178962774 3178962774 -2.66700000
19.56621933 17.72912407 -1.38376272 4 24 4642 26.44000000 3178962777 3178962777 -3.00000000
96.74114990 96.67363739 16.79261971 28 25 4642 137.79200000 3178962777 3178962777 7.00000000
94.70119476 85.77948761 10.43092537 28 26 4643 128.20000000 3178962779 3178962779 4.66700000
19.66302109 21.66248703 -1.19190919 4 27 4643 29.28000000 3178962779 3178962779 -2.33300000
20.82595825 17.08230019 -0.94061124 11 28 4644 26.95200000 3178962781 3178962781 -2.00000000
20.93363953 20.90443230 -0.68840283 18 31 4644 29.59200000 3178962784 3178962784 -1.33300000
3.90956116 3.53008151 -2.45625734 10 0 4652 5.81200000 3178962804 3178962804 -25.00000000
20.94629860 23.00354576 -0.54304910 14 1 4652 31.11600000 3178962804 3178962804 -1.00000000
20.87429810 18.84153175 -0.81837493 12 2 4653 28.13200000 3178962807 3178962807 -1.66700000
6.40705109 6.37804270 -2.53077340 6 3 4653 9.38800000 3178962807 3178962807 -15.63900000
8.75960636 7.90381050 -2.35968328 1 4 4654 12.03200000 3178962809 3178962809 -11.31000000
39.68044281 39.48699951 0.00000000 32 5 4654 55.98000000 3178962809 3178962809 0.00000000
21.02178764 17.17551994 -0.31603211 9 6 4655 27.14800000 3178962811 3178962811 -0.66700000
9.87464809 9.82308006 -2.16694212 1 7 4655 14.09600000 3178962811 3178962811 -8.84300000
11.93025303 10.76091480 -2.04504013 4 8 4655 16.19600000 3178962813 3178962813 -7.25400000
40.39183426 44.31230164 0.34848234 83 9 4655 59.96000000 3178962813 3178962813 0.33300000
39.23647690 35.37831116 -0.30705503 29 10 4656 52.83200000 3178962816 3178962816 -0.33300000
12.54900742 12.47911549 -1.90632749 2 11 4656 17.80000000 3178962816 3178962816 -6.14800000
15.07351303 12.30680561 -1.81649888 2 12 4657 19.54400000 3178962818 3178962818 -5.33300000
40.00233078 39.76565552 1.31250632 28 13 4657 56.42000000 3178962818 3178962818 1.33300000
40.18375015 32.79643250 0.60384625 57 14 4658 51.87200000 3178962820 3178962820 0.66700000
16.29454041 16.19247818 -1.60635209 2 15 4658 23.02800000 3178962820 3178962820 -4.00000000
15.65553284 14.10125351 -1.72004497 2 16 4659 21.14000000 3178962823 3178962823 -4.66700000
40.34164047 44.19522476 1.74147570 83 17 4659 59.86400000 3178962823 3178962823 1.66700000
40.19169235 36.20146942 0.94417518 19 18 4659 54.10000000 3178962825 3178962825 1.00000000
16.24122810 17.79265022 -1.54393506 3 19 4659 24.14000000 3178962825 3178962825 -3.66700000
18.97259140 15.47366810 -1.42580140 3 20 4660 24.52400000 3178962827 3178962827 -3.33300000
39.70841599 39.43216324 3.25904107 27 21 4660 56.05600000 3178962827 3178962827 3.33300000
40.14741516 36.13621140 2.20063567 35 22 4661 54.06000000 3178962830 3178962830 2.33300000
19.16933250 19.02932549 -1.25820160 4 23 4661 27.04000000 3178962830 3178962830 -2.66700000
19.61314011 17.64735794 -1.38271594 4 24 4662 26.42000000 3178962832 3178962832 -3.00000000
96.02404785 95.28945160 16.61030388 28 25 4662 136.29600000 3178962832 3178962832 7.00000000
44.36398315 39.90346527 4.87112808 27 26 4663 59.86800000 3178962834 3178962834 4.66700000
19.71155357 21.56421852 -1.19028091 8 27 4663 29.24000000 3178962834 3178962834 -2.33300000
20.82966614 16.96405983 -0.93809849 10 28 4664 26.88000000 3178962837 3178962837 -2.00000000
20.93833542 20.76365280 -0.68616956 18 31 4664 29.49600000 3178962839 3178962839 -1.33300000
3.95155025 3.54303432 -2.47485256 10 0 4672 5.85600000 3178962860 3178962860 -25.00000000
20.94537926 22.84185791 -0.54095477 14 1 4672 30.99600000 3178962860 3178962860 -1.00000000
20.87145996 18.70717430 -0.81569856 12 2 4673 28.04000000 3178962862 3178962862 -1.66700000
6.42653608 6.35293102 -2.52969527 6 3 4673 9.38400000 3178962862 3178962862 -15.63900000
8.78422070 7.87056828 -2.35889888 1 4 4674 12.02800000 3178962865 3178962865 -11.31000000
39.71561050 39.24702835 0.00000000 48 5 4674 55.83600000 3178962865 3178962865 0.00000000
21.11589622 17.13595963 -0.31659091 4 6 4674 27.19600000 3178962867 3178962867 -0.66700000
9.89592361 9.77916718 -2.16448259 2 7 4674 14.08000000 3178962867 3178962867 -8.84300000
11.96478748 10.71655750 -2.04453516 2 8 4675 16.19200000 3178962869 3178962869 -7.25400000
40.31635284 43.92056656 0.34650630 54 9 4675 59.62000000 3178962869 3178962869 0.33300000
39.32695007 35.21178436 -0.30679929 14 10 4676 52.78800000 3178962872 3178962872 -0.33300000
12.57834244 12.42126274 -1.90418553 2 11 4676 17.78000000 3178962872 3178962872 -6.14800000
15.13184929 12.26665401 -1.81835771 2 12 4677 19.56400000 3178962874 3178962874 -5.33300000
40.27180481 39.75500870 1.31678677 28 13 4677 56.60400000 3178962874 3178962874 1.33300000
40.21408463 32.58797455 0.60258901 19 14 4678 51.76400000 3178962876 3178962876 0.66700000
16.34812355 16.13269806 -1.60607302 2 15 4678 23.02400000 3178962876 3178962876 -4.00000000
15.69871712 14.04120350 -1.71939409 2 16 4679 21.13200000 3178962878 3178962878 -4.66700000
39.28615189 42.73833847 1.68946183 24 17 4679 58.07600000 3178962878 3178962878 1.66700000
40.29694748 36.04228973 0.94368654 19 18 4679 54.07200000 3178962881 3178962881 1.00000000
16.30053520 17.73291016 -1.54367912 3 19 4679 24.13600000 3178962881 3178962881 -3.66700000
19.02028275 15.40232182 -1.42533624 3 20 4680 24.51600000 3178962883 3178962883 -3.33300000
39.70649719 39.15592575 3.24764562 27 21 4680 55.86000000 3178962883 3178962883 3.33300000
40.14517593 35.88132477 2.19363403 35 22 4681 53.88800000 3178962885 3178962885 2.33300000
19.22425842 18.95107651 -1.25745714 4 23 4681 27.02400000 3178962885 3178962885 -2.66700000
19.67760086 17.58144951 -1.38292527 4 24 4682 26.42400000 3178962888 3178962888 -3.00000000
97.46459961 96.04606628 16.80139542 28 25 4682 137.86400000 3178962888 3178962888 7.00000000
43.67936707 39.01272583 4.78097630 26 26 4683 58.76000000 3178962890 3178962890 4.66700000
19.78399849 21.49234009 -1.19011807 8 27 4683 29.23600000 3178962890 3178962890 -2.33300000
20.82036972 16.83594894 -0.93502730 10 28 4684 26.79200000 3178962892 3178962892 -2.00000000
20.92805672 20.60906792 -0.68347108 18 31 4684 29.38000000 3178962895 3178962895 -1.33300000
4.12634850 3.67385936 -2.57628083 13 0 4692 6.09600000 3178962915 3178962915 -25.00000000
20.94630051 22.68339539 -0.53893030 13 1 4692 30.88000000 3178962915 3178962915 -1.00000000
20.87092781 18.57572365 -0.81313860 12 2 4693 27.95200000 3178962918 3178962918 -1.66700000
6.44317532 6.32506275 -2.52753854 6 3 4693 9.37600000 3178962918 3178962918 -15.63900000
8.80284977 7.83203602 -2.35654545 1 4 4694 12.01600000 3178962920 3178962920 -11.31000000
39.88091278 39.13617325 0.00000000 32 5 4694 55.87600000 3178962920 3178962920 0.00000000
21.17558289 17.06214714 -0.31659091 4 6 4694 27.19600000 3178962922 3178962922 -0.66700000
9.92153549 9.73625946 -2.16263771 2 7 4694 14.06800000 3178962922 3178962922 -8.84300000
11.99619198 10.66945362 -2.04352498 2 8 4695 16.18400000 3178962925 3178962925 -7.25400000
40.38253021 43.68557739 0.34576237 53 9 4695 59.49200000 3178962925 3178962925 0.33300000
39.34798813 34.98393250 -0.30600888 14 10 4696 52.65200000 3178962927 3178962927 -0.33300000
12.66137695 12.41626453 -1.91018295 2 11 4696 17.83600000 3178962927 3178962927 -6.14800000
15.16837120 12.20876503 -1.81761420 2 12 4697 19.55600000 3178962929 3178962929 -5.33300000
40.42746353 39.63098526 1.31734514 29 13 4697 56.62800000 3178962929 3178962929 1.33300000
40.21852493 32.35964584 0.60095930 37 14 4698 51.62400000 3178962931 3178962931 0.66700000
16.39008713 16.06157112 -1.60467792 2 15 4698 23.00400000 3178962931 3178962931 -4.00000000
15.66417122 13.91219139 -1.71028125 2 16 4699 21.02000000 3178962934 3178962934 -4.66700000
39.57633591 42.75352097 1.69551265 25 17 4699 58.28400000 3178962934 3178962934 1.66700000
40.41653442 35.89609528 0.94354689 39 18 4699 54.06400000 3178962936 3178962936 1.00000000
16.35420036 17.66711426 -1.54291165 3 19 4699 24.12400000 3178962936 3178962936 -3.66700000
19.08326721 15.34334087 -1.42603385 3 20 4700 24.52800000 3178962938 3178962938 -3.33300000
39.71454620 38.89135742 3.23718071 27 21 4700 55.68000000 3178962938 3178962938 3.33300000
39.96827316 35.47302246 2.17718816 33 22 4701 53.48400000 3178962941 3178962941 2.33300000
19.28172684 18.87547112 -1.25689876 4 23 4701 27.01200000 3178962941 3178962941 -2.66700000
19.73885155 17.51265335 -1.38292527 4 24 4702 26.42400000 3178962943 3178962943 -3.00000000
97.53537750 95.44702911 16.75605965 28 25 4702 137.49200000 3178962943 3178962943 7.00000000
42.23447037 37.45798874 4.60848379 45 26 4703 56.64000000 3178962945 3178962945 4.66700000
19.84531593 21.40849495 -1.18930387 8 27 4703 29.21600000 3178962945 3178962945 -2.33300000
20.82913589 16.72312737 -0.93279374 10 28 4704 26.72800000 3178962948 3178962948 -2.00000000
20.93411064 20.47158432 -0.68133086 18 31 4704 29.28800000 3178962950 3178962950 -1.33300000
4.16630697 3.68344522 -2.59318566 15 0 4712 6.13600000 3178962971 3178962971 -25.00000000
20.94364738 22.52227783 -0.53683603 13 1 4712 30.76000000 3178962971 3178962971 -1.00000000
20.87572289 18.44980240 -0.81081134 12 2 4713 27.87200000 3178962973 3178962973 -1.66700000
6.46521473 6.30253315 -2.52753854 6 3 4713 9.37600000 3178962973 3178962973 -15.63900000
8.83307457 7.80385733 -2.35732985 1 4 4714 12.02000000 3178962975 3178962975 -11.31000000
40.00868607 38.98834991 0.00000000 32 5 4714 55.86400000 3178962975 3178962975 0.00000000
21.29435349 17.03560066 -0.31747562 4 6 4714 27.27200000 3178962978 3178962978 -0.66700000
9.94696903 9.69329262 -2.16079307 2 7 4714 14.05600000 3178962978 3178962978 -8.84300000
12.03336239 10.62751389 -2.04352498 2 8 4715 16.18400000 3178962980 3178962980 -7.25400000
40.42848587 43.43016815 0.34485570 53 9 4715 59.33600000 3178962980 3178962980 0.33300000
39.47586060 34.85166168 -0.30605537 14 10 4716 52.66000000 3178962982 3178962982 -0.33300000
12.68469620 12.35257053 -1.90718424 2 11 4716 17.80800000 3178962982 3178962982 -6.14800000
15.20778370 12.15325642 -1.81724238 2 12 4717 19.55200000 3178962984 3178962984 -5.33300000
40.02972412 38.96800613 1.29994428 27 13 4717 55.88000000 3178962984 3178962984 1.33300000
40.08748627 32.02433395 0.59732723 37 14 4718 51.31200000 3178962987 3178962987 0.66700000
16.46607018 16.02374077 -1.60663116 2 15 4718 23.03200000 3178962987 3178962987 -4.00000000
15.71263885 13.85742855 -1.71028125 2 16 4719 21.02000000 3178962989 3178962989 -4.66700000
39.69261551 42.58001709 1.69411635 25 17 4719 58.23600000 3178962989 3178962989 1.66700000
39.85483170 35.13676071 0.92742085 18 18 4720 53.14000000 3178962991 3178962991 1.00000000
16.41339874 17.60121536 -1.54240000 3 19 4720 24.11600000 3178962991 3178962991 -3.66700000
19.12734795 15.26916027 -1.42533624 3 20 4720 24.51600000 3178962994 3178962994 -3.33300000
39.77849197 38.68289185 3.23136687 27 21 4720 55.58000000 3178962994 3178962994 3.33300000
40.09785080 35.33857346 2.17751384 16 22 4721 53.49200000 3178962996 3178962996 2.33300000
19.32457733 18.78576851 -1.25540972 4 23 4721 26.98000000 3178962996 3178962996 -2.66700000
19.79086876 17.43572426 -1.38229728 4 24 4722 26.41200000 3178962998 3178962998 -3.00000000
97.18177032 94.43916321 16.63857841 28 25 4722 136.52800000 3178962998 3178962998 7.00000000
42.36496735 37.31033707 4.60848379 45 26 4723 56.64000000 3178963001 3178963001 4.66700000
19.92265129 21.34201241 -1.18946671 8 27 4723 29.22000000 3178963001 3178963001 -2.33300000
20.82486534 16.60048103 -0.93000180 10 28 4724 26.64800000 3178963003 3178963003 -2.00000000
20.93659019 20.33152390 -0.67909759 18 31 4724 29.19200000 3178963005 3178963005 -1.33300000
4.14372301 3.63778758 -2.57120943 16 0 4732 6.08400000 3178963026 3178963026 -25.00000000
20.94285965 22.36437607 -0.53481156 13 1 4732 30.64400000 3178963026 3178963026 -1.00000000
20.86787224 18.31352425 -0.80801868 12 2 4733 27.77600000 3178963028 3178963028 -1.66700000
6.48994255 6.28260612 -2.52861691 6 3 4733 9.38000000 3178963028 3178963028 -15.63900000
8.85731316 7.77039003 -2.35654545 1 4 4734 12.01600000 3178963030 3178963030 -11.31000000
40.11866760 38.82342148 0.00000000 32 5 4734 55.82800000 3178963030 3178963030 0.00000000
21.34725189 16.94997597 -0.31733593 4 6 4735 27.26000000 3178963033 3178963033 -0.66700000
9.97958946 9.65402126 -2.16017818 2 7 4735 14.05200000 3178963033 3178963033 -8.84300000
12.05845261 10.57497978 -2.04150462 2 8 4735 16.16800000 3178963035 3178963035 -7.25400000
40.47862244 43.18080521 0.34399554 52 9 4735 59.18800000 3178963035 3178963035 0.33300000
39.55516434 34.67673874 -0.30572990 14 10 4736 52.60400000 3178963037 3178963037 -0.33300000
12.73059654 12.31098175 -1.90761268 1 11 4736 17.81200000 3178963037 3178963037 -6.14800000
15.24387360 12.09514713 -1.81649888 2 12 4737 19.54400000 3178963040 3178963040 -5.33300000
40.40701675 39.06150818 1.30776072 28 13 4737 56.21600000 3178963040 3178963040 1.33300000
40.12695312 31.82704163 0.59625626 37 14 4738 51.22000000 3178963042 3178963042 0.66700000
16.41860580 15.86634254 -1.59658623 2 15 4738 22.88800000 3178963042 3178963042 -4.00000000
15.76691246 13.80774975 -1.71093214 2 16 4739 21.02800000 3178963044 3178963044 -4.66700000
40.01614380 42.62777328 1.70156348 50 17 4739 58.49200000 3178963044 3178963044 1.66700000
40.04333878 35.06764221 0.92909628 37 18 4739 53.23600000 3178963047 3178963047 1.00000000
16.46894455 17.54377937 -1.54214418 3 19 4739 24.11200000 3178963047 3178963047 -3.66700000
19.19304848 15.21222210 -1.42626643 3 20 4740 24.53200000 3178963049 3178963049 -3.33300000
39.70645905 38.34408188 3.21462274 26 21 4740 55.29200000 3178963049 3178963049 3.33300000
40.04952621 35.04836655 2.16823268 33 22 4741 53.26400000 3178963051 3178963051 2.33300000
19.37853432 18.70709801 -1.25466526 4 23 4741 26.96400000 3178963051 3178963051 -2.66700000
19.75841141 17.28500175 -1.37580764 4 24 4742 26.28800000 3178963054 3178963054 -3.00000000
97.77366638 94.35299683 16.68342590 28 25 4742 136.89600000 3178963054 3178963054 7.00000000
42.40191269 37.08086777 4.59839439 45 26 4743 56.51600000 3178963056 3178963056 4.66700000
19.99155235 21.26651573 -1.18914104 8 27 4743 29.21200000 3178963056 3178963056 -2.33300000
20.82312775 16.48055077 -0.92734945 10 28 4744 26.57200000 3178963058 3178963058 -2.00000000
20.93323517 20.17971611 -0.67658520 18 31 4745 29.08400000 3178963060 3178963060 -1.33300000
4.10720778 3.58042169 -2.54078102 8 0 4752 6.01200000 3178963081 3178963081 -25.00000000
20.94122696 22.20675468 -0.53278708 13 1 4752 30.52800000 3178963081 3178963081 -1.00000000
20.87741280 18.19328690 -0.80592418 16 2 4753 27.70400000 3178963083 3178963083 -1.66700000
6.51183367 6.25991392 -2.52861691 6 3 4753 9.38000000 3178963083 3178963083 -15.63900000
8.88733959 7.74200106 -2.35732985 1 4 4754 12.02000000 3178963086 3178963086 -11.31000000
40.18472290 38.61662674 0.00000000 32 5 4754 55.73200000 3178963086 3178963086 0.00000000
34.42596054 27.13924026 -0.51034510 11 6 4755 43.84000000 3178963088 3178963088 -0.66700000
10.01892757 9.62460423 -2.16140795 2 7 4755 14.06000000 3178963088 3178963088 -8.84300000
12.09529305 10.53282356 -2.04150462 2 8 4755 16.16800000 3178963090 3178963090 -7.25400000
40.49730682 42.89963150 0.34287965 52 9 4755 58.99600000 3178963090 3178963090 0.33300000
39.53115463 34.41239166 -0.30461401 13 10 4756 52.41200000 3178963093 3178963093 -0.33300000
12.77349281 12.26646900 -1.90761268 1 11 4756 17.81200000 3178963093 3178963093 -6.14800000
15.28287220 12.03939724 -1.81612706 2 12 4757 19.54000000 3178963095 3178963095 -5.33300000
40.68735886 39.05869293 1.31241333 42 13 4757 56.41600000 3178963095 3178963095 1.33300000
39.94870758 31.45911980 0.59197235 36 14 4758 50.85200000 3178963097 3178963097 0.66700000
16.47101021 15.80617142 -1.59630716 2 15 4758 22.88400000 3178963097 3178963097 -4.00000000
15.79997253 13.73954868 -1.70930481 2 16 4759 21.00800000 3178963100 3178963100 -4.66700000
39.69501495 41.99098206 1.68166554 24 17 4759 57.80800000 3178963100 3178963100 1.66700000
40.03875351 34.81742477 0.92616433 36 18 4759 53.06800000 3178963102 3178963102 1.00000000
16.46152878 17.41366386 -1.53574848 3 19 4759 24.01200000 3178963102 3178963102 -3.66700000
19.23975563 15.14019394 -1.42580140 3 20 4760 24.52400000 3178963104 3178963104 -3.33300000
39.79971313 38.16655350 3.21136689 39 21 4760 55.23600000 3178963104 3178963104 3.33300000
40.15352249 34.89262390 2.16725564 32 22 4761 53.24000000 3178963107 3178963107 2.33300000
19.43506241 18.63104439 -1.25410688 4 23 4761 26.95200000 3178963107 3178963107 -2.66700000
19.80354881 17.20282936 -1.37476087 4 24 4762 26.26800000 3178963109 3178963109 -3.00000000
98.99103546 94.86267853 16.83454323 28 25 4762 138.13600000 3178963109 3178963109 7.00000000
42.46185684 36.87251282 4.59090900 44 26 4763 56.42400000 3178963111 3178963111 4.66700000
20.05467415 21.18499374 -1.18848979 8 27 4763 29.19600000 3178963111 3178963111 -2.33300000
20.82709312 16.36577606 -0.92497629 10 28 4764 26.50400000 3178963113 3178963113 -2.00000000
20.92783356 20.04104233 -0.67425883 18 31 4764 28.98400000 3178963116 3178963116 -1.33300000
3.98263216 3.44743156 -2.45625734 5 0 4772 5.81200000 3178963136 3178963136 -25.00000000
20.94150352 22.05231857 -0.53083241 13 1 4772 30.41600000 3178963136 3178963136 -1.00000000
20.87125206 18.06012726 -0.80324781 12 2 4773 27.61200000 3178963139 3178963139 -1.66700000
6.52807283 6.23182535 -2.52646041 6 3 4773 9.37200000 3178963139 3178963139 -15.63900000
8.90837765 7.70579958 -2.35576081 1 4 4774 12.01200000 3178963141 3178963141 -11.31000000
40.17747879 38.34080505 0.00000000 31 5 4774 55.53600000 3178963141 3178963141 0.00000000
34.65118790 27.13095856 -0.51234734 11 6 4774 44.01200000 3178963143 3178963143 -0.66700000
10.04792976 9.58859825 -2.16079307 2 7 4774 14.05600000 3178963143 3178963143 -8.84300000
12.12898445 10.48794365 -2.04099965 2 8 4775 16.16400000 3178963146 3178963146 -7.25400000
40.47869873 42.58116531 0.34146154 51 9 4775 58.75200000 3178963146 3178963146 0.33300000
39.64801025 34.27157593 -0.30459076 13 10 4776 52.40800000 3178963148 3178963148 -0.33300000
12.81047630 12.21631718 -1.90675581 1 11 4776 17.80400000 3178963148 3178963148 -6.14800000
15.33107853 11.99088383 -1.81687069 2 12 4777 19.54800000 3178963150 3178963150 -5.33300000
40.12009811 38.24592972 1.28980160 27 13 4777 55.44400000 3178963150 3178963150 1.33300000
40.10869217 31.35889816 0.59271741 18 14 4778 50.91600000 3178963153 3178963153 0.66700000
16.52897263 15.75133419 -1.59658623 2 15 4778 22.88800000 3178963153 3178963153 -4.00000000
15.86895847 13.70255184 -1.71158302 2 16 4779 21.03600000 3178963155 3178963155 -4.66700000
39.75588989 41.76239014 1.67805839 48 17 4779 57.68400000 3178963155 3178963155 1.66700000
40.11161041 34.63563156 0.92504734 36 18 4779 53.00400000 3178963157 3178963157 1.00000000
16.52496529 17.35898781 -1.53600430 3 19 4779 24.01600000 3178963157 3178963157 -3.66700000
19.28619385 15.06802559 -1.42533624 3 20 4780 24.51600000 3178963160 3178963160 -3.33300000
39.82569885 37.92550278 3.20276237 26 21 4780 55.08800000 3178963160 3178963160 3.33300000
39.98761368 34.50420380 2.15178680 31 22 4781 52.86000000 3178963162 3178963162 2.33300000
19.47103882 18.53554153 -1.25224555 4 23 4781 26.91200000 3178963162 3178963162 -2.66700000
19.86045265 17.13098717 -1.37455153 4 24 4782 26.26400000 3178963164 3178963164 -3.00000000
97.58730316 92.86619568 16.54059410 28 25 4782 135.72400000 3178963164 3178963164 7.00000000
42.51784134 36.66158676 4.58309793 44 26 4783 56.32800000 3178963166 3178963166 4.66700000
20.03198242 21.01361084 -1.18279076 8 27 4783 29.05600000 3178963166 3178963166 -2.33300000
20.81790543 16.24133873 -0.92204469 10 28 4784 26.42000000 3178963169 3178963169 -2.00000000
20.93448639 19.90083504 -0.67211866 18 31 4785 28.89200000 3178963171 3178963171 -1.33300000
3.97814631 3.41933036 -2.44611454 4 0 4792 5.78800000 3178963192 3178963192 -25.00000000
20.93542862 21.89237022 -0.52873808 13 1 4792 30.29600000 3178963192 3178963192 -1.00000000
20.87351418 17.93504715 -0.80092061 12 2 4793 27.53200000 3178963194 3178963194 -1.66700000
6.54419518 6.20370007 -2.52430367 6 3 4793 9.36400000 3178963194 3178963194 -15.63900000
8.92629528 7.66698933 -2.35340738 1 4 4794 12.00000000 3178963196 3178963196 -11.31000000
40.21525574 38.10953140 0.00000000 31 5 4794 55.40400000 3178963196 3178963196 0.00000000
34.73304749 27.00001907 -0.51216108 11 6 4794 43.99600000 3178963199 3178963199 -0.66700000
10.07273197 9.54531002 -2.15894842 2 7 4794 14.04400000 3178963199 3178963199 -8.84300000
12.16250992 10.44295597 -2.04049444 2 8 4795 16.16000000 3178963201 3178963201 -7.25400000
40.53027725 42.33848190 0.34064788 50 9 4795 58.61200000 3178963201 3178963201 0.33300000
39.61563873 34.00271225 -0.30342838 13 10 4796 52.20800000 3178963203 3178963203 -0.33300000
12.85592842 12.17426014 -1.90718424 1 11 4796 17.80800000 3178963203 3178963203 -6.14800000
15.35396767 11.92263985 -1.81464005 2 12 4797 19.52400000 3178963206 3178963206 -5.33300000
40.37532806 38.22111511 1.29370975 27 13 4797 55.61200000 3178963206 3178963206 1.33300000
40.13260269 31.15248299 0.59146017 54 14 4798 50.80800000 3178963208 3178963208 0.66700000
16.56646538 15.67708492 -1.59491205 2 15 4798 22.86400000 3178963208 3178963208 -4.00000000
15.90155983 13.63409996 -1.70995581 2 16 4799 21.01600000 3178963210 3178963210 -4.66700000
39.63856888 41.34916306 1.66700399 46 17 4799 57.30400000 3178963210 3178963210 1.66700000
40.19886780 34.46677017 0.92427945 36 18 4799 52.96000000 3178963213 3178963213 1.00000000
16.57993317 17.29543686 -1.53549266 3 19 4799 24.00800000 3178963213 3178963213 -3.66700000
19.33236313 14.99571800 -1.42487109 3 20 4800 24.50800000 3178963215 3178963215 -3.33300000
39.71702576 37.55852509 3.18346024 38 21 4800 54.75600000 3178963215 3178963215 3.33300000
39.78002930 34.08356857 2.13420129 45 22 4801 52.42800000 3178963217 3178963217 2.33300000
19.52691078 18.45922661 -1.25168717 4 23 4801 26.90000000 3178963217 3178963217 -2.66700000
19.92012978 17.06155777 -1.37455153 9 24 4802 26.26400000 3178963219 3178963219 -3.00000000
98.82849121 93.39212799 16.69561195 28 25 4802 136.99600000 3178963219 3178963219 7.00000000
42.50322342 36.39108276 4.56780148 43 26 4803 56.14000000 3178963222 3178963222 4.66700000
20.09967613 20.93779182 -1.18246508 8 27 4803 29.04800000 3178963222 3178963222 -2.33300000
20.82074356 16.12695694 -0.91967154 10 28 4804 26.35200000 3178963224 3178963224 -2.00000000
20.93403625 19.76175690 -0.66988540 18 31 4805 28.79600000 3178963226 3178963226 -1.33300000
3.99281526 3.40777659 -2.44780493 5 0 4812 5.79200000 3178963247 3178963247 -25.00000000
20.93404198 21.73849678 -0.52678341 13 1 4812 30.18400000 3178963247 3178963247 -1.00000000
20.86907578 17.80498505 -0.79836065 12 2 4813 27.44400000 3178963249 3178963249 -1.66700000
6.57141972 6.18609953 -2.52646041 6 3 4813 9.37200000 3178963249 3178963249 -15.63900000
8.97091007 7.65105581 -2.35811424 1 4 4814 12.02400000 3178963252 3178963252 -11.31000000
40.22569275 37.85379028 0.00000000 31 5 4814 55.23600000 3178963252 3178963252 0.00000000
34.81758499 26.87128258 -0.51202142 11 6 4814 43.98400000 3178963254 3178963254 -0.66700000
10.10023308 9.50467396 -2.15771842 2 7 4814 14.03600000 3178963254 3178963254 -8.84300000
12.19888878 10.40043736 -2.04049444 2 8 4815 16.16000000 3178963256 3178963256 -7.25400000
40.53068924 42.04412079 0.33941576 50 9 4815 58.40000000 3178963256 3178963256 0.33300000
39.59405136 33.74486923 -0.30235898 13 10 4816 52.02400000 3178963259 3178963259 -0.33300000
12.90414143 12.13475895 -1.90804100 1 11 4816 17.81600000 3178963259 3178963259 -6.14800000
15.40180016 11.87383461 -1.81538355 2 12 4817 19.53200000 3178963261 3178963261 -5.33300000
40.24335861 37.83069992 1.28524196 40 13 4817 55.24800000 3178963261 3178963261 1.33300000
40.12388229 30.92186737 0.58973730 17 14 4818 50.66000000 3178963263 3178963263 0.66700000
16.62399483 15.62189388 -1.59519100 2 15 4818 22.86800000 3178963263 3178963263 -4.00000000
15.93994808 13.57075691 -1.70897937 2 16 4819 21.00400000 3178963266 3178963266 -4.66700000
39.61049271 41.03219604 1.65978956 45 17 4819 57.05600000 3178963266 3178963266 1.66700000
40.20930862 34.23290634 0.92176628 36 18 4819 52.81600000 3178963268 3178963268 1.00000000
16.61525345 17.21160889 -1.53319013 3 19 4819 23.97200000 3178963268 3178963268 -3.66700000
19.37509918 14.92083454 -1.42417347 3 20 4820 24.49600000 3178963270 3178963270 -3.33300000
39.88573074 37.45519638 3.18648338 26 21 4820 54.80800000 3178963270 3178963270 3.33300000
39.79526138 33.85644913 2.12866521 29 22 4821 52.29200000 3178963272 3178963272 2.33300000
19.57666016 18.37727928 -1.25075662 4 23 4821 26.88000000 3178963272 3178963272 -2.66700000
19.97043610 16.98415565 -1.37392354 9 24 4822 26.25200000 3178963275 3178963275 -3.00000000
97.17943573 91.19374847 16.36315346 28 25 4822 134.26800000 3178963275 3178963275 7.00000000
42.74237823 36.33803940 4.57984352 44 26 4823 56.28800000 3178963277 3178963277 4.66700000
20.16986275 20.86462975 -1.18230224 12 27 4823 29.04400000 3178963277 3178963277 -2.33300000
20.81987000 16.01031685 -0.91715878 10 28 4824 26.28000000 3178963279 3178963279 -2.00000000
20.93578720 19.62565994 -0.66774517 18 31 4825 28.70400000 3178963282 3178963282 -1.33300000
3.99085784 3.38209939 -2.43935251 6 0 4832 5.77200000 3178963302 3178963302 -25.00000000
20.92905426 21.58202934 -0.52475893 13 1 4832 30.06800000 3178963302 3178963302 -1.00000000
20.86703300 17.67775536 -0.79591703 12 2 4833 27.36000000 3178963305 3178963305 -1.66700000
6.59015942 6.16049290 -2.52538204 6 3 4833 9.36800000 3178963305 3178963305 -15.63900000
8.98858261 7.61209011 -2.35576081 1 4 4834 12.01200000 3178963307 3178963307 -11.31000000
40.24944687 37.61209488 0.00000000 30 5 4834 55.08800000 3178963307 3178963307 0.00000000
34.82862473 26.68633270 -0.51081073 11 6 4834 43.88000000 3178963309 3178963309 -0.66700000
10.13334942 9.46936035 -2.15771842 2 7 4834 14.03600000 3178963309 3178963309 -8.84300000
12.22906113 10.35266495 -2.03948426 2 8 4835 16.15200000 3178963312 3178963312 -7.25400000
40.51839447 41.73879623 0.33809063 49 9 4835 58.17200000 3178963312 3178963312 0.33300000
39.57725525 33.49276352 -0.30133611 25 10 4836 51.84800000 3178963314 3178963314 -0.33300000
12.93188667 12.07606983 -1.90589905 1 11 4836 17.79600000 3178963314 3178963314 -6.14800000
15.44315338 11.82000065 -1.81538355 2 12 4837 19.53200000 3178963316 3178963316 -5.33300000
40.21731186 37.54264069 1.28021717 26 13 4837 55.03200000 3178963316 3178963316 1.33300000
40.40946579 30.91772461 0.59234488 18 14 4838 50.88400000 3178963318 3178963318 0.66700000
16.69884491 15.58282661 -1.59714425 2 15 4838 22.89600000 3178963318 3178963318 -4.00000000
15.98417759 13.51245975 -1.70865393 2 16 4839 21.00000000 3178963321 3178963321 -4.66700000
39.89004135 41.03415680 1.66549122 23 17 4839 57.25200000 3178963321 3178963321 1.66700000
40.30412292 34.07168579 0.92120785 36 18 4839 52.78400000 3178963323 3178963323 1.00000000
16.67523193 17.15350533 -1.53319013 3 19 4839 23.97200000 3178963323 3178963323 -3.66700000
19.41437531 14.84341049 -1.42324328 3 20 4840 24.48000000 3178963325 3178963325 -3.33300000
39.83808136 37.14961243 3.17229748 25 21 4840 54.56400000 3178963325 3178963325 3.33300000
39.74833298 33.57805634 2.11987233 14 22 4841 52.07600000 3178963328 3178963328 2.33300000
19.62315369 18.29248428 -1.24963987 4 23 4841 26.85600000 3178963328 3178963328 -2.66700000
20.02654839 16.91176605 -1.37371421 9 24 4842 26.24800000 3178963330 3178963330 -3.00000000
43.42599106 40.46706009 7.28827429 27 25 4842 59.80400000 3178963330 3178963330 7.00000000
42.74710464 36.08575439 4.56682491 43 26 4843 56.12800000 3178963332 3178963332 4.66700000
20.22305489 20.77404976 -1.18116248 8 27 4843 29.01600000 3178963332 3178963332 -2.33300000
20.80890465 15.88660145 -0.91422719 10 28 4844 26.19600000 3178963335 3178963335 -2.00000000
20.92806435 19.48161888 -0.66532582 21 31 4845 28.60000000 3178963337 3178963337 -1.33300000
3.99591732 3.36487484 -2.43597174 6 0 4850 5.76400000 3178963358 3178963358 -25.00000000
20.91295624 21.43030167 -0.52266467 12 1 4850 29.94800000 3178963358 3178963358 -1.00000000
20.86434937 17.56319046 -0.79370612 12 2 4851 27.28400000 3178963360 3178963360 -1.66700000
6.60383606 6.13451576 -2.52322531 6 3 4851 9.36000000 3178963360 3178963360 -15.63900000
9.00044727 7.57371283 -2.35262299 1 4 4852 11.99600000 3178963362 3178963362 -11.31000000
40.25602722 37.38203049 0.00000000 30 5 4852 54.93600000 3178963362 3178963362 0.00000000
34.90274429 26.56951523 -0.51067102 11 6 4852 43.86800000 3178963365 3178963365 -0.66700000
10.15146351 9.42672062 -2.15525889 1 7 4852 14.02000000 3178963365 3178963365 -8.84300000
12.26456165 10.31674957 -2.03998947 2 8 4853 16.15600000 3178963367 3178963367 -7.25400000
40.52354050 41.48254013 0.33704451 72 9 4853 57.99200000 3178963367 3178963367 0.33300000
39.65472794 33.34509277 -0.30112687 25 10 4854 51.81200000 3178963369 3178963369 -0.33300000
12.95810032 12.02456284 -1.90418553 1 11 4854 17.78000000 3178963369 3178963369 -6.14800000
15.46436024 11.75937271 -1.81352460 2 12 4855 19.51200000 3178963371 3178963371 -5.33300000
40.36144257 37.44058609 1.28105462 13 13 4855 55.06800000 3178963371 3178963371 1.33300000
40.46181870 30.75673676 0.59169298 18 14 4856 50.82800000 3178963374 3178963374 0.66700000
16.72723770 15.51129723 -1.59519100 2 15 4856 22.86800000 3178963374 3178963374 -4.00000000
16.03265381 13.46730614 -1.70930481 2 16 4857 21.00800000 3178963376 3178963376 -4.66700000
40.02714539 40.91721344 1.66584039 46 17 4857 57.26400000 3178963376 3178963376 1.66700000
40.27928162 33.83428574 0.91820604 35 18 4857 52.61200000 3178963378 3178963378 1.00000000
16.72066498 17.09247398 -1.53242266 3 19 4857 23.96000000 3178963378 3178963378 -3.66700000
19.47045135 14.78959179 -1.42394090 3 20 4858 24.49200000 3178963381 3178963381 -3.33300000
39.89308548 36.96727753 3.16741395 38 21 4858 54.48000000 3178963381 3178963381 3.33300000
40.15362167 33.70483398 2.13582969 15 22 4859 52.46800000 3178963383 3178963383 2.33300000
19.67173004 18.22260094 -1.24908149 4 23 4859 26.84400000 3178963383 3178963383 -2.66700000
20.07651901 16.84619904 -1.37350488 9 24 4860 26.24400000 3178963385 3178963385 -3.00000000
43.54708099 40.32503891 7.28729916 55 25 4860 59.79600000 3178963385 3178963385 7.00000000
42.65560913 35.77962112 4.54501963 64 26 4861 55.86000000 3178963388 3178963388 4.66700000
20.28821945 20.71041489 -1.18116248 8 27 4861 29.01600000 3178963388 3178963388 -2.33300000
20.81412125 15.78732872 -0.91227287 10 28 4862 26.14000000 3178963390 3178963390 -2.00000000
20.91533279 19.35425377 -0.66309255 21 31 4862 28.50400000 3178963392 3178963392 -1.33300000
4.00324392 3.34485793 -2.43259072 6 0 4872 5.75600000 3178963413 3178963413 -25.00000000
20.92498207 21.27855492 -0.52091944 12 1 4872 29.84800000 3178963413 3178963413 -1.00000000
20.85798264 17.42143250 -0.79091346 11 2 4873 27.18800000 3178963415 3178963415 -1.66700000
6.62734222 6.10911369 -2.52322531 6 3 4873 9.36000000 3178963415 3178963415 -15.63900000
9.03849506 7.54663944 -2.35497642 1 4 4874 12.00800000 3178963418 3178963418 -11.31000000
40.26689911 37.10520935 0.00000000 29 5 4874 54.75600000 3178963418 3178963418 0.00000000
34.98677444 26.41232491 -0.51034510 11 6 4875 43.84000000 3178963420 3178963420 -0.66700000
10.18631554 9.38321590 -2.15464401 2 7 4875 14.01600000 3178963420 3178963420 -8.84300000
12.29494572 10.26195335 -2.03847432 2 8 4875 16.14400000 3178963422 3178963422 -7.25400000
40.39349747 41.03303146 0.33464998 47 9 4875 57.58000000 3178963422 3178963422 0.33300000
39.60433578 33.04395676 -0.29977852 24 10 4876 51.58000000 3178963424 3178963424 -0.33300000
13.01002693 11.98010635 -1.90504229 1 11 4876 17.78800000 3178963424 3178963424 -6.14800000
15.51257801 11.70230579 -1.81389642 2 12 4877 19.51600000 3178963427 3178963427 -5.33300000
40.19598007 37.00095749 1.27128410 39 13 4877 54.64800000 3178963427 3178963427 1.33300000
40.73609543 30.71915054 0.59397465 18 14 4878 51.02400000 3178963429 3178963429 0.66700000
16.78667259 15.44695473 -1.59519100 2 15 4878 22.86800000 3178963429 3178963429 -4.00000000
16.06587219 13.39033127 -1.70735216 2 16 4879 20.98400000 3178963431 3178963431 -4.66700000
40.08572006 40.66355896 1.66176772 23 17 4879 57.12400000 3178963431 3178963431 1.66700000
40.26114273 33.54431915 0.91471553 35 18 4880 52.41200000 3178963434 3178963434 1.00000000
16.77512932 17.01100349 -1.53114355 3 19 4880 23.94000000 3178963434 3178963434 -3.66700000
19.52390480 14.71231842 -1.42370832 3 20 4880 24.48800000 3178963436 3178963436 -3.33300000
40.02591705 36.80571747 3.16671610 38 21 4880 54.46800000 3178963436 3178963436 3.33300000
40.03091812 33.34066772 2.12247753 14 22 4881 52.14000000 3178963438 3178963438 2.33300000
19.72096252 18.12800407 -1.24777865 4 23 4881 26.81600000 3178963438 3178963438 -2.66700000
20.01826286 16.66675186 -1.36513114 9 24 4882 26.08400000 3178963441 3178963441 -3.00000000
43.52034760 39.99098206 7.25707579 54 25 4882 59.54800000 3178963441 3178963441 7.00000000
42.37900162 35.27127457 4.50108242 41 26 4883 55.32000000 3178963443 3178963443 4.66700000
20.37039948 20.63520622 -1.18132532 8 27 4883 29.02000000 3178963443 3178963443 -2.33300000
20.81389427 15.66162491 -0.90962046 10 28 4884 26.06400000 3178963445 3178963445 -2.00000000
20.91291237 19.20347977 -0.66067320 17 31 4884 28.40000000 3178963448 3178963448 -1.33300000
4.00594521 3.32461882 -2.42751932 6 0 4891 5.74400000 3178963468 3178963468 -25.00000000
20.91946030 21.13230515 -0.51903456 12 1 4891 29.74000000 3178963468 3178963468 -1.00000000
20.86025047 17.30621719 -0.78881890 15 2 4892 27.11600000 3178963471 3178963471 -1.66700000
6.64472342 6.08450174 -2.52214718 6 3 4892 9.35600000 3178963471 3178963471 -15.63900000
9.06347084 7.51662493 -2.35497642 1 4 4893 12.00800000 3178963473 3178963473 -11.31000000
40.27760315 36.86884308 0.00000000 44 5 4893 54.60400000 3178963473 3178963473 0.00000000
35.06456757 26.28896141 -0.51020539 11 6 4894 43.82800000 3178963475 3178963475 -0.66700000
10.21445942 9.34671688 -2.15402913 2 7 4894 14.01200000 3178963475 3178963475 -8.84300000
12.32890797 10.22112465 -2.03847432 2 8 4894 16.14400000 3178963477 3178963477 -7.25400000
40.39983368 40.76816177 0.33358058 46 9 4894 57.39600000 3178963477 3178963477 0.33300000
39.52275085 32.75419998 -0.29833716 23 10 4895 51.33200000 3178963480 3178963480 -0.33300000
13.04087925 11.92884541 -1.90375710 1 11 4895 17.77600000 3178963480 3178963480 -6.14800000
15.54492378 11.64602375 -1.81315291 2 12 4896 19.50800000 3178963482 3178963482 -5.33300000
40.19155884 36.75142288 1.26728284 25 13 4896 54.47600000 3178963482 3178963482 1.33300000
40.73209381 30.50477409 0.59243798 18 14 4897 50.89200000 3178963484 3178963484 0.66700000
16.82013321 15.37504959 -1.59351683 2 15 4897 22.84400000 3178963484 3178963484 -4.00000000
16.11632919 13.34206581 -1.70800304 2 16 4898 20.99200000 3178963487 3178963487 -4.66700000
39.94152451 40.24943924 1.65024781 44 17 4898 56.72800000 3178963487 3178963487 1.66700000
40.21229172 33.29014969 0.91122502 34 18 4898 52.21200000 3178963489 3178963489 1.00000000
16.80880547 16.93838501 -1.52935266 3 19 4898 23.91200000 3178963489 3178963489 -3.66700000
19.56938934 14.64510155 -1.42347574 3 20 4899 24.48400000 3178963491 3178963491 -3.33300000
40.02391815 36.55967331 3.15694880 37 21 4899 54.30000000 3178963491 3178963491 3.33300000
40.17821503 33.23830795 2.12443161 29 22 4900 52.18800000 3178963494 3178963494 2.33300000
19.77211761 18.05442429 -1.24722028 7 23 4900 26.80400000 3178963494 3178963494 -2.66700000
20.06726456 16.59518623 -1.36471236 9 24 4901 26.07600000 3178963496 3178963496 -3.00000000
43.34483337 39.56539917 7.20589066 53 25 4901 59.12800000 3178963496 3178963496 7.00000000
42.81836700 35.39726639 4.53525591 42 26 4902 55.74000000 3178963498 3178963498 4.66700000
20.42181206 20.55053139 -1.18034828 8 27 4902 28.99600000 3178963498 3178963498 -2.33300000
20.80807495 15.54944324 -0.90710771 10 28 4903 25.99200000 3178963501 3178963501 -2.00000000
20.91738892 19.08012581 -0.65881211 17 31 4903 28.32000000 3178963503 3178963503 -1.33300000
4.01415062 3.30901027 -2.42582893 6 0 4910 5.74000000 3178963523 3178963523 -25.00000000
20.91602325 20.98916245 -0.51721954 12 1 4910 29.63600000 3178963523 3178963523 -1.00000000
20.85889816 17.18863487 -0.78660804 23 2 4911 27.04000000 3178963525 3178963525 -1.66700000
6.66486406 6.06243324 -2.52214718 6 3 4911 9.35600000 3178963525 3178963525 -15.63900000
9.08229160 7.48154068 -2.35340738 1 4 4912 12.00000000 3178963528 3178963528 -11.31000000
40.25758743 36.60590744 0.00000000 43 5 4912 54.41200000 3178963528 3178963528 0.00000000
35.15660477 26.18584061 -0.51034510 11 6 4912 43.84000000 3178963530 3178963530 -0.66700000
10.23792362 9.30926323 -2.15279913 2 7 4912 14.00400000 3178963530 3178963530 -8.84300000
12.35354519 10.17261791 -2.03695893 2 8 4913 16.13200000 3178963532 3178963532 -7.25400000
40.41050720 40.50936890 0.33255771 46 9 4913 57.22000000 3178963532 3178963532 0.33300000
39.54467773 32.55177689 -0.29768622 23 10 4914 51.22000000 3178963535 3178963535 -0.33300000
13.08036518 11.88553429 -1.90375710 1 11 4914 17.77600000 3178963535 3178963535 -6.14800000
15.58665371 11.59678841 -1.81352460 2 12 4915 19.51200000 3178963537 3178963537 -5.33300000
40.29544830 36.60181046 1.26672447 25 13 4915 54.45200000 3178963537 3178963537 1.33300000
40.66292953 30.24302483 0.58997011 17 14 4916 50.68000000 3178963539 3178963539 0.66700000
16.87397957 15.32187080 -1.59379590 2 15 4916 22.84800000 3178963539 3178963539 -4.00000000
16.16048431 13.28854847 -1.70800304 2 16 4917 20.99200000 3178963541 3178963541 -4.66700000
39.86567307 39.90744019 1.64163697 21 17 4917 56.43200000 3178963541 3178963541 1.66700000
40.29466248 33.13375854 0.91059679 34 18 4917 52.17600000 3178963544 3178963544 1.00000000
16.86770248 16.88537598 -1.52960849 3 19 4917 23.91600000 3178963544 3178963544 -3.66700000
19.60502625 14.57059860 -1.42254555 3 20 4918 24.46800000 3178963546 3178963546 -3.33300000
39.97932816 36.27647781 3.14392567 37 21 4918 54.07600000 3178963546 3178963546 3.33300000
40.30056763 33.11503983 2.12508297 29 22 4919 52.20400000 3178963548 3178963548 2.33300000
19.79932404 17.95922852 -1.24517286 7 23 4919 26.76000000 3178963548 3178963548 -2.66700000
20.10057831 16.51080132 -1.36324704 9 24 4920 26.04800000 3178963551 3178963551 -3.00000000
43.35815430 39.31477356 7.18639135 52 25 4920 58.96800000 3178963551 3178963551 7.00000000
42.98481369 35.29555893 4.54046297 42 26 4921 55.80400000 3178963553 3178963553 4.66700000
20.38243866 20.37532425 -1.17416084 12 27 4921 28.84400000 3178963553 3178963553 -2.33300000
20.80816269 15.44223881 -0.90487415 10 28 4922 25.92800000 3178963555 3178963555 -2.00000000
20.90646172 18.94352913 -0.65648580 24 31 4922 28.22000000 3178963558 3178963558 -1.33300000
4.02287149 3.29268217 -2.42413831 6 0 4930 5.73600000 3178963578 3178963578 -25.00000000
20.91833878 20.84544754 -0.51547426 12 1 4930 29.53600000 3178963578 3178963578 -1.00000000
20.85688210 17.06508064 -0.78428078 19 2 4931 26.96000000 3178963581 3178963581 -1.66700000
6.68598509 6.03913164 -2.52214718 6 3 4931 9.35600000 3178963581 3178963581 -15.63900000
9.11442375 7.45475817 -2.35497642 1 4 4932 12.00800000 3178963583 3178963583 -11.31000000
40.25152206 36.34452820 0.00000000 42 5 4932 54.23200000 3178963583 3178963583 0.00000000
35.41824722 26.18899536 -0.51281297 11 6 4932 44.05200000 3178963585 3178963585 -0.66700000
10.26449013 9.26817226 -2.15156937 2 7 4932 13.99600000 3178963585 3178963585 -8.84300000
12.39512253 10.13445663 -2.03796911 2 8 4933 16.14000000 3178963588 3178963588 -7.25400000
40.52048111 40.33702087 0.33230197 45 9 4933 57.17600000 3178963588 3178963588 0.33300000
39.51559830 32.29710007 -0.29661682 11 10 4934 51.03600000 3178963590 3178963590 -0.33300000
13.11291599 11.83181000 -1.90247202 1 11 4934 17.76400000 3178963590 3178963590 -6.14800000
15.62703896 11.54230976 -1.81352460 2 12 4935 19.51200000 3178963592 3178963592 -5.33300000
40.25667953 36.31093979 1.26151359 37 13 4935 54.22800000 3178963592 3178963592 1.33300000
40.71676636 30.06288719 0.58922505 17 14 4936 50.61600000 3178963594 3178963594 0.66700000
16.92143440 15.25753212 -1.59323788 2 15 4936 22.84000000 3178963594 3178963594 -4.00000000
16.19750786 13.22449303 -1.70702660 2 16 4937 20.98000000 3178963597 3178963597 -4.66700000
40.01890945 39.78213501 1.64221883 43 17 4937 56.45200000 3178963597 3178963597 1.66700000
40.10957336 32.74755478 0.90382522 33 18 4937 51.78800000 3178963599 3178963599 1.00000000
16.92937279 16.82920837 -1.52986431 3 19 4937 23.92000000 3178963599 3178963599 -3.66700000
19.64934158 14.49733353 -1.42208040 3 20 4938 24.46000000 3178963601 3178963601 -3.33300000
39.98408127 36.02710724 3.13439083 24 21 4938 53.91200000 3178963601 3178963601 3.33300000
40.18984985 32.78972626 2.11319637 42 22 4939 51.91200000 3178963604 3178963604 2.33300000
19.85892487 17.88733292 -1.24498677 7 23 4939 26.75600000 3178963604 3178963604 -2.66700000
20.15189934 16.43548775 -1.36282825 9 24 4940 26.04000000 3178963606 3178963606 -3.00000000
41.62160492 37.47626114 6.87684345 21 25 4940 56.42800000 3178963606 3178963606 7.00000000
42.98415756 35.04453278 4.52744484 63 26 4941 55.64400000 3178963608 3178963608 4.66700000
20.45627403 20.30686951 -1.17432368 12 27 4941 28.84800000 3178963608 3178963608 -2.33300000
20.80722618 15.32920170 -0.90250099 10 28 4942 25.86000000 3178963611 3178963611 -2.00000000
20.91300583 18.81694031 -0.65462476 27 31 4942 28.14000000 3178963613 3178963613 -1.33300000
4.02027369 3.26718783 -2.41568589 7 0 4950 5.71600000 3178963634 3178963634 -25.00000000
20.91990662 20.70197296 -0.51372904 12 1 4950 29.43600000 3178963634 3178963634 -1.00000000
20.85425568 16.94175148 -0.78195357 15 2 4951 26.88000000 3178963636 3178963636 -1.66700000
6.70702505 6.01575661 -2.52214718 5 3 4951 9.35600000 3178963636 3178963636 -15.63900000
9.14039040 7.42289782 -2.35497642 1 4 4952 12.00800000 3178963638 3178963638 -11.31000000
40.27688599 36.11301422 0.00000000 28 5 4952 54.09600000 3178963638 3178963638 0.00000000
35.61907578 26.14567375 -0.51439619 11 6 4952 44.18800000 3178963641 3178963641 -0.66700000
10.29677963 9.23228550 -2.15156937 2 7 4952 13.99600000 3178963641 3178963641 -8.84300000
12.41810036 10.08112431 -2.03594875 2 8 4953 16.12400000 3178963643 3178963643 -7.25400000
40.52733994 40.06316757 0.33120933 67 9 4953 56.98800000 3178963643 3178963643 0.33300000
39.58771896 32.12620163 -0.29631460 22 10 4954 50.98400000 3178963645 3178963645 -0.33300000
13.16302204 11.79392719 -1.90375710 1 11 4954 17.77600000 3178963645 3178963645 -6.14800000
15.60942173 11.44530106 -1.80683267 2 12 4955 19.44000000 3178963647 3178963647 -5.33300000
40.17764664 35.98610306 1.25509298 24 13 4955 53.95200000 3178963647 3178963647 1.33300000
40.67628860 29.81417465 0.58712965 35 14 4956 50.43600000 3178963650 3178963650 0.66700000
16.96864319 15.19304848 -1.59267986 2 15 4956 22.83200000 3178963650 3178963650 -4.00000000
16.24047470 13.16536236 -1.70670116 2 16 4957 20.97600000 3178963652 3178963652 -4.66700000
40.02664185 39.51298904 1.63686621 21 17 4957 56.26800000 3178963652 3178963652 1.66700000
40.09882355 32.49457169 0.90089321 32 18 4958 51.62000000 3178963654 3178963654 1.00000000
16.91990852 16.69694901 -1.52346861 3 19 4958 23.82000000 3178963654 3178963654 -3.66700000
19.68371964 14.41685867 -1.42091763 3 20 4958 24.44000000 3178963657 3178963657 -3.33300000
39.87152100 35.67430496 3.11578631 36 21 4958 53.59200000 3178963657 3178963657 3.33300000
40.03698349 32.43288422 2.09919310 27 22 4959 51.56800000 3178963659 3178963659 2.33300000
19.90337181 17.80191994 -1.24387002 7 23 4959 26.73200000 3178963659 3178963659 -2.66700000
20.20293808 16.36001587 -1.36240959 9 24 4960 26.03200000 3178963661 3178963661 -3.00000000
43.32079697 38.73326492 7.13520622 51 25 4960 58.54800000 3178963661 3178963661 7.00000000
42.77156067 34.62337112 4.49229527 40 26 4961 55.21200000 3178963664 3178963664 4.66700000
20.52988052 20.23814583 -1.17448640 12 27 4961 28.85200000 3178963664 3178963664 -2.33300000
20.80252838 15.21400070 -0.89998823 13 28 4962 25.78800000 3178963666 3178963666 -2.00000000
20.91295624 18.68520927 -0.65257758 23 31 4962 28.05200000 3178963668 3178963668 -1.33300000
4.03447533 3.25541115 -2.41737652 8 0 4970 5.72000000 3178963689 3178963689 -25.00000000
20.91787529 20.55593872 -0.51191401 12 1 4970 29.33200000 3178963689 3178963689 -1.00000000
20.84791374 16.81613731 -0.77950996 15 2 4971 26.79600000 3178963691 3178963691 -1.66700000
6.72222996 5.98718405 -2.51999044 6 3 4971 9.34800000 3178963691 3178963691 -15.63900000
9.16013908 7.38602257 -2.35340738 1 4 4972 12.00000000 3178963693 3178963693 -11.31000000
40.21747589 35.80728912 0.00000000 41 5 4972 53.84800000 3178963693 3178963693 0.00000000
35.89570999 26.14682388 -0.51700377 11 6 4973 44.41200000 3178963696 3178963696 -0.66700000
10.31873798 9.18397331 -2.14910984 2 7 4973 13.98000000 3178963696 3178963696 -8.84300000
12.45012474 10.03522587 -2.03544378 2 8 4973 16.12000000 3178963698 3178963698 -7.25400000
40.49567413 39.75333023 0.32981446 44 9 4973 56.74800000 3178963698 3178963698 0.33300000
39.57814789 31.88994408 -0.29540795 21 10 4974 50.82800000 3178963700 3178963700 -0.33300000
