# .PCD v0.7 - Point Cloud Data file format
VERSION 0.7
FIELDS x y z intensity laser_id azimuth distance_m adjustedtime timestamp vertical_angle
SIZE 4 4 4 1 1 2 8 8 4 8
TYPE F F F U U U F U U F
COUNT 1 1 1 1 1 1 1 1 1 1
WIDTH 507
HEIGHT 1
VIEWPOINT 0 0 0 1 0 0 0
POINTS 507
DATA ascii
13.53090858 -49.87081146 -3.61338544 9 15 16622 51.80000000 3183396012 3183396012 -4.00000000
9.76611328 -44.52999115 -3.72161102 9 16 16623 45.74000000 3183396014 3183396014 -4.66700000
42.64271545 -131.47497559 4.02252245 28 17 16623 138.27600000 3183396014 3183396014 1.66700000
16.58896828 -51.14670563 -3.44603229 23 19 16623 53.88000000 3183396017 3183396017 -3.66700000
36.97316742 -136.46031189 8.23364830 42 21 16624 141.62000000 3183396019 3183396019 3.33300000
19.01066971 -70.21300507 -3.38839650 20 23 16625 72.82000000 3183396021 3183396021 -2.66700000
17.68906593 -80.85813141 -4.33781338 28 24 16626 82.88400000 3183396024 3183396024 -3.00000000
19.42676353 -60.03891754 -2.57090902 28 27 16627 63.15600000 3183396026 3183396026 -2.33300000
22.25215149 -132.68907166 -4.69830990 28 28 16628 134.62400000 3183396028 3183396028 -2.00000000
36.87805176 -114.51823425 -2.10001326 28 1 16635 120.32800000 3183396051 3183396051 -1.00000000
2.73975778 -10.19643593 -2.95562434 11 3 16636 10.96400000 3183396053 3183396053 -15.63900000
3.33602762 -15.39072037 -3.14964366 12 4 16637 16.06000000 3183396056 3183396056 -11.31000000
36.39571381 -135.54672241 0.00000000 28 5 16637 140.34800000 3183396056 3183396056 0.00000000
5.48309278 -20.43464470 -3.29161215 3 7 16638 21.41200000 3183396058 3183396058 -8.84300000
5.88341045 -27.16593742 -3.53803563 7 8 16638 28.02000000 3183396060 3183396060 -7.25400000
43.00962067 -133.79881287 0.81682962 28 9 16638 140.54400000 3183396060 3183396060 0.33300000
38.44413757 -177.66104126 -1.05646646 28 10 16639 181.77600000 3183396063 3183396063 -0.33300000
8.07514000 -30.11580658 -3.35856342 4 11 16639 31.36000000 3183396063 3183396063 -6.14800000
6.83975410 -41.31560516 -3.90922761 6 12 16640 42.06000000 3183396065 3183396065 -5.33300000
36.64817429 -136.77284241 3.29489803 28 13 16640 141.63600000 3183396065 3183396065 1.33300000
13.41706085 -50.10813141 -3.62733674 9 15 16641 52.00000000 3183396067 3183396067 -4.00000000
9.65540314 -44.73360062 -3.73593116 9 16 16642 45.91600000 3183396070 3183396070 -4.66700000
42.90242767 -133.78584290 4.08884907 28 17 16642 140.55600000 3183396070 3183396070 1.66700000
16.47290230 -51.36868286 -3.45728874 24 19 16642 54.05600000 3183396072 3183396072 -3.66700000
37.15997696 -138.97395325 8.37783337 42 21 16643 144.10000000 3183396074 3183396074 3.33300000
19.02321815 -71.19439697 -3.43269396 21 23 16644 73.77200000 3183396077 3183396077 -2.66700000
17.54694366 -81.50210571 -4.36921501 28 24 16645 83.48400000 3183396079 3183396079 -3.00000000
19.41266441 -60.68161774 -2.59565902 28 27 16646 63.76400000 3183396081 3183396081 -2.33300000
21.84182930 -132.94358826 -4.70473146 28 28 16647 134.80800000 3183396083 3183396083 -2.00000000
36.43983459 -136.66296387 -3.29117608 28 31 16647 141.47600000 3183396086 3183396086 -1.33300000
36.90129089 -115.97634888 -2.12437677 28 1 16655 121.72400000 3183396106 3183396106 -1.00000000
2.72486663 -10.28413010 -2.97826862 12 3 16656 11.04800000 3183396109 3183396109 -15.63900000
3.29618120 -15.46748638 -3.16297960 6 4 16657 16.12800000 3183396111 3183396111 -11.31000000
36.17317581 -136.62030029 0.00000000 28 5 16657 141.32800000 3183396111 3183396111 0.00000000
5.42642689 -20.49474335 -3.29837608 3 7 16657 21.45600000 3183396113 3183396113 -8.84300000
5.81746960 -27.32214355 -3.55571318 7 8 16658 28.16000000 3183396116 3183396116 -7.25400000
42.80263519 -134.76776123 0.82182783 28 9 16658 141.40400000 3183396116 3183396116 0.33300000
7.98216581 -30.18994904 -3.36370420 4 11 16659 31.40800000 3183396118 3183396118 -6.14800000
6.70377207 -41.39033890 -3.91406059 6 12 16660 42.11200000 3183396120 3183396120 -5.33300000
36.22159958 -137.09324646 3.29955077 28 13 16660 141.83600000 3183396120 3183396120 1.33300000
13.28383255 -50.31283951 -3.63877678 9 15 16661 52.16400000 3183396123 3183396123 -4.00000000
9.54305363 -44.97372818 -3.75318050 9 16 16662 46.12800000 3183396125 3183396125 -4.66700000
42.50158691 -134.14442444 4.09524918 28 17 16662 140.77600000 3183396125 3183396125 1.66700000
16.38271332 -51.70746994 -3.47622013 24 19 16662 54.35200000 3183396127 3183396127 -3.66700000
11.84746647 -73.39193726 -4.32949638 28 20 16663 74.46800000 3183396130 3183396130 -3.33300000
36.17376709 -137.20306396 8.26341534 42 21 16663 142.13200000 3183396130 3183396130 3.33300000
18.99345398 -72.09108734 -3.47271085 22 23 16664 74.63200000 3183396132 3183396132 -2.66700000
17.34505081 -81.95365143 -4.39014912 28 24 16665 83.88400000 3183396134 3183396134 -3.00000000
19.39344406 -61.35874939 -2.62171173 28 27 16666 64.40400000 3183396136 3183396136 -2.33300000
35.88280869 -136.58288574 -3.28605819 28 31 16668 141.25600000 3183396141 3183396141 -1.33300000
37.03831863 -117.82898712 -2.15593076 28 1 16675 123.53200000 3183396162 3183396162 -1.00000000
2.71231699 -10.38302326 -3.00414777 11 3 16676 11.14400000 3183396164 3183396164 -15.63900000
3.29202437 -15.71691704 -3.21161675 14 4 16677 16.37600000 3183396166 3183396166 -11.31000000
35.19596100 -134.82992554 0.00000000 28 5 16677 139.34800000 3183396166 3183396166 0.00000000
5.36383820 -20.54797935 -3.30391026 3 7 16677 21.49200000 3183396169 3183396169 -8.84300000
5.72856474 -27.37335587 -3.55975366 7 8 16678 28.19200000 3183396171 3183396171 -7.25400000
42.48043442 -135.38960266 0.82471055 28 9 16678 141.90000000 3183396171 3183396171 0.33300000
39.12428284 -187.11421204 -1.11102867 28 10 16679 191.16400000 3183396173 3183396173 -0.33300000
7.89077854 -30.27150536 -3.36970162 4 11 16679 31.46400000 3183396173 3183396173 -6.14800000
6.58354998 -41.56689835 -3.92855978 6 12 16680 42.26800000 3183396176 3183396176 -5.33300000
35.97669220 -138.11663818 3.32113886 28 13 16680 142.76400000 3183396176 3183396176 1.33300000
13.16341019 -50.57129288 -3.65412307 10 15 16681 52.38400000 3183396178 3183396178 -4.00000000
9.42182064 -45.17848587 -3.76750064 9 16 16682 46.30400000 3183396180 3183396180 -4.66700000
16.21762085 -51.81386566 -3.47954607 24 19 16682 54.40400000 3183396183 3183396183 -3.66700000
35.76192474 -137.58743286 8.27899647 42 21 16683 142.40000000 3183396185 3183396185 3.33300000
18.94861794 -72.95362091 -3.51105237 23 23 16684 75.45600000 3183396187 3183396187 -2.66700000
17.18007851 -82.59641266 -4.42134142 28 24 16685 84.48000000 3183396189 3183396189 -3.00000000
19.35424805 -61.98688507 -2.64564753 28 27 16686 64.99200000 3183396192 3183396192 -2.33300000
26.30809212 -167.42637634 -5.91839647 28 28 16687 169.58400000 3183396194 3183396194 -2.00000000
36.86992264 -118.74055481 -2.17024159 28 1 16695 124.35200000 3183396217 3183396217 -1.00000000
2.65972781 -10.32901382 -2.98581672 12 3 16696 11.07600000 3183396219 3183396219 -15.63900000
3.11062956 -15.11362457 -3.08610177 11 4 16697 15.73600000 3183396222 3183396222 -11.31000000
35.16169739 -136.64869690 0.00000000 28 5 16697 141.10000000 3183396222 3183396222 0.00000000
5.30192900 -20.60485649 -3.31005955 3 7 16697 21.53200000 3183396224 3183396224 -8.84300000
5.64256954 -27.43982506 -3.56581473 7 8 16698 28.24000000 3183396226 3183396226 -7.25400000
41.68312073 -134.49020386 0.81834072 28 9 16698 140.80400000 3183396226 3183396226 0.33300000
7.81574440 -30.41827202 -3.38298154 4 11 16699 31.58800000 3183396229 3183396229 -6.14800000
6.44755363 -41.64866257 -3.93413663 13 12 16700 42.32800000 3183396231 3183396231 -5.33300000
13.03142738 -50.79085922 -3.66667938 10 15 16701 52.56400000 3183396233 3183396233 -4.00000000
9.30247402 -45.39856720 -3.78312254 9 16 16702 46.49600000 3183396236 3183396236 -4.66700000
43.24461365 -139.87359619 4.26083231 28 17 16702 146.46800000 3183396236 3183396236 1.66700000
16.12508965 -52.15618896 -3.49873328 24 19 16702 54.70400000 3183396238 3183396238 -3.66700000
35.50442505 -138.58180237 8.33132172 42 21 16703 143.30000000 3183396240 3183396240 3.33300000
18.93564415 -73.96379852 -3.55646682 24 23 16704 76.43200000 3183396242 3183396242 -2.66700000
17.05161667 -83.43860626 -4.46321058 28 24 16705 85.28000000 3183396245 3183396245 -3.00000000
19.36154747 -62.77970886 -2.67658520 28 27 16706 65.75200000 3183396247 3183396247 -2.33300000
25.62703133 -166.88893127 -5.89620018 85 28 16707 168.94800000 3183396249 3183396249 -2.00000000
36.74436951 -143.94395447 -3.45690274 28 31 16708 148.60000000 3183396252 3183396252 -1.33300000
36.75306702 -119.83972931 -2.18797326 28 1 16715 125.36800000 3183396272 3183396272 -1.00000000
36.43500900 -180.04867554 -5.34614182 28 2 16716 183.77600000 3183396275 3183396275 -1.66700000
2.64260674 -10.41290569 -3.00738263 10 3 16716 11.15600000 3183396275 3183396275 -15.63900000
3.11848259 -15.42426491 -3.14729023 12 4 16717 16.04800000 3183396277 3183396277 -11.31000000
34.81821442 -137.29791260 0.00000000 28 5 16717 141.64400000 3183396277 3183396277 0.00000000
5.24163151 -20.66921234 -3.31743836 3 7 16717 21.58000000 3183396279 3183396279 -8.84300000
5.57189369 -27.58381462 -3.58197689 7 8 16718 28.36800000 3183396282 3183396282 -7.25400000
38.29181671 -189.73532104 -1.12497723 28 10 16719 193.56400000 3183396284 3183396284 -0.33300000
7.72806597 -30.51861954 -3.39112091 4 11 16719 31.66400000 3183396284 3183396284 -6.14800000
6.33131552 -41.86387253 -3.95235348 20 12 16720 42.52400000 3183396286 3183396286 -5.33300000
34.84678268 -137.71315002 3.30550623 28 13 16720 142.09200000 3183396286 3183396286 1.33300000
12.90687561 -51.04493713 -3.68174672 10 15 16721 52.78000000 3183396288 3183396288 -4.00000000
9.18091869 -45.61445618 -3.79841900 9 16 16722 46.68400000 3183396291 3183396291 -4.66700000
42.96977997 -140.72349548 4.28212643 28 17 16722 147.20000000 3183396291 3183396291 1.66700000
38.31118774 -190.34521484 3.38911772 28 18 16722 194.19200000 3183396293 3183396293 1.00000000
15.98723030 -52.35723495 -3.50845480 24 19 16722 54.85600000 3183396293 3183396293 -3.66700000
35.11822128 -139.09205627 8.35457706 42 21 16723 143.70000000 3183396295 3183396295 3.33300000
18.92562294 -75.01351166 -3.60374236 25 23 16724 77.44800000 3183396298 3183396298 -2.66700000
16.76025772 -83.49761963 -4.46321058 28 24 16725 85.28000000 3183396300 3183396300 -3.00000000
19.33326721 -63.47392654 -2.70328903 28 27 16726 66.40800000 3183396302 3183396302 -2.33300000
25.04135895 -166.95761108 -5.89550209 57 28 16727 168.92800000 3183396305 3183396305 -2.00000000
36.58215332 -145.42478943 -3.48937798 28 31 16728 149.99600000 3183396307 3183396307 -1.33300000
36.72665024 -121.18573761 -2.21031237 28 1 16734 126.64800000 3183396328 3183396328 -1.00000000
36.44149017 -183.20373535 -5.43620634 28 2 16735 186.87200000 3183396330 3183396330 -1.66700000
2.61741304 -10.45897865 -3.01816583 12 3 16735 11.19600000 3183396330 3183396330 -15.63900000
3.08643007 -15.53069782 -3.16690207 14 4 16736 16.14800000 3183396332 3183396332 -11.31000000
34.38407516 -137.49798584 0.00000000 28 5 16736 141.73200000 3183396332 3183396332 0.00000000
5.18264961 -20.72482300 -3.32358742 3 7 16736 21.62000000 3183396335 3183396335 -8.84300000
5.48734665 -27.63716888 -3.58652258 7 8 16737 28.40400000 3183396337 3183396337 -7.25400000
36.64152145 -121.13330841 0.73553252 28 9 16737 126.55600000 3183396337 3183396337 0.33300000
37.71378708 -190.12020874 -1.12651157 28 10 16738 193.82800000 3183396339 3183396339 -0.33300000
7.65476084 -30.65597725 -3.40354419 4 11 16738 31.78000000 3183396339 3183396339 -6.14800000
6.21633720 -42.04617310 -3.96759629 6 12 16739 42.68800000 3183396341 3183396341 -5.33300000
34.27181244 -137.35459900 3.29415369 28 13 16739 141.60400000 3183396341 3183396341 1.33300000
12.77614689 -51.24232864 -3.69290781 10 15 16740 52.94000000 3183396344 3183396344 -4.00000000
9.07834721 -45.89104080 -3.81892300 9 16 16741 46.93600000 3183396346 3183396346 -4.66700000
41.09613800 -136.20288086 4.14039755 28 17 16741 142.32800000 3183396346 3183396346 1.66700000
37.44692993 -189.29420471 3.36817479 28 18 16741 192.99200000 3183396348 3183396348 1.00000000
15.86886787 -52.59339905 -3.52073455 24 19 16741 55.04800000 3183396348 3183396348 -3.66700000
41.33635330 -166.03793335 9.96479607 42 21 16742 171.39600000 3183396351 3183396351 3.33300000
18.91598892 -76.03747559 -3.64990139 26 23 16743 78.44000000 3183396353 3183396353 -2.66700000
16.63790512 -84.33653259 -4.50507927 28 24 16744 86.08000000 3183396355 3183396355 -3.00000000
6.63266087 -26.68148994 3.37578082 3 25 16744 27.70000000 3183396355 3183396355 7.00000000
19.34728050 -64.28397369 -2.73504066 28 27 16745 67.18800000 3183396358 3183396358 -2.33300000
18.42830086 -125.70697021 -4.43670321 31 28 16746 127.12800000 3183396360 3183396360 -2.00000000
36.87582397 -123.30435944 -2.24647379 28 1 16755 128.72000000 3183396383 3183396383 -1.00000000
36.40143204 -186.57363892 -5.53220510 28 2 16756 190.17200000 3183396385 3183396385 -1.66700000
2.56800437 -10.42362118 -3.00522614 8 3 16756 11.14800000 3183396385 3183396385 -15.63900000
3.06850886 -15.74209881 -3.20769429 12 4 16757 16.35600000 3183396388 3183396388 -11.31000000
37.30488205 -151.53570557 0.00000000 28 5 16757 156.06000000 3183396388 3183396388 0.00000000
5.11341953 -20.78678894 -3.33035159 3 7 16758 21.66400000 3183396390 3183396390 -8.84300000
5.39587450 -27.70772743 -3.59308863 7 8 16758 28.45600000 3183396392 3183396392 -7.25400000
40.50015259 -135.68205261 0.82296699 28 9 16758 141.60000000 3183396392 3183396392 0.33300000
7.55563974 -30.73789597 -3.40954161 4 11 16759 31.83600000 3183396394 3183396394 -6.14800000
6.09399939 -42.28942490 -3.98841596 6 12 16760 42.91200000 3183396397 3183396397 -5.33300000
33.96655655 -138.28704834 3.31350875 28 13 16760 142.43600000 3183396397 3183396397 1.33300000
12.63865852 -51.49419785 -3.70769620 10 15 16761 53.15200000 3183396399 3183396399 -4.00000000
8.91388416 -45.94357300 -3.82055020 9 16 16762 46.95600000 3183396401 3183396401 -4.66700000
40.59208679 -136.33726501 4.13993216 28 17 16762 142.31200000 3183396401 3183396401 1.66700000
37.11861420 -191.49397278 3.40475512 28 18 16763 195.08800000 3183396404 3183396404 1.00000000
15.75105000 -52.93707275 -3.53966618 24 19 16763 55.34400000 3183396404 3183396404 -3.66700000
40.86438751 -166.74682617 9.99828339 42 21 16763 171.97200000 3183396406 3183396406 3.33300000
18.87286758 -77.06877899 -3.69606018 27 23 16764 79.43200000 3183396408 3183396408 -2.66700000
16.41821861 -84.85971832 -4.52978182 28 24 16765 86.55200000 3183396411 3183396411 -3.00000000
6.56879568 -26.84445190 3.39333010 3 25 16765 27.84400000 3183396411 3183396411 7.00000000
19.29130936 -64.95980072 -2.76076770 28 27 16766 67.82000000 3183396413 3183396413 -2.33300000
17.96574211 -125.76179504 -4.43628454 7 28 16767 127.11600000 3183396415 3183396415 -2.00000000
36.68198776 -150.13389587 -3.59629536 28 31 16767 154.59200000 3183396418 3183396418 -1.33300000
36.51427078 -123.66630554 -2.25073218 28 1 16775 128.96400000 3183396438 3183396438 -1.00000000
2.54886222 -10.50364399 -3.02571392 7 3 16776 11.22400000 3183396441 3183396441 -15.63900000
3.00174832 -15.69107533 -3.19514298 10 4 16777 16.29200000 3183396443 3183396443 -11.31000000
37.39781189 -154.23065186 0.00000000 28 5 16777 158.70000000 3183396443 3183396443 0.00000000
5.05106688 -20.84676552 -3.33711553 4 7 16778 21.70800000 3183396445 3183396445 -8.84300000
5.32072544 -27.83942032 -3.60773563 7 8 16778 28.57200000 3183396447 3183396447 -7.25400000
40.21398163 -136.45950317 0.82682610 28 9 16778 142.26400000 3183396447 3183396447 0.33300000
7.47918129 -30.89163780 -3.42367840 4 11 16779 31.96800000 3183396450 3183396450 -6.14800000
5.97017860 -42.48002625 -4.00440216 7 12 16780 43.08400000 3183396452 3183396452 -5.33300000
33.46012878 -138.30760193 3.31118226 28 13 16780 142.33600000 3183396452 3183396452 1.33300000
12.50290108 -51.72029114 -3.72081041 10 15 16781 53.34000000 3183396454 3183396454 -4.00000000
8.81907558 -46.31904984 -3.84919047 10 16 16782 47.30800000 3183396457 3183396457 -4.66700000
39.90169907 -135.74928284 4.11782312 28 17 16782 141.55200000 3183396457 3183396457 1.66700000
15.64746380 -53.23411942 -3.55603909 25 19 16782 55.60000000 3183396459 3183396459 -3.66700000
40.30550385 -166.98550415 10.00409794 42 21 16783 172.07200000 3183396461 3183396461 3.33300000
18.84637260 -78.14022064 -3.74426651 28 23 16784 80.46800000 3183396464 3183396464 -2.66700000
16.34095573 -86.07028961 -4.59132862 28 24 16785 87.72800000 3183396466 3183396466 -3.00000000
6.47505093 -26.86721802 3.39333010 3 25 16785 27.84400000 3183396466 3183396466 7.00000000
19.28370094 -65.77462006 -2.79251933 28 27 16786 68.60000000 3183396468 3183396468 -2.33300000
36.65044785 -125.66034698 -2.28479934 28 1 16794 130.91600000 3183396493 3183396493 -1.00000000
36.29296112 -192.99807739 -5.71524286 28 2 16795 196.46400000 3183396495 3183396495 -1.66700000
2.51132917 -10.50079918 -3.02247906 5 3 16795 11.21200000 3183396495 3183396495 -15.63900000
2.95114660 -15.70865250 -3.19671178 6 4 16796 16.30000000 3183396498 3183396498 -11.31000000
36.98099136 -154.75064087 0.00000000 28 5 16796 159.10800000 3183396498 3183396498 0.00000000
4.99473667 -20.90097427 -3.34326458 4 7 16796 21.74800000 3183396500 3183396500 -8.84300000
5.23716068 -27.90370941 -3.61379647 7 8 16797 28.62000000 3183396502 3183396502 -7.25400000
7.38777590 -30.96269035 -3.42881918 4 11 16798 32.01600000 3183396505 3183396505 -6.14800000
5.85687828 -42.70082474 -4.02336264 7 12 16799 43.28800000 3183396507 3183396507 -5.33300000
12.40252590 -52.06035614 -3.74229527 10 15 16800 53.64800000 3183396509 3183396509 -4.00000000
8.67715073 -46.41074371 -3.85439777 10 16 16801 47.37200000 3183396511 3183396511 -4.66700000
39.34652710 -135.51991272 4.10688543 28 17 16801 141.17600000 3183396511 3183396511 1.66700000
15.52649784 -53.47739029 -3.56883073 25 19 16801 55.80000000 3183396514 3183396514 -3.66700000
18.81998253 -79.18190002 -3.79116988 28 23 16803 81.47600000 3183396518 3183396518 -2.66700000
6.38225079 -26.87309074 3.39138007 3 25 16804 27.82800000 3183396521 3183396521 7.00000000
5.21181297 -27.98411560 2.32376933 4 26 16805 28.56000000 3183396523 3183396523 4.66700000
19.28336906 -66.59064484 -2.82443404 28 27 16805 69.38400000 3183396523 3183396523 -2.33300000
36.52909470 -126.97379303 -2.30623078 28 1 16815 132.14400000 3183396548 3183396548 -1.00000000
35.83095169 -194.46279907 -5.75468922 28 2 16816 197.82000000 3183396551 3183396551 -1.66700000
2.46223831 -10.46493912 -3.00953937 8 3 16816 11.16400000 3183396551 3183396551 -15.63900000
2.90136266 -15.76179600 -3.20534110 6 4 16817 16.34400000 3183396553 3183396553 -11.31000000
4.92895174 -20.96531105 -3.35064340 4 7 16817 21.79600000 3183396555 3183396555 -8.84300000
5.14633608 -27.98515892 -3.62187767 7 8 16818 28.68400000 3183396558 3183396558 -7.25400000
39.10469818 -136.19483948 0.82354820 28 9 16818 141.70000000 3183396558 3183396558 0.33300000
7.28423929 -31.03215027 -3.43353128 4 11 16819 32.06000000 3183396560 3183396560 -6.14800000
5.70349312 -42.74568939 -4.02559328 7 12 16820 43.31200000 3183396562 3183396562 -5.33300000
38.73426437 -165.14437866 3.94710350 28 13 16820 169.67200000 3183396562 3183396562 1.33300000
12.22346783 -52.15596771 -3.74592257 10 15 16821 53.70000000 3183396564 3183396564 -4.00000000
8.56732655 -46.77164078 -3.88173628 10 16 16822 47.70800000 3183396567 3183396567 -4.66700000
39.09612274 -136.52423096 4.13295031 28 17 16822 142.07200000 3183396567 3183396567 1.66700000
15.39632607 -53.76419067 -3.58418059 25 19 16822 56.04000000 3183396569 3183396569 -3.66700000
39.41170120 -168.42927551 10.07386398 42 21 16823 173.27200000 3183396571 3183396571 3.33300000
18.79891205 -80.40200806 -3.84626269 28 23 16824 82.66000000 3183396574 3183396574 -2.66700000
6.28551960 -26.90403366 3.39235497 3 25 16825 27.83600000 3183396576 3183396576 7.00000000
5.13783407 -28.15990829 2.33678770 4 26 16826 28.72000000 3183396578 3183396578 4.66700000
19.26967239 -67.46790314 -2.85862803 28 27 16826 70.22400000 3183396578 3183396578 -2.33300000
17.82963753 -134.88375854 -4.75121737 28 28 16827 136.14000000 3183396581 3183396581 -2.00000000
36.74928665 -157.54692078 -3.76444125 28 31 16827 161.82000000 3183396583 3183396583 -1.33300000
36.52148438 -128.63562012 -2.33408475 28 1 16835 133.74000000 3183396604 3183396604 -1.00000000
2.46654224 -10.64984131 -3.06021953 6 3 16836 11.35200000 3183396606 3183396606 -15.63900000
2.85120225 -15.79884720 -3.21083236 6 4 16837 16.37200000 3183396608 3183396608 -11.31000000
38.49434280 -166.33992004 0.00000000 28 5 16837 170.73600000 3183396608 3183396608 0.00000000
4.86375952 -21.01704407 -3.35617781 4 7 16837 21.83200000 3183396611 3183396611 -8.84300000
5.06833124 -28.11229324 -3.63601971 7 8 16838 28.79600000 3183396613 3183396613 -7.25400000
38.18741989 -134.77189636 0.81413287 28 9 16838 140.08000000 3183396613 3183396613 0.33300000
38.24067307 -212.32009888 -1.25386226 28 10 16839 215.74000000 3183396615 3183396615 -0.33300000
7.20899868 -31.20075989 -3.44938183 4 11 16839 32.20800000 3183396615 3183396615 -6.14800000
5.57681799 -42.93911743 -4.04195166 7 12 16840 43.48800000 3183396617 3183396617 -5.33300000
39.10030746 -169.36203003 4.04462242 28 13 16840 173.86400000 3183396617 3183396617 1.33300000
12.07541943 -52.34606552 -3.75652552 10 15 16841 53.85200000 3183396620 3183396620 -4.00000000
8.41598988 -46.86796951 -3.88726902 10 16 16842 47.77600000 3183396622 3183396622 -4.66700000
38.43556976 -136.00961304 4.11328506 28 17 16842 141.39600000 3183396622 3183396622 1.66700000
15.24256229 -53.97392273 -3.59441376 25 19 16843 56.20000000 3183396624 3183396624 -3.66700000
18.76815605 -81.55353546 -3.89819145 28 23 16844 83.77600000 3183396629 3183396629 -2.66700000
6.19245815 -26.92967987 3.39284253 3 25 16845 27.84000000 3183396631 3183396631 7.00000000
19.24763298 -68.29257965 -2.89070535 28 27 16846 71.01200000 3183396634 3183396634 -2.33300000
17.86821175 -138.90611267 -4.89067602 28 28 16847 140.13600000 3183396636 3183396636 -2.00000000
36.38723755 -129.71240234 -2.35153723 28 1 16853 134.74000000 3183396659 3183396659 -1.00000000
2.47250938 -10.83028221 -3.10982132 6 3 16854 11.53600000 3183396661 3183396661 -15.63900000
2.79470992 -15.76910591 -3.20298767 4 4 16855 16.33200000 3183396663 3183396663 -11.31000000
37.91286850 -166.20263672 0.00000000 28 5 16855 170.47200000 3183396663 3183396663 0.00000000
4.80457783 -21.07929993 -3.36355662 4 7 16856 21.88000000 3183396666 3183396666 -8.84300000
4.98898172 -28.17887115 -3.64258575 7 8 16856 28.84800000 3183396668 3183396668 -7.25400000
37.72501373 -134.75253296 0.81329596 28 9 16856 139.93600000 3183396668 3183396668 0.33300000
7.12242413 -31.27366257 -3.45495081 4 11 16857 32.26000000 3183396670 3183396670 -6.14800000
5.46792126 -43.16188431 -4.06128407 7 12 16858 43.69600000 3183396673 3183396673 -5.33300000
38.33379745 -168.45463562 4.02005672 28 13 16858 172.80800000 3183396673 3183396673 1.33300000
11.98787975 -52.72225571 -3.78080082 10 15 16859 54.20000000 3183396675 3183396675 -4.00000000
8.29155445 -47.02373886 -3.89800906 10 16 16860 47.90800000 3183396677 3183396677 -4.66700000
38.08228302 -136.39541626 4.12131405 28 17 16860 141.67200000 3183396677 3183396677 1.66700000
15.18969917 -54.40338898 -3.61999679 25 19 16860 56.60000000 3183396680 3183396680 -3.66700000
18.78055382 -82.79668427 -3.95477319 28 23 16862 84.99200000 3183396684 3183396684 -2.66700000
6.10343790 -26.92964172 3.39040518 3 25 16863 27.82000000 3183396687 3183396687 7.00000000
19.23347282 -69.07270050 -2.92115450 28 27 16864 71.76000000 3183396689 3183396689 -2.33300000
36.37213135 -131.51011658 -2.38169503 28 1 16874 136.46800000 3183396714 3183396714 -1.00000000
23.37528419 -134.62789917 -3.97667599 28 2 16875 136.70000000 3183396716 3183396716 -1.66700000
2.41930103 -10.77913666 -3.09256864 5 3 16875 11.47200000 3183396716 3183396716 -15.63900000
2.74896026 -15.84880638 -3.21710801 6 4 16876 16.40400000 3183396719 3183396719 -11.31000000
37.43824768 -166.94154358 0.00000000 28 5 16876 171.08800000 3183396719 3183396719 0.00000000
4.73679256 -21.13919449 -3.37032056 2 7 16877 21.92400000 3183396721 3183396721 -8.84300000
4.90531301 -28.31034851 -3.65723276 7 8 16877 28.96400000 3183396723 3183396723 -7.25400000
37.46180344 -135.72659302 0.81834072 28 9 16877 140.80400000 3183396723 3183396723 0.33300000
37.13568497 -214.54614258 -1.26548612 28 10 16878 217.74000000 3183396726 3183396726 -0.33300000
7.03295088 -31.41210365 -3.46737409 4 11 16878 32.37600000 3183396726 3183396726 -6.14800000
5.33204699 -43.36346817 -4.07838583 7 12 16879 43.88000000 3183396728 3183396728 -5.33300000
37.71612167 -168.59400940 4.02005672 28 13 16879 172.80800000 3183396728 3183396728 1.33300000
11.81632328 -52.86319351 -3.78777647 10 15 16880 54.30000000 3183396730 3183396730 -4.00000000
8.15575409 -47.26596451 -3.91558385 10 16 16881 48.12400000 3183396733 3183396733 -4.66700000
37.53012085 -136.34518433 4.11561251 28 17 16881 141.47600000 3183396733 3183396733 1.66700000
15.06541443 -54.73195267 -3.63816071 26 19 16881 56.88400000 3183396735 3183396735 -3.66700000
18.73435974 -84.01933289 -4.00986624 28 23 16883 86.17600000 3183396740 3183396740 -2.66700000
6.00469494 -26.95183182 3.39040518 3 25 16884 27.82000000 3183396742 3183396742 7.00000000
19.19283485 -69.91740417 -2.95388317 28 27 16885 72.56400000 3183396744 3183396744 -2.33300000
38.19690323 -171.72764587 -4.09366131 28 31 16886 175.97200000 3183396749 3183396749 -1.33300000
36.40139008 -133.33532715 -2.41255093 28 1 16893 138.23600000 3183396769 3183396769 -1.00000000
2.34281969 -10.60280132 -3.03973174 5 3 16894 11.27600000 3183396772 3183396772 -15.63900000
2.69244361 -15.83463383 -3.21240115 6 4 16895 16.38000000 3183396774 3183396774 -11.31000000
38.09086990 -172.52919006 0.00000000 28 5 16895 176.68400000 3183396774 3183396774 0.00000000
3.73049259 -16.89693260 -2.69207501 2 7 16895 17.51200000 3183396776 3183396776 -8.84300000
4.81871510 -28.36949158 -3.66278863 7 8 16896 29.00800000 3183396779 3183396779 -7.25400000
36.98522568 -135.75360107 0.81775951 28 9 16896 140.70400000 3183396779 3183396779 0.33300000
6.95185900 -31.54011536 -3.47894049 4 11 16897 32.48400000 3183396781 3183396781 -6.14800000
5.20950174 -43.55886459 -4.09511566 7 12 16898 44.06000000 3183396783 3183396783 -5.33300000
37.90853882 -172.13140869 4.10138464 28 13 16898 176.30400000 3183396783 3183396783 1.33300000
11.71384811 -53.23333359 -3.81149364 10 15 16899 54.64000000 3183396786 3183396786 -4.00000000
8.03686714 -47.51681137 -3.93413496 10 16 16900 48.35200000 3183396788 3183396788 -4.66700000
36.99286270 -136.15635681 4.10618687 28 17 16900 141.15200000 3183396788 3183396788 1.66700000
14.96651649 -55.08592987 -3.65837121 26 19 16900 57.20000000 3183396790 3183396790 -3.66700000
9.36030483 -78.61457062 -4.61065674 28 20 16901 79.30400000 3183396793 3183396793 -3.33300000
18.67237091 -85.06838989 -4.05695581 28 23 16902 87.18800000 3183396795 3183396795 -2.66700000
5.91443586 -26.96771622 3.38991761 3 25 16903 27.81600000 3183396797 3183396797 7.00000000
19.17304993 -70.76376343 -2.98693752 28 27 16904 73.37600000 3183396799 3183396799 -2.33300000
38.29545212 -175.05155945 -4.16968536 28 31 16906 179.24000000 3183396804 3183396804 -1.33300000
36.12499237 -134.16444397 -2.42525625 28 1 16913 138.96400000 3183396825 3183396825 -1.00000000
2.30579472 -10.61091518 -3.03973174 3 3 16914 11.27600000 3183396827 3183396827 -15.63900000
2.63329005 -15.82072067 -3.20769429 6 4 16915 16.35600000 3183396829 3183396829 -11.31000000
3.73103070 -17.18408585 -2.73573375 7 7 16915 17.79600000 3183396832 3183396832 -8.84300000
4.72941971 -28.44485283 -3.67036462 3 8 16916 29.06800000 3183396834 3183396834 -7.25400000
36.55576324 -136.04797363 0.81875914 28 9 16916 140.87600000 3183396834 3183396834 0.33300000
6.86362505 -31.66524506 -3.49007869 4 11 16917 32.58800000 3183396836 3183396836 -6.14800000
5.07900095 -43.76272202 -4.11258936 7 12 16918 44.24800000 3183396839 3183396839 -5.33300000
37.34046936 -172.41511536 4.10501385 28 13 16918 176.46000000 3183396839 3183396839 1.33300000
11.58281231 -53.52739716 -3.82963037 10 15 16919 54.90000000 3183396841 3183396841 -4.00000000
7.87095308 -47.54457474 -3.93413496 10 16 16920 48.35200000 3183396843 3183396843 -4.66700000
36.44596100 -136.01817322 4.09815788 28 17 16920 140.87600000 3183396843 3183396843 1.66700000
14.87745476 -55.52341843 -3.68395424 26 19 16920 57.60000000 3183396846 3183396846 -3.66700000
9.17244625 -79.39649963 -4.65461016 28 20 16921 80.06000000 3183396848 3183396848 -3.33300000
18.70577812 -86.66409302 -4.12991619 28 23 16922 88.75600000 3183396850 3183396850 -2.66700000
5.81608009 -26.96879387 3.38748026 3 25 16923 27.79600000 3183396852 3183396852 7.00000000
19.17972374 -71.78011322 -3.02699327 28 27 16924 74.36000000 3183396855 3183396855 -2.33300000
37.80779648 -175.75886536 -4.18336391 28 31 16926 179.82800000 3183396859 3183396859 -1.33300000
36.13678360 -136.09875488 -2.45792723 28 1 16933 140.83600000 3183396880 3183396880 -1.00000000
21.95236015 -134.64442444 -3.97027612 28 2 16934 136.48000000 3183396882 3183396882 -1.66700000
2.24218321 -10.49459171 -3.00414777 3 3 16934 11.14400000 3183396882 3183396882 -15.63900000
2.56291771 -15.73690510 -3.18886709 6 4 16935 16.26000000 3183396885 3183396885 -11.31000000
3.69165254 -17.29363823 -2.75110650 2 7 16935 17.89600000 3183396887 3183396887 -8.84300000
3.69668889 -22.72351837 -2.93043303 7 8 16936 23.20800000 3183396889 3183396889 -7.25400000
6.76299763 -31.73568726 -3.49521923 4 11 16937 32.63600000 3183396892 3183396892 -6.14800000
11.39838696 -53.57921219 -3.83046746 10 15 16939 54.91200000 3183396896 3183396896 -4.00000000
7.75274897 -47.86692047 -3.95854425 10 16 16940 48.65200000 3183396899 3183396899 -4.66700000
35.98933029 -136.21415710 4.10025263 28 17 16940 140.94800000 3183396899 3183396899 1.66700000
14.75289059 -55.83744812 -3.70135069 26 19 16940 57.87200000 3183396901 3183396901 -3.66700000
18.64366913 -87.86236572 -4.18389273 28 23 16942 89.91600000 3183396905 3183396905 -2.66700000
5.72190619 -26.98893166 3.38748026 3 25 16943 27.79600000 3183396908 3183396908 7.00000000
19.17444420 -72.77804565 -3.06623530 28 27 16944 75.32400000 3183396910 3183396910 -2.33300000
37.45052338 -177.10261536 -4.21221018 28 31 16946 181.06800000 3183396915 3183396915 -1.33300000
36.23577499 -138.41780090 -2.49750924 28 1 16953 143.10400000 3183396935 3183396935 -1.00000000
2.25461888 -10.73607445 -3.07100248 4 3 16954 11.39200000 3183396938 3183396938 -15.63900000
2.51475668 -15.78836346 -3.19749641 6 4 16955 16.30400000 3183396940 3183396940 -11.31000000
39.72951508 -189.34883118 0.00000000 28 5 16955 193.47200000 3183396940 3183396940 0.00000000
3.62882924 -17.29481506 -2.74926162 12 7 16955 17.88400000 3183396942 3183396942 -8.84300000
35.13195801 -134.48867798 0.80787927 28 9 16956 139.00400000 3183396945 3183396945 0.33300000
6.67826843 -31.88366127 -3.50892758 4 11 16957 32.76400000 3183396947 3183396947 -6.14800000
11.24967480 -53.80224609 -3.84358168 10 15 16959 55.10000000 3183396951 3183396951 -4.00000000
7.63239002 -48.18901443 -3.98295379 10 16 16960 48.95200000 3183396954 3183396954 -4.66700000
36.06795502 -138.46701050 4.16425180 28 17 16960 143.14800000 3183396954 3183396954 1.66700000
14.59008980 -56.01221848 -3.70953727 26 19 16960 58.00000000 3183396956 3183396956 -3.66700000
18.36948776 -88.08337402 -4.19133759 28 23 16962 90.07600000 3183396961 3183396961 -2.66700000
5.62604284 -27.00096703 3.38650537 7 25 16963 27.78800000 3183396963 3183396963 7.00000000
19.12927055 -73.64914703 -3.10010362 28 27 16964 76.15600000 3183396965 3183396965 -2.33300000
36.85243607 -177.33013916 -4.21453667 28 31 16966 181.16800000 3183396970 3183396970 -1.33300000
35.83356857 -138.75791931 -2.50148821 28 1 16972 143.33200000 3183396991 3183396991 -1.00000000
2.24471617 -10.86797810 -3.10658646 4 3 16973 11.52400000 3183396993 3183396993 -15.63900000
2.45332503 -15.73848343 -3.18572927 4 4 16974 16.24400000 3183396995 3183396995 -11.31000000
39.20001984 -189.95747375 0.00000000 28 5 16974 193.96000000 3183396995 3183396995 0.00000000
3.56906104 -17.29514122 -2.74741697 11 7 16974 17.87200000 3183396998 3183396998 -8.84300000
3.28431344 -21.09360123 -2.71729207 55 8 16975 21.52000000 3183397000 3183397000 -7.25400000
34.73568726 -134.79811096 0.80904162 28 9 16975 139.20400000 3183397000 3183397000 0.33300000
4.66951513 -44.20480728 -4.14939499 7 12 16977 44.64400000 3183397004 3183397004 -5.33300000
11.14112186 -54.17929459 -3.86785698 10 15 16978 55.44800000 3183397007 3183397007 -4.00000000
7.47987461 -48.26133347 -3.98685908 10 16 16979 49.00000000 3183397009 3183397009 -4.66700000
14.47877121 -56.35026169 -3.72872448 27 19 16979 58.30000000 3183397011 3183397011 -3.66700000
5.53487921 -27.01169586 3.38553047 7 25 16982 27.78000000 3183397018 3183397018 7.00000000
19.16663742 -74.81172180 -3.14634705 28 27 16983 77.29200000 3183397021 3183397021 -2.33300000
35.54656219 -139.76042175 -2.51719546 28 1 16993 144.23200000 3183397046 3183397046 -1.00000000
2.24313354 -11.06488895 -3.16050148 1 3 16994 11.72400000 3183397048 3183397048 -15.63900000
2.41332150 -15.86370087 -3.20926332 4 4 16995 16.36400000 3183397051 3183397051 -11.31000000
38.48208618 -189.99401855 0.00000000 28 5 16995 193.85200000 3183397051 3183397051 0.00000000
3.49949074 -17.29322243 -2.74495745 10 7 16996 17.85600000 3183397053 3183397053 -8.84300000
34.83076477 -137.24685669 0.82296699 28 9 16996 141.60000000 3183397055 3183397055 0.33300000
4.53169632 -44.45935440 -4.17170143 7 12 16998 44.88400000 3183397060 3183397060 -5.33300000
10.99141216 -54.46226883 -3.88515663 10 15 16999 55.69600000 3183397062 3183397062 -4.00000000
7.35241890 -48.61560440 -4.01387215 10 16 17000 49.33200000 3183397064 3183397064 -4.66700000
34.71886444 -137.20761108 4.11898708 28 17 17000 141.59200000 3183397064 3183397064 1.66700000
14.31709385 -56.62215805 -3.74305105 27 19 17001 58.52400000 3183397067 3183397067 -3.66700000
18.06158638 -89.73714447 -4.26392603 28 23 17002 91.63600000 3183397071 3183397071 -2.66700000
5.38731194 -26.79047966 3.35530686 7 25 17003 27.53200000 3183397074 3183397074 7.00000000
19.13673782 -75.85028076 -3.18705440 28 27 17004 78.29200000 3183397076 3183397076 -2.33300000
36.34260559 -181.05455017 -4.29707432 28 31 17005 184.71600000 3183397081 3183397081 -1.33300000
36.49174881 -145.49465942 -2.61827993 28 1 17012 150.02400000 3183397101 3183397101 -1.00000000
2.23879886 -11.23470497 -3.20686841 2 3 17013 11.89600000 3183397104 3183397104 -15.63900000
2.36416459 -15.89489460 -3.21397018 4 4 17014 16.38800000 3183397106 3183397106 -11.31000000
3.44058275 -17.29697800 -2.74372745 9 7 17015 17.84800000 3183397108 3183397108 -8.84300000
3.42093349 -23.02744675 -2.96326256 20 8 17015 23.46800000 3183397110 3183397110 -7.25400000
34.42399979 -137.55561829 0.82412934 28 9 17015 141.80000000 3183397110 3183397110 0.33300000
6.38603401 -32.13407135 -3.52906203 4 11 17016 32.95200000 3183397113 3183397113 -6.14800000
4.40260267 -44.66041946 -4.18917513 7 12 17017 45.07200000 3183397115 3183397115 -5.33300000
37.90015411 -190.88516235 4.52849579 28 13 17017 194.66400000 3183397115 3183397115 1.33300000
10.87441444 -54.81936646 -3.90803671 11 15 17018 56.02400000 3183397117 3183397117 -4.00000000
7.21623611 -48.80930328 -4.02786684 10 16 17019 49.50400000 3183397120 3183397120 -4.66700000
34.25883484 -137.30259705 4.11840487 28 17 17019 141.57200000 3183397120 3183397120 1.66700000
14.18166065 -56.83727264 -3.75430751 27 19 17019 58.70000000 3183397122 3183397122 -3.66700000
17.92751884 -90.62360382 -4.30319834 28 23 17021 92.48000000 3183397127 3183397127 -2.66700000
5.28843498 -26.75756454 3.34896946 10 25 17022 27.48000000 3183397129 3183397129 7.00000000
19.09737206 -76.76658630 -3.22287679 28 27 17023 79.17200000 3183397131 3183397131 -2.33300000
8.21923733 -84.43318176 -2.96240878 57 28 17024 84.88400000 3183397134 3183397134 -2.00000000
2.14335918 -10.95515251 -3.12491751 2 3 17033 11.59200000 3183397159 3183397159 -15.63900000
2.32331753 -16.00397301 -3.23436642 4 4 17034 16.49200000 3183397162 3183397162 -11.31000000
3.38017225 -17.29277611 -2.74126792 8 7 17034 17.83200000 3183397164 3183397164 -8.84300000
3.33996248 -23.03532028 -2.96275759 30 8 17035 23.46400000 3183397166 3183397166 -7.25400000
38.10495758 -154.55323792 0.92516369 28 9 17035 159.18400000 3183397166 3183397166 0.33300000
6.31495142 -32.36695099 -3.55219483 4 11 17036 33.16800000 3183397169 3183397169 -6.14800000
4.25459623 -44.75877762 -4.19698238 7 12 17037 45.15600000 3183397171 3183397171 -5.33300000
10.69672203 -54.92749023 -3.91305923 11 15 17038 56.09600000 3183397173 3183397173 -4.00000000
7.08111286 -49.07884216 -4.04804516 10 16 17039 49.75200000 3183397175 3183397175 -4.66700000
14.07846165 -57.27407074 -3.77989054 27 19 17039 59.10000000 3183397178 3183397178 -3.66700000
17.64916039 -90.88174438 -4.31250477 28 23 17041 92.68000000 3183397182 3183397182 -2.66700000
5.18970776 -26.74857903 3.34555721 7 25 17042 27.45200000 3183397185 3183397185 7.00000000
19.10231590 -77.94686127 -3.26960874 28 27 17043 80.32000000 3183397187 3183397187 -2.33300000
7.92259359 -84.44145203 -2.96171093 57 28 17044 84.86400000 3183397189 3183397189 -2.00000000
36.18214417 -186.83728027 -4.42837143 28 31 17044 190.36000000 3183397192 3183397192 -1.33300000
2.07416248 -10.81161785 -3.08178544 2 3 17054 11.43200000 3183397215 3183397215 -15.63900000
2.32012081 -16.40463066 -3.31359768 6 4 17055 16.89600000 3183397217 3183397217 -11.31000000
3.31379223 -17.28952217 -2.73880816 8 7 17055 17.81600000 3183397219 3183397219 -8.84300000
3.25384665 -23.03562164 -2.96124244 30 8 17056 23.45200000 3183397222 3183397222 -7.25400000
37.57219315 -154.83178711 0.92600060 28 9 17056 159.32800000 3183397222 3183397222 0.33300000
6.20673990 -32.44456482 -3.55819225 4 11 17057 33.22400000 3183397224 3183397224 -6.14800000
4.11733198 -45.06756592 -4.22449398 7 12 17058 45.45200000 3183397226 3183397226 -5.33300000
10.55145931 -55.26028824 -3.93398619 11 15 17059 56.39600000 3183397228 3183397228 -4.00000000
6.92060232 -49.24264145 -4.05943632 10 16 17060 49.89200000 3183397231 3183397231 -4.66700000
40.17912292 -166.08058167 4.97285223 28 17 17060 170.94400000 3183397231 3183397231 1.66700000
13.89191246 -57.42228317 -3.78628635 27 19 17060 59.20000000 3183397233 3183397233 -3.66700000
17.50278091 -91.92710876 -4.35903549 28 23 17062 93.68000000 3183397238 3183397238 -2.66700000
5.08495760 -26.73231888 3.34116983 7 25 17063 27.41600000 3183397240 3183397240 7.00000000
19.01234818 -78.82837677 -3.30364013 28 27 17064 81.15600000 3183397242 3183397242 -2.33300000
7.61161137 -84.45400238 -2.96115255 57 28 17065 84.84800000 3183397245 3183397245 -2.00000000
36.30416489 -191.21954346 -4.52905416 28 31 17065 194.68800000 3183397247 3183397247 -1.33300000
2.05921125 -10.93992615 -3.11629128 1 3 17074 11.56000000 3183397270 3183397270 -15.63900000
2.36945033 -17.18585777 -3.46970701 6 4 17075 17.69200000 3183397272 3183397272 -11.31000000
3.26218581 -17.34759712 -2.74618721 4 7 17075 17.86400000 3183397275 3183397275 -8.84300000
3.17720628 -23.07435417 -2.96477795 12 8 17076 23.48000000 3183397277 3183397277 -7.25400000
6.10151911 -32.50902939 -3.56290460 4 11 17077 33.26800000 3183397279 3183397279 -6.14800000
3.96556783 -45.14514160 -4.23044205 7 12 17078 45.51600000 3183397281 3183397281 -5.33300000
10.39523602 -55.49288177 -3.94793749 11 15 17079 56.59600000 3183397284 3183397284 -4.00000000
6.77572441 -49.46399307 -4.07570934 10 16 17080 50.09200000 3183397286 3183397286 -4.66700000
13.75068760 -57.76406479 -3.80547357 27 19 17081 59.50000000 3183397288 3183397288 -3.66700000
17.29183388 -92.57680511 -4.38695431 28 23 17082 94.28000000 3183397293 3183397293 -2.66700000
4.99234152 -26.75380898 3.34165740 7 25 17083 27.42000000 3183397295 3183397295 7.00000000
19.00673485 -80.02970886 -3.35118628 28 27 17084 82.32400000 3183397298 3183397298 -2.33300000
7.30641747 -84.36057281 -2.95696449 85 28 17085 84.72800000 3183397300 3183397300 -2.00000000
2.02572179 -10.96184540 -3.12060428 1 3 17093 11.57600000 3183397325 3183397325 -15.63900000
2.33022308 -17.32578850 -3.49637914 6 4 17094 17.82800000 3183397327 3183397327 -11.31000000
3.54069853 -19.19738007 -3.03703952 16 7 17095 19.75600000 3183397330 3183397330 -8.84300000
3.33784366 -24.85053253 -3.19155574 15 8 17095 25.27600000 3183397332 3183397332 -7.25400000
6.01962519 -32.66988754 -3.57832670 4 11 17096 33.41200000 3183397334 3183397334 -6.14800000
3.82992363 -45.32472229 -4.24605703 7 12 17097 45.68400000 3183397337 3183397337 -5.33300000
10.23858166 -55.67617798 -3.95854044 11 15 17098 56.74800000 3183397339 3183397339 -4.00000000
6.64069653 -49.70352936 -4.09360933 11 16 17099 50.31200000 3183397341 3183397341 -4.66700000
39.18660736 -166.94187927 4.99053907 28 17 17099 171.55200000 3183397341 3183397341 1.66700000
13.61111069 -57.98574066 -3.81724167 27 19 17099 59.68400000 3183397344 3183397344 -3.66700000
4.89930344 -26.74678421 3.33873248 7 25 17102 27.39600000 3183397351 3183397351 7.00000000
3.66591239 -27.58490372 2.27169609 3 26 17103 27.92000000 3183397353 3183397353 4.66700000
19.02170944 -81.29090118 -3.40133762 28 27 17103 83.55600000 3183397353 3183397353 -2.33300000
7.02596426 -84.37637329 -2.95668530 57 28 17104 84.72000000 3183397355 3183397355 -2.00000000
1.99087918 -10.98780060 -3.12599587 1 3 17113 11.59600000 3183397380 3183397380 -15.63900000
2.27125835 -17.34548569 -3.49873257 6 4 17114 17.84000000 3183397383 3183397383 -11.31000000
3.45326948 -19.09683037 -3.01920724 11 7 17115 19.64000000 3183397385 3183397385 -8.84300000
3.23512959 -24.74006271 -3.17589831 18 8 17115 25.15200000 3183397387 3183397387 -7.25400000
38.67278290 -166.84580994 0.99541807 28 9 17115 171.27200000 3183397387 3183397387 0.33300000
5.93029451 -32.82767868 -3.59332013 4 11 17116 33.55200000 3183397390 3183397390 -6.14800000
3.68744040 -45.53232956 -4.26427364 7 12 17117 45.88000000 3183397392 3183397392 -5.33300000
10.06116486 -55.80582428 -3.96523690 11 15 17118 56.84400000 3183397394 3183397394 -4.00000000
6.50212145 -49.99524307 -4.11574030 11 16 17119 50.58400000 3183397397 3183397397 -4.66700000
38.68554306 -167.43215942 5.00112820 28 17 17119 171.91600000 3183397397 3183397397 1.66700000
13.54341602 -58.61630249 -3.85561633 56 19 17119 60.28400000 3183397399 3183397399 -3.66700000
12.51230049 -96.60337830 -5.10505867 28 24 17122 97.54400000 3183397406 3183397406 -3.00000000
4.80169964 -26.74027824 3.33580756 10 25 17122 27.37200000 3183397406 3183397406 7.00000000
3.61562705 -27.95337296 2.30098724 3 26 17123 28.28000000 3183397408 3183397408 4.66700000
18.95311928 -82.29153442 -3.44041657 28 27 17123 84.51600000 3183397408 3183397408 -2.33300000
6.72948599 -84.37647247 -2.95584774 57 28 17124 84.69600000 3183397410 3183397410 -2.00000000
1.93500113 -10.89607620 -3.09796000 1 3 17133 11.49200000 3183397436 3183397436 -15.63900000
2.21515846 -17.38832474 -3.50579262 6 4 17134 17.87600000 3183397438 3183397438 -11.31000000
3.38716149 -19.09260941 -3.01674747 12 7 17134 19.62400000 3183397440 3183397440 -8.84300000
3.16076899 -24.84567451 -3.18802023 15 8 17135 25.24800000 3183397443 3183397443 -7.25400000
38.13462448 -167.17477417 0.99658048 28 9 17135 171.47200000 3183397443 3183397443 0.33300000
5.82468128 -32.89908600 -3.59888911 4 11 17136 33.60400000 3183397445 3183397445 -6.14800000
3.54293895 -45.73155212 -4.28174734 8 12 17137 46.06800000 3183397447 3183397447 -5.33300000
9.79757214 -55.45159531 -3.93761349 22 15 17138 56.44800000 3183397450 3183397450 -4.00000000
6.33206892 -50.05323029 -4.11866951 23 16 17139 50.62000000 3183397452 3183397452 -4.66700000
38.30652618 -168.47070312 5.02812433 28 17 17139 172.84400000 3183397452 3183397452 1.66700000
13.31128693 -58.54255295 -3.84768558 6 19 17139 60.16000000 3183397454 3183397454 -3.66700000
16.68420601 -94.71749878 -4.48001671 28 23 17141 96.28000000 3183397459 3183397459 -2.66700000
4.70901728 -26.76078606 3.33629513 7 25 17142 27.37600000 3183397461 3183397461 7.00000000
18.93431282 -83.54213715 -3.48991656 28 27 17143 85.73200000 3183397463 3183397463 -2.33300000
6.43370056 -84.38350677 -2.95528936 85 28 17144 84.68000000 3183397466 3183397466 -2.00000000
1.89035225 -10.86481571 -3.08717704 0 3 17153 11.45200000 3183397491 3183397491 -15.63900000
2.15396619 -17.39205933 -3.50500822 6 4 17154 17.87200000 3183397493 3183397493 -11.31000000
3.32590961 -19.13546944 -3.02166677 12 7 17154 19.65600000 3183397496 3183397496 -8.84300000
3.05697680 -24.71872711 -3.17034245 12 8 17155 25.10800000 3183397498 3183397498 -7.25400000
37.59464264 -167.50201416 0.99774283 28 9 17155 171.67200000 3183397498 3183397498 0.33300000
5.73359489 -33.05636597 -3.61388278 4 11 17156 33.74400000 3183397500 3183397500 -6.14800000
3.39180350 -45.85882568 -4.29252863 8 12 17157 46.18400000 3183397503 3183397503 -5.33300000
9.76047707 -56.38977051 -4.00178957 11 15 17158 57.36800000 3183397505 3183397505 -4.00000000
6.17239523 -50.19769287 -4.12875891 11 16 17159 50.74400000 3183397507 3183397507 -4.66700000
4.61287880 -26.76140976 3.33434534 7 25 17162 27.36000000 3183397516 3183397516 7.00000000
18.89482498 -84.73897552 -3.53713703 28 27 17163 86.89200000 3183397519 3183397519 -2.33300000
6.14084768 -84.42937469 -2.95612693 28 28 17164 84.70400000 3183397521 3183397521 -2.00000000
1.89641273 -11.12955666 -3.16050148 0 3 17173 11.72400000 3183397546 3183397546 -15.63900000
2.10355043 -17.48514557 -3.52226663 6 4 17174 17.96000000 3183397549 3183397549 -11.31000000
3.26042056 -19.15475464 -3.02289653 10 7 17174 19.66400000 3183397551 3183397551 -8.84300000
3.12353778 -26.00175858 -3.33348107 16 8 17175 26.40000000 3183397553 3183397553 -7.25400000
5.62816143 -33.13499069 -3.62030864 4 11 17176 33.80400000 3183397556 3183397556 -6.14800000
3.24430108 -46.04916000 -4.30925894 8 12 17177 46.36400000 3183397558 3183397558 -5.33300000
9.60158920 -56.64774323 -4.01769400 11 15 17178 57.59600000 3183397560 3183397560 -4.00000000
6.04062653 -50.58312607 -4.15870094 12 16 17179 51.11200000 3183397563 3183397563 -4.66700000
13.00348949 -59.09408569 -3.87787342 28 19 17179 60.63200000 3183397565 3183397565 -3.66700000
16.15501976 -95.61569977 -4.51705551 28 23 17181 97.07600000 3183397569 3183397569 -2.66700000
4.51877499 -26.77343369 3.33385777 7 25 17182 27.35600000 3183397572 3183397572 7.00000000
18.89772415 -86.16687775 -3.59396434 28 27 17183 88.28800000 3183397574 3183397574 -2.33300000
38.14980316 -175.26469421 -3.13089180 28 1 17192 179.39600000 3183397599 3183397599 -1.00000000
1.84551036 -11.06391907 -3.14001393 0 3 17193 11.64800000 3183397602 3183397602 -15.63900000
2.03931880 -17.46511078 -3.51677537 4 4 17194 17.93200000 3183397604 3183397604 -11.31000000
3.31241894 -19.87948227 -3.13542509 7 7 17194 20.39600000 3183397606 3183397606 -8.84300000
3.09846544 -26.57610703 -3.40570664 10 8 17195 26.97200000 3183397609 3183397609 -7.25400000
36.99637222 -170.39495850 1.01341176 28 9 17195 174.36800000 3183397609 3183397609 0.33300000
5.52355337 -33.22112656 -3.62759113 4 11 17196 33.87200000 3183397611 3183397611 -6.14800000
2.63341904 -39.33655167 -3.68021321 11 12 17197 39.59600000 3183397613 3183397613 -5.33300000
9.40836525 -56.70846939 -4.01964712 11 15 17198 57.62400000 3183397615 3183397615 -4.00000000
5.88880348 -50.81775665 -4.17627573 12 16 17199 51.32800000 3183397618 3183397618 -4.66700000
12.90519810 -59.63850784 -3.91061974 28 19 17199 61.14400000 3183397620 3183397620 -3.66700000
16.07344818 -97.19710541 -4.58908558 28 23 17201 98.62400000 3183397625 3183397625 -2.66700000
4.42399645 -26.78120995 3.33288288 7 25 17202 27.34800000 3183397627 3183397627 7.00000000
