# .PCD v0.7 - Point Cloud Data file format
VERSION 0.7
FIELDS x y z intensity laser_id azimuth distance_m adjustedtime timestamp vertical_angle
SIZE 4 4 4 1 1 2 8 8 4 8
TYPE F F F U U U F U U F
COUNT 1 1 1 1 1 1 1 1 1 1
WIDTH 522
HEIGHT 1
VIEWPOINT 0 0 0 1 0 0 0
POINTS 522
DATA ascii
27.26760292 64.64586639 1.22467029 28 18 2147 70.17200000 3181255895 3181255895 1.00000000
8.23267078 26.48088837 -1.77725208 4 19 2147 27.78800000 3181255895 3181255895 -3.66700000
11.92623425 24.80303764 -1.60277653 4 20 2148 27.56800000 3181255897 3181255897 -3.33300000
42.96812439 101.76934052 4.50059700 28 22 2149 110.56000000 3181255900 3181255900 2.33300000
10.79604530 29.51754189 -1.46405530 3 23 2149 31.46400000 3181255900 3181255900 -2.66700000
11.68880749 27.67128181 -1.57426560 5 24 2150 30.08000000 3181255902 3181255902 -3.00000000
49.57011414 117.29178619 10.39512539 28 26 2151 127.76000000 3181255904 3181255904 4.66700000
10.38510513 33.32224655 -1.42198670 6 27 2151 34.93200000 3181255904 3181255904 -2.33300000
14.91786289 30.96936035 -1.20040309 5 28 2152 34.39600000 3181255907 3181255907 -2.00000000
14.63486004 39.92684555 -0.98952091 6 31 2153 42.53600000 3181255909 3181255909 -1.33300000
2.25080371 5.30256128 -2.68616176 14 0 2160 6.35600000 3181255930 3181255930 -25.00000000
14.30752087 45.65535355 -0.83513254 10 1 2160 47.85200000 3181255930 3181255930 -1.00000000
15.35085678 36.14680862 -1.14290893 8 2 2161 39.28800000 3181255932 3181255932 -1.66700000
3.02599120 8.21997643 -2.45205760 15 3 2161 9.09600000 3181255932 3181255932 -15.63900000
3.90820765 9.19823170 -1.99882746 13 4 2162 10.19200000 3181255934 3181255934 -11.31000000
20.79422951 56.45623779 0.00000000 21 5 2162 60.16400000 3181255934 3181255934 0.00000000
20.36297798 42.08534622 -0.54429048 12 6 2162 46.75600000 3181255937 3181255937 -0.66700000
5.23341274 14.20869255 -2.35571933 4 7 2162 15.32400000 3181255937 3181255937 -8.84300000
6.83955431 16.08955193 -2.22535110 3 8 2163 17.62400000 3181255939 3181255939 -7.25400000
21.65880013 68.98670959 0.42024785 28 9 2163 72.30800000 3181255939 3181255939 0.33300000
21.37177277 50.25117111 -0.31737697 18 10 2164 54.60800000 3181255941 3181255941 -0.33300000
6.74856567 18.30262375 -2.10124421 3 11 2164 19.62000000 3181255941 3181255941 -6.14800000
9.26084518 19.11439133 -1.98268282 2 12 2165 21.33200000 3181255943 3181255943 -5.33300000
42.19270706 114.36833954 2.83661437 28 13 2165 121.93600000 3181255943 3181255943 1.33300000
8.93991661 24.21968651 -1.80529749 3 15 2166 25.88000000 3181255946 3181255946 -4.00000000
9.08277512 21.32520294 -1.89221215 3 16 2167 23.25600000 3181255948 3181255948 -4.66700000
42.50323868 135.04957581 4.12038326 28 17 2167 141.64000000 3181255948 3181255948 1.66700000
42.43304825 99.62740326 1.89016545 28 18 2167 108.30400000 3181255950 3181255950 1.00000000
8.32026196 26.43675995 -1.77622879 4 19 2167 27.77200000 3181255950 3181255950 -3.66700000
12.00925446 24.75407028 -1.60231137 4 20 2168 27.56000000 3181255953 3181255953 -3.33300000
46.61192703 126.14371490 7.83179140 42 21 2168 134.70800000 3181255953 3181255953 3.33300000
42.29488373 99.20693970 4.39378119 28 22 2169 107.93600000 3181255955 3181255955 2.33300000
10.89070129 29.45718956 -1.46293855 3 23 2169 31.44000000 3181255955 3181255955 -2.66700000
11.76965523 27.59357071 -1.57217216 5 24 2170 30.04000000 3181255957 3181255957 -3.00000000
51.42509842 120.50617218 10.69584846 28 26 2171 131.45600000 3181255960 3181255960 4.66700000
10.50376320 33.29341507 -1.42231238 6 27 2171 34.94000000 3181255960 3181255960 -2.33300000
15.01364326 30.89192963 -1.19942594 5 28 2172 34.36800000 3181255962 3181255962 -2.00000000
14.77273655 39.89309692 -0.98989314 6 31 2172 42.55200000 3181255964 3181255964 -1.33300000
2.25358987 5.25801897 -2.66756654 14 0 2180 6.31200000 3181255985 3181255985 -25.00000000
14.36763763 45.29253387 -0.82940817 10 1 2180 47.52400000 3181255985 3181255985 -1.00000000
15.44700050 36.02318573 -1.14069808 8 2 2181 39.21200000 3181255987 3181255987 -1.66700000
3.01302361 8.09745026 -2.41863012 15 3 2181 8.97200000 3181255987 3181255987 -15.63900000
3.95730233 9.22418404 -2.00745654 11 4 2182 10.23600000 3181255990 3181255990 -11.31000000
21.56755257 57.93149948 0.00000000 21 5 2182 61.81600000 3181255990 3181255990 0.00000000
20.51182556 41.99964905 -0.54415077 12 6 2183 46.74400000 3181255992 3181255992 -0.66700000
5.28269577 14.18200779 -2.35448956 5 7 2183 15.31600000 3181255992 3181255992 -8.84300000
6.88941526 16.05099487 -2.22333097 3 8 2183 17.60800000 3181255994 3181255994 -7.25400000
21.66930008 68.18639374 0.41583079 28 9 2183 71.54800000 3181255994 3181255994 0.33300000
21.38290787 49.79402542 -0.31495923 17 10 2184 54.19200000 3181255996 3181255996 -0.33300000
6.80685711 18.26404953 -2.09953046 3 11 2184 19.60400000 3181255996 3181255996 -6.14800000
9.32051373 19.06763649 -1.98119581 2 12 2185 21.31600000 3181255999 3181255999 -5.33300000
9.01882553 24.17337799 -1.80418146 3 15 2186 25.86400000 3181256001 3181256001 -4.00000000
9.14613342 21.26773071 -1.88993394 3 16 2187 23.22800000 3181256003 3181256003 -4.66700000
43.34818649 136.07376099 4.15622282 28 17 2187 142.87200000 3181256003 3181256003 1.66700000
42.62878418 99.07811737 1.88269579 28 18 2188 107.87600000 3181256006 3181256006 1.00000000
8.40376663 26.36425018 -1.77341461 4 19 2188 27.72800000 3181256006 3181256006 -3.66700000
12.03063488 24.57929420 -1.59370685 4 20 2188 27.41200000 3181256008 3181256008 -3.33300000
46.28492737 123.92652130 7.70411777 42 21 2188 132.51200000 3181256008 3181256008 3.33300000
42.59035492 98.94123077 4.38857031 28 22 2189 107.80800000 3181256010 3181256010 2.33300000
10.95989132 29.32916641 -1.45847154 3 23 2189 31.34400000 3181256010 3181256010 -2.66700000
11.86274242 27.54498100 -1.57175338 5 24 2190 30.03200000 3181256013 3181256013 -3.00000000
10.53845692 33.00146103 -1.41140282 6 27 2191 34.67200000 3181256015 3181256015 -2.33300000
15.11082458 30.81779861 -1.19858837 5 28 2192 34.34400000 3181256017 3181256017 -2.00000000
14.80396461 39.55290604 -0.98272812 5 31 2192 42.24400000 3181256020 3181256020 -1.33300000
2.25753260 5.21684980 -2.65066171 15 0 2200 6.27200000 3181256040 3181256040 -25.00000000
14.54765797 45.31064987 -0.83066475 10 1 2200 47.59600000 3181256040 3181256040 -1.00000000
15.55358791 35.92501450 -1.13930166 8 2 2201 39.16400000 3181256043 3181256043 -1.66700000
3.06974435 8.16259670 -2.44127440 16 3 2201 9.05600000 3181256043 3181256043 -15.63900000
3.97856355 9.18511963 -2.00196528 11 4 2202 10.20800000 3181256045 3181256045 -11.31000000
21.57101631 57.32799149 0.00000000 21 5 2202 61.25200000 3181256045 3181256045 0.00000000
20.58759689 41.78427887 -0.54228824 12 6 2203 46.58400000 3181256047 3181256047 -0.66700000
5.33356094 14.16718102 -2.35510445 7 7 2203 15.32000000 3181256047 3181256047 -8.84300000
6.93909073 16.01228523 -2.22131062 3 8 2203 17.59200000 3181256049 3181256049 -7.25400000
21.65121078 67.31450653 0.41097203 28 9 2203 70.71200000 3181256049 3181256049 0.33300000
21.34656143 49.23466110 -0.31189054 16 10 2204 53.66400000 3181256052 3181256052 -0.33300000
6.86355972 18.22156906 -2.09738851 3 11 2204 19.58400000 3181256052 3181256052 -6.14800000
9.38173103 19.02426910 -1.98008049 2 12 2205 21.30400000 3181256054 3181256054 -5.33300000
45.30151749 120.20412445 2.98912740 28 13 2205 128.49200000 3181256054 3181256054 1.33300000
9.08484936 24.09321213 -1.80055416 2 15 2206 25.81200000 3181256056 3181256056 -4.00000000
9.22507954 21.24664688 -1.89091039 3 16 2207 23.24000000 3181256059 3181256059 -4.66700000
43.93087769 136.25650024 4.16646242 28 17 2207 143.22400000 3181256059 3181256059 1.66700000
41.66850281 95.96838379 1.82621980 28 18 2207 104.64000000 3181256061 3181256061 1.00000000
8.48257256 26.30964279 -1.77162385 4 19 2207 27.70000000 3181256061 3181256061 -3.66700000
12.09514236 24.49418259 -1.59091616 4 20 2208 27.36400000 3181256063 3181256063 -3.33300000
45.77239227 121.26112366 7.54830551 42 21 2208 129.83200000 3181256063 3181256063 3.33300000
43.00396729 98.94957733 4.39557219 28 22 2209 107.98000000 3181256066 3181256066 2.33300000
11.03538036 29.21970940 -1.45493519 3 23 2209 31.26800000 3181256066 3181256066 -2.66700000
11.94607830 27.47409821 -1.57007873 5 24 2210 30.00000000 3181256068 3181256068 -3.00000000
10.63515282 32.90742874 -1.40896034 5 27 2211 34.61200000 3181256070 3181256070 -2.33300000
15.16336060 30.65378571 -1.19426084 5 28 2212 34.22000000 3181256073 3181256073 -2.00000000
14.91081333 39.41870499 -0.98068094 5 31 2212 42.15600000 3181256075 3181256075 -1.33300000
2.28244591 5.22182751 -2.65742373 13 0 2221 6.28800000 3181256095 3181256095 -25.00000000
14.65427780 45.07445908 -0.82731390 10 1 2221 47.40400000 3181256095 3181256095 -1.00000000
15.66593075 35.82380676 -1.13790536 8 2 2222 39.11600000 3181256097 3181256097 -1.66700000
3.07910466 8.09728432 -2.42509985 18 3 2222 8.99600000 3181256097 3181256097 -15.63900000
4.01377439 9.17406940 -2.00274968 12 4 2223 10.21200000 3181256100 3181256100 -11.31000000
21.57047653 56.69524002 0.00000000 21 5 2223 60.66000000 3181256100 3181256100 0.00000000
20.64608955 41.53665543 -0.54000658 12 6 2223 46.38800000 3181256102 3181256102 -0.66700000
5.37454796 14.12631226 -2.35141516 3 7 2223 15.29600000 3181256102 3181256102 -8.84300000
6.98818541 15.96493435 -2.21828008 3 8 2224 17.56800000 3181256104 3181256104 -7.25400000
21.65252113 66.48165131 0.40636900 28 9 2224 69.92000000 3181256104 3181256104 0.33300000
21.35357857 48.76037979 -0.30937979 15 10 2225 53.23200000 3181256107 3181256107 -0.33300000
6.92322111 18.17770767 -2.09524655 3 11 2225 19.56400000 3181256107 3181256107 -6.14800000
9.41412926 18.91488075 -1.97227311 2 12 2226 21.22000000 3181256109 3181256109 -5.33300000
9.17878056 24.07466698 -1.80167019 2 15 2227 25.82800000 3181256111 3181256111 -4.00000000
9.28047371 21.16157722 -1.88635397 3 16 2228 23.18400000 3181256113 3181256113 -4.66700000
44.32078934 135.76008606 4.15622282 28 17 2228 142.87200000 3181256113 3181256113 1.66700000
41.93322754 95.61723328 1.82245004 28 18 2228 104.42400000 3181256116 3181256116 1.00000000
8.55664635 26.21007156 -1.76701891 4 19 2228 27.62800000 3181256116 3181256116 -3.66700000
12.21333504 24.50687218 -1.59463704 4 20 2229 27.42800000 3181256118 3181256118 -3.33300000
45.51740265 119.26074219 7.43412018 42 21 2229 127.86800000 3181256118 3181256118 3.33300000
11.12957287 29.14547157 -1.45326006 3 23 2230 31.23200000 3181256120 3181256120 -2.66700000
12.00653934 27.33869553 -1.56484509 5 24 2231 29.90000000 3181256123 3181256123 -3.00000000
10.73829174 32.81504822 -1.40668082 5 27 2232 34.55600000 3181256125 3181256125 -2.33300000
15.26132679 30.56939125 -1.19314396 5 28 2233 34.18800000 3181256127 3181256127 -2.00000000
14.99519253 39.20691681 -0.97677273 5 31 2233 41.98800000 3181256130 3181256130 -1.33300000
2.27195358 5.15120840 -2.62530470 13 0 2240 6.21200000 3181256150 3181256150 -25.00000000
14.80117130 45.01801682 -0.82717425 10 1 2240 47.39600000 3181256150 3181256150 -1.00000000
15.74105930 35.67289352 -1.13476360 8 2 2241 39.00800000 3181256153 3181256153 -1.66700000
3.10179615 8.07624245 -2.42186499 14 3 2241 8.98400000 3181256153 3181256153 -15.63900000
4.07110405 9.22170830 -2.01608586 6 4 2242 10.28000000 3181256155 3181256155 -11.31000000
21.55606270 56.09692764 0.00000000 21 5 2242 60.09600000 3181256155 3181256155 0.00000000
20.77296448 41.44651031 -0.53972715 12 6 2242 46.36400000 3181256157 3181256157 -0.66700000
5.41569233 14.09365368 -2.34895539 4 7 2242 15.28000000 3181256157 3181256157 -8.84300000
7.03788233 15.93441296 -2.21726990 3 8 2243 17.56000000 3181256160 3181256160 -7.25400000
21.62510490 65.65724182 0.40176597 28 9 2243 69.12800000 3181256160 3181256160 0.33300000
21.35671997 48.33075333 -0.30710152 14 10 2244 52.84000000 3181256162 3181256162 -0.33300000
6.97204018 18.12495422 -2.09181952 3 11 2244 19.53200000 3181256162 3181256162 -6.14800000
9.47501564 18.87999916 -1.97190130 2 12 2245 21.21600000 3181256164 3181256164 -5.33300000
9.21267986 23.92493629 -1.79274142 2 15 2246 25.70000000 3181256166 3181256166 -4.00000000
9.34898376 21.12703896 -1.88602853 3 16 2247 23.18000000 3181256169 3181256169 -4.66700000
45.33479691 137.32090759 4.20858574 28 17 2247 144.67200000 3181256169 3181256169 1.66700000
42.32775879 95.65319824 1.82580090 28 18 2247 104.61600000 3181256171 3181256171 1.00000000
8.62974930 26.13985634 -1.76420474 4 19 2247 27.58400000 3181256171 3181256171 -3.66700000
12.28736401 24.45196342 -1.59370685 4 20 2248 27.41200000 3181256173 3181256173 -3.33300000
42.09077072 109.19425201 6.81528854 42 21 2248 117.22400000 3181256173 3181256173 3.33300000
42.38103867 95.68332672 4.26351786 28 22 2249 104.73600000 3181256176 3181256176 2.33300000
11.20459461 29.05248260 -1.45046818 3 23 2249 31.17200000 3181256176 3181256176 -2.66700000
12.09389496 27.29142570 -1.56442642 5 24 2250 29.89200000 3181256178 3181256178 -3.00000000
10.80561638 32.65404510 -1.40130746 5 27 2251 34.42400000 3181256180 3181256180 -2.33300000
15.35542488 30.50433159 -1.19258559 5 28 2252 34.17200000 3181256183 3181256183 -2.00000000
15.12224293 39.14951324 -0.97658664 5 31 2252 41.98000000 3181256185 3181256185 -1.33300000
2.32383466 5.21941805 -2.66418552 11 0 2260 6.30400000 3181256206 3181256206 -25.00000000
14.89257812 44.76874161 -0.82354414 10 1 2260 47.18800000 3181256206 3181256206 -1.00000000
15.85735035 35.59946823 -1.13418174 8 2 2261 38.98800000 3181256208 3181256208 -1.66700000
3.17316961 8.17668629 -2.45529246 21 3 2261 9.10800000 3181256208 3181256208 -15.63900000
4.10965538 9.22177219 -2.01922369 2 4 2262 10.29600000 3181256210 3181256210 -11.31000000
21.57221985 55.55897141 0.00000000 20 5 2262 59.60000000 3181256210 3181256210 0.00000000
20.84352303 41.22739792 -0.53781801 12 6 2262 46.20000000 3181256213 3181256213 -0.66700000
5.46342468 14.07097912 -2.34834051 4 7 2262 15.27600000 3181256213 3181256213 -8.84300000
7.08861351 15.89887714 -2.21575475 3 8 2263 17.54800000 3181256215 3181256215 -7.25400000
21.61515808 64.86414337 0.39737216 28 9 2263 68.37200000 3181256215 3181256215 0.33300000
21.35257149 47.86869431 -0.30463725 13 10 2264 52.41600000 3181256217 3181256217 -0.33300000
7.03238392 18.09309387 -2.09096289 3 11 2264 19.52400000 3181256217 3181256217 -6.14800000
9.52107430 18.80772209 -1.96781182 2 12 2265 21.17200000 3181256219 3181256219 -5.33300000
44.29823303 113.91271973 2.84405851 28 13 2265 122.25600000 3181256219 3181256219 1.33300000
39.26883698 77.53722382 1.01184297 28 14 2266 86.92000000 3181256222 3181256222 0.66700000
9.28600979 23.86660194 -1.79078817 2 15 2266 25.67200000 3181256222 3181256222 -4.00000000
9.41779613 21.08335686 -1.88505208 3 16 2267 23.16800000 3181256224 3181256224 -4.66700000
8.71411133 26.07397652 -1.76190233 3 19 2268 27.54800000 3181256226 3181256226 -3.66700000
12.35097694 24.36618233 -1.59091616 4 20 2268 27.36400000 3181256229 3181256229 -3.33300000
42.53109360 109.19922638 6.82482338 42 21 2268 117.38800000 3181256229 3181256229 3.33300000
42.66420746 95.42170715 4.25847006 28 22 2269 104.61200000 3181256231 3181256231 2.33300000
11.28272629 28.95362663 -1.44749022 3 23 2269 31.10800000 3181256231 3181256231 -2.66700000
12.17440701 27.21622658 -1.56254232 5 24 2270 29.85600000 3181256233 3181256233 -3.00000000
10.90684605 32.57822800 -1.39967918 5 27 2271 34.38400000 3181256236 3181256236 -2.33300000
15.44914150 30.42559433 -1.19160843 5 28 2272 34.14400000 3181256238 3181256238 -2.00000000
15.19919777 38.94375229 -0.97277147 5 31 2272 41.81600000 3181256240 3181256240 -1.33300000
2.26564360 5.03893375 -2.57628083 17 0 2281 6.09600000 3181256261 3181256261 -25.00000000
15.00551128 44.56224442 -0.82075179 9 1 2281 47.02800000 3181256261 3181256261 -1.00000000
15.93523407 35.42442703 -1.13045812 8 2 2282 38.86000000 3181256263 3181256263 -1.66700000
3.22281146 8.21520329 -2.47038865 18 3 2282 9.16400000 3181256263 3181256263 -15.63900000
4.16274405 9.24956894 -2.02863717 3 4 2283 10.34400000 3181256265 3181256265 -11.31000000
21.56671906 54.94707870 0.00000000 20 5 2283 59.02800000 3181256265 3181256265 0.00000000
20.94166565 41.02949905 -0.53628141 12 6 2284 46.06800000 3181256268 3181256268 -0.66700000
5.51163387 14.03518200 -2.34588099 3 7 2284 15.26000000 3181256268 3181256268 -8.84300000
7.13706350 15.85108089 -2.21272445 3 8 2284 17.52400000 3181256270 3181256270 -7.25400000
21.60089493 64.03783417 0.39279237 28 9 2284 67.58400000 3181256270 3181256270 0.33300000
21.36687660 47.43270874 -0.30235898 13 10 2285 52.02400000 3181256272 3181256272 -0.33300000
7.08556223 18.03388214 -2.08710718 3 11 2285 19.48800000 3181256272 3181256272 -6.14800000
9.58813190 18.76915359 -1.96744001 2 12 2286 21.16800000 3181256275 3181256275 -5.33300000
42.26782990 107.52320862 2.68838143 28 13 2286 115.56400000 3181256275 3181256275 1.33300000
39.27973557 76.85854340 1.00485826 28 14 2287 86.32000000 3181256277 3181256277 0.66700000
9.35881805 23.79527283 -1.78799796 2 15 2287 25.63200000 3181256277 3181256277 -4.00000000
9.49008942 21.03779411 -1.88407576 3 16 2288 23.15600000 3181256279 3181256279 -4.66700000
42.95523453 95.22391510 1.82342744 28 18 2288 104.48000000 3181256282 3181256282 1.00000000
8.79740238 26.02070999 -1.76036727 3 19 2288 27.52400000 3181256282 3181256282 -3.66700000
12.44565582 24.33141518 -1.59161389 4 20 2289 27.37600000 3181256284 3181256284 -3.33300000
42.86375046 108.87168884 6.81412601 42 21 2289 117.20400000 3181256284 3181256284 3.33300000
42.89688492 95.00606537 4.24690914 28 22 2290 104.32800000 3181256286 3181256286 2.33300000
11.37705517 28.88233757 -1.44600117 3 23 2290 31.07600000 3181256286 3181256286 -2.66700000
12.26749992 27.15686226 -1.56170499 5 24 2291 29.84000000 3181256289 3181256289 -3.00000000
10.98513126 32.41690826 -1.39446855 5 27 2292 34.25600000 3181256291 3181256291 -2.33300000
15.48945904 30.23001480 -1.18616414 5 28 2293 33.98800000 3181256293 3181256293 -2.00000000
15.32659531 38.82931137 -0.97137570 5 31 2294 41.75600000 3181256295 3181256295 -1.33300000
2.28471732 5.03429556 -2.57797146 15 0 2301 6.10000000 3181256316 3181256316 -25.00000000
15.14549732 44.46416473 -0.81991404 9 1 2301 46.98000000 3181256316 3181256316 -1.00000000
16.03399658 35.31397629 -1.12871277 8 2 2302 38.80000000 3181256318 3181256318 -1.66700000
3.24011421 8.17525578 -2.46176219 30 3 2302 9.13200000 3181256318 3181256318 -15.63900000
4.25989342 9.37782764 -2.06001592 3 4 2303 10.50400000 3181256321 3181256321 -11.31000000
21.55049324 54.34717560 0.00000000 19 5 2303 58.46400000 3181256321 3181256321 0.00000000
21.04631233 40.88146973 -0.53530359 12 6 2304 45.98400000 3181256323 3181256323 -0.66700000
3.72698164 9.39411449 -1.57232440 3 7 2304 10.22800000 3181256323 3181256323 -8.84300000
7.19070864 15.82245827 -2.21221924 3 8 2304 17.52000000 3181256325 3181256325 -7.25400000
21.57887650 63.24277115 0.38837531 28 9 2304 66.82400000 3181256325 3181256325 0.33300000
21.36344910 46.98642731 -0.29998773 12 10 2305 51.61600000 3181256328 3181256328 -0.33300000
7.13966560 17.98686218 -2.08453703 3 11 2305 19.46400000 3181256328 3181256328 -6.14800000
9.64629364 18.72140884 -1.96595299 2 12 2306 21.15200000 3181256330 3181256330 -5.33300000
42.79049683 107.74667358 2.69768667 28 13 2306 115.96400000 3181256330 3181256330 1.33300000
39.31870651 76.27655792 0.99903774 28 14 2307 85.82000000 3181256332 3181256332 0.66700000
9.44476891 23.76987648 -1.78855598 2 15 2307 25.64000000 3181256332 3181256332 -4.00000000
9.52051449 20.91020203 -1.87561381 3 16 2308 23.05200000 3181256335 3181256335 -4.66700000
42.78728867 125.11392975 3.84821224 28 17 2308 132.28400000 3181256335 3181256335 1.66700000
40.69211197 89.37335205 1.71410561 28 18 2308 98.21600000 3181256337 3181256337 1.00000000
8.85588551 25.89541817 -1.75397158 3 19 2308 27.42400000 3181256337 3181256337 -3.66700000
12.51403522 24.25588417 -1.58952081 4 20 2309 27.34000000 3181256339 3181256339 -3.33300000
48.64213562 122.29441833 7.66481590 42 21 2309 131.83600000 3181256339 3181256339 3.33300000
43.16693115 94.72118378 4.24088430 28 22 2310 104.18000000 3181256342 3181256342 2.33300000
11.45564365 28.78676224 -1.44320929 3 23 2310 31.01600000 3181256342 3181256342 -2.66700000
12.36719131 27.12477875 -1.56233299 5 24 2311 29.85200000 3181256344 3181256344 -3.00000000
11.09562874 32.37080383 -1.39414299 5 27 2312 34.24800000 3181256346 3181256346 -2.33300000
15.58754539 30.16155815 -1.18560565 5 28 2313 33.97200000 3181256348 3181256348 -2.00000000
15.44342995 38.74855423 -0.97063124 5 31 2313 41.72400000 3181256351 3181256351 -1.33300000
2.38983822 5.21745348 -2.67601871 13 0 2321 6.33200000 3181256371 3181256371 -25.00000000
15.24199104 44.24087143 -0.81677264 9 1 2321 46.80000000 3181256371 3181256371 -1.00000000
16.14550781 35.23234940 -1.12789822 8 2 2322 38.77200000 3181256374 3181256374 -1.66700000
3.27435851 8.17819977 -2.46607542 23 3 2322 9.14800000 3181256374 3181256374 -15.63900000
5.19493151 11.33103561 -2.49304295 4 4 2323 12.71200000 3181256376 3181256376 -11.31000000
21.57793999 53.86688614 0.00000000 18 5 2323 58.02800000 3181256376 3181256376 0.00000000
21.18360710 40.81500244 -0.53535014 12 6 2323 45.98800000 3181256378 3181256378 -0.66700000
3.75517368 9.37436581 -1.57109451 40 7 2323 10.22000000 3181256378 3181256378 -8.84300000
7.23266125 15.76840878 -2.20817876 3 8 2324 17.48800000 3181256381 3181256381 -7.25400000
21.58550072 62.54696274 0.38456270 28 9 2324 66.16800000 3181256381 3181256381 0.33300000
21.35883713 46.54439163 -0.29763973 11 10 2325 51.21200000 3181256383 3181256383 -0.33300000
7.19352674 17.93968201 -2.08196664 3 11 2325 19.44000000 3181256383 3181256383 -6.14800000
9.71158504 18.68762207 -1.96595299 2 12 2326 21.15200000 3181256385 3181256385 -5.33300000
43.16634369 107.59664917 2.69768667 28 13 2326 115.96400000 3181256385 3181256385 1.33300000
39.39099503 75.76622772 0.99414849 28 14 2327 85.40000000 3181256388 3181256388 0.66700000
9.53362942 23.75157547 -1.78967214 2 15 2327 25.65600000 3181256388 3181256388 -4.00000000
9.58345890 20.85510635 -1.87366104 3 16 2328 23.02800000 3181256390 3181256390 -4.66700000
40.98045731 89.17989349 1.71312821 28 18 2328 98.16000000 3181256392 3181256392 1.00000000
8.92795563 25.81153107 -1.75038993 3 19 2328 27.36800000 3181256392 3181256392 -3.66700000
12.53964329 24.09869957 -1.58207905 4 20 2329 27.21200000 3181256395 3181256395 -3.33300000
43.03618622 107.10989380 6.72249889 42 21 2329 115.62800000 3181256395 3181256395 3.33300000
41.05063629 89.25048065 4.00233984 28 22 2330 98.32000000 3181256397 3181256397 2.33300000
11.53221321 28.68728065 -1.44023132 3 23 2330 30.95200000 3181256397 3181256397 -2.66700000
12.40335560 26.95443726 -1.55500591 5 24 2331 29.71200000 3181256399 3181256399 -3.00000000
11.19808388 32.30166626 -1.39284027 5 27 2332 34.21600000 3181256401 3181256401 -2.33300000
15.67610455 30.07505798 -1.18434930 5 28 2333 33.93600000 3181256404 3181256404 -2.00000000
15.52707481 38.54702759 -0.96700221 5 31 2334 41.56800000 3181256406 3181256406 -1.33300000
2.44150209 5.28147364 -2.71320915 15 0 2341 6.42000000 3181256427 3181256427 -25.00000000
16.21804237 35.06690598 -1.12440729 7 2 2342 38.65200000 3181256429 3181256429 -1.66700000
3.29999733 8.15957832 -2.46391892 16 3 2342 9.14000000 3181256429 3181256429 -15.63900000
5.22951126 11.30215359 -2.49068952 4 4 2343 12.70000000 3181256431 3181256431 -11.31000000
21.53928375 53.23133469 0.00000000 18 5 2343 57.42400000 3181256431 3181256431 0.00000000
21.25360680 40.60260773 -0.53353411 12 6 2343 45.83200000 3181256434 3181256434 -0.66700000
3.79232097 9.37219238 -1.57293928 28 7 2343 10.23200000 3181256434 3181256434 -8.84300000
7.27432394 15.71425819 -2.20413804 3 8 2344 17.45600000 3181256436 3181256436 -7.25400000
21.56249046 61.78012848 0.38030839 28 9 2344 65.43600000 3181256436 3181256436 0.33300000
21.35812569 46.11748123 -0.29538471 10 10 2345 50.82400000 3181256438 3181256438 -0.33300000
7.24565315 17.88866043 -2.07896781 3 11 2345 19.41200000 3181256438 3181256438 -6.14800000
9.76381588 18.62891579 -1.96335053 2 12 2346 21.12400000 3181256441 3181256441 -5.33300000
41.92861938 103.46489716 2.59774828 28 13 2346 111.66800000 3181256441 3181256441 1.33300000
39.48992157 75.31300354 0.99000430 28 14 2347 85.04400000 3181256443 3181256443 0.66700000
9.60448551 23.68856812 -1.78743994 2 15 2347 25.62400000 3181256443 3181256443 -4.00000000
9.65955353 20.82876015 -1.87431204 3 16 2348 23.03600000 3181256445 3181256445 -4.66700000
41.88042068 90.30617523 1.73756158 28 18 2348 99.56000000 3181256448 3181256448 1.00000000
9.01272774 25.76513863 -1.74936664 3 19 2348 27.35200000 3181256448 3181256448 -3.66700000
12.64409924 24.09367561 -1.58463717 4 20 2349 27.25600000 3181256450 3181256450 -3.33300000
43.39328766 106.91831207 6.71994066 42 21 2349 115.58400000 3181256450 3181256450 3.33300000
41.20879745 88.77675629 3.98752236 28 22 2350 97.95600000 3181256452 3181256452 2.33300000
11.61574459 28.60612869 -1.43818402 3 23 2350 30.90800000 3181256452 3181256452 -2.66700000
12.49568653 26.90735435 -1.55479658 5 24 2351 29.70800000 3181256454 3181256454 -3.00000000
11.30019093 32.23220825 -1.39153767 5 27 2352 34.18400000 3181256457 3181256457 -2.33300000
15.78843117 30.03430939 -1.18490767 5 28 2353 33.95200000 3181256459 3181256459 -2.00000000
15.66756248 38.50741196 -0.96737444 5 31 2354 41.58400000 3181256461 3181256461 -1.33300000
2.34344077 5.02323580 -2.58473325 15 0 2361 6.11600000 3181256482 3181256482 -25.00000000
15.32320023 43.48835754 -0.80483520 101 1 2361 46.11600000 3181256482 3181256482 -1.00000000
16.31667519 34.95935822 -1.12277830 7 2 2362 38.59600000 3181256484 3181256484 -1.66700000
3.32263279 8.13374615 -2.45960569 15 3 2362 9.12400000 3181256484 3181256484 -15.63900000
5.27225018 11.29093838 -2.49225855 3 4 2363 12.70800000 3181256487 3181256487 -11.31000000
21.52823448 52.67447662 0.00000000 17 5 2363 56.90400000 3181256487 3181256487 0.00000000
21.28317070 40.31594467 -0.53074026 12 6 2363 45.59200000 3181256489 3181256489 -0.66700000
7.32913256 15.68877029 -2.20413804 3 8 2364 17.45600000 3181256491 3181256491 -7.25400000
21.57033539 61.11606979 0.37668175 28 9 2364 64.81200000 3181256491 3181256491 0.33300000
21.35130882 45.68390274 -0.29308319 20 10 2365 50.42800000 3181256494 3181256494 -0.33300000
7.29901695 17.84117317 -2.07639766 3 11 2365 19.38800000 3181256494 3181256494 -6.14800000
9.82506084 18.58767891 -1.96260691 2 12 2366 21.11600000 3181256496 3181256496 -5.33300000
42.06229782 102.76277161 2.58379054 28 13 2366 111.06800000 3181256496 3181256496 1.33300000
39.45154190 74.60543060 0.98250741 28 14 2367 84.40000000 3181256498 3181256498 0.66700000
9.69013977 23.66228485 -1.78799796 2 15 2367 25.63200000 3181256498 3181256498 -4.00000000
9.72544098 20.78047180 -1.87301016 3 16 2368 23.02000000 3181256501 3181256501 -4.66700000
41.60035324 88.88800049 1.71305835 28 18 2368 98.15600000 3181256503 3181256503 1.00000000
9.09196091 25.70341492 -1.74731994 3 19 2368 27.32000000 3181256503 3181256503 -3.66700000
12.70757771 24.01056862 -1.58207905 4 20 2369 27.21200000 3181256505 3181256505 -3.33300000
43.70716858 106.62209320 6.71087074 42 21 2369 115.42800000 3181256505 3181256505 3.33300000
41.18105316 87.91213226 3.95511937 28 22 2370 97.16000000 3181256507 3181256507 2.33300000
11.70036602 28.52843857 -1.43632269 3 23 2370 30.86800000 3181256507 3181256507 -2.66700000
12.57936382 26.84186935 -1.55354047 5 24 2371 29.68400000 3181256510 3181256510 -3.00000000
11.36722851 32.06448746 -1.38600147 5 27 2372 34.04800000 3181256512 3181256512 -2.33300000
15.87257767 29.94016266 -1.18337214 5 28 2373 33.90800000 3181256514 3181256514 -2.00000000
15.72892380 38.27494431 -0.96290791 5 31 2374 41.39200000 3181256517 3181256517 -1.33300000
2.35941672 5.01174498 -2.58304286 17 0 2381 6.11200000 3181256537 3181256537 -25.00000000
16.38749695 34.79367447 -1.11928737 7 2 2382 38.47600000 3181256540 3181256540 -1.66700000
3.27314258 7.93337822 -2.40245557 14 3 2382 8.91200000 3181256540 3181256540 -15.63900000
5.30327129 11.25472546 -2.48833609 4 4 2383 12.68800000 3181256542 3181256542 -11.31000000
21.53187943 52.16271591 0.00000000 16 5 2383 56.43200000 3181256542 3181256542 0.00000000
21.26400375 39.94130707 -0.52678227 12 6 2383 45.25200000 3181256544 3181256544 -0.66700000
5.72616434 13.87209511 -2.33481240 3 7 2383 15.18800000 3181256544 3181256544 -8.84300000
7.37877607 15.65232372 -2.20262289 3 8 2384 17.44400000 3181256547 3181256547 -7.25400000
21.56036758 60.41504288 0.37282264 28 9 2384 64.14800000 3181256547 3181256547 0.33300000
21.34855080 45.26540756 -0.29087466 18 10 2385 50.04800000 3181256549 3181256549 -0.33300000
7.35517454 17.80088425 -2.07468414 3 11 2385 19.37200000 3181256549 3181256549 -6.14800000
9.86740303 18.51109505 -1.95814562 2 12 2386 21.06800000 3181256551 3181256551 -5.33300000
39.70043182 74.44609070 0.98222804 28 14 2387 84.37600000 3181256553 3181256553 0.66700000
9.71014881 23.47713470 -1.77655792 2 15 2387 25.46800000 3181256553 3181256553 -4.00000000
9.78259659 20.71395302 -1.87008107 3 16 2388 22.98400000 3181256556 3181256556 -4.66700000
43.72208023 122.24547577 3.77839494 28 17 2388 129.88400000 3181256556 3181256556 1.66700000
41.57220840 88.02620697 1.69923615 28 18 2388 97.36400000 3181256558 3181256558 1.00000000
9.15070724 25.58507156 -1.74143589 3 19 2388 27.22800000 3181256558 3181256558 -3.66700000
12.80635452 23.99424934 -1.58393943 4 20 2389 27.24400000 3181256560 3181256560 -3.33300000
44.20586777 106.77510834 6.73017311 42 21 2389 115.76000000 3181256560 3181256560 3.33300000
41.24684143 87.25836945 3.93216038 28 22 2390 96.59600000 3181256563 3181256563 2.33300000
11.79070282 28.46527481 -1.43520594 3 23 2390 30.84400000 3181256563 3181256563 -2.66700000
12.65590572 26.76168442 -1.55144703 5 24 2391 29.64400000 3181256565 3181256565 -3.00000000
11.46155357 31.97570419 -1.38388467 5 27 2392 33.99600000 3181256567 3181256567 -2.33300000
15.96568298 29.86342239 -1.18253458 5 28 2393 33.88400000 3181256570 3181256570 -2.00000000
15.84710312 38.18287277 -0.96197736 5 31 2394 41.35200000 3181256572 3181256572 -1.33300000
2.37204099 4.99775791 -2.57966185 19 0 2399 6.10400000 3181256593 3181256593 -25.00000000
16.47442818 34.69506454 -1.11777472 7 2 2400 38.42400000 3181256595 3181256595 -1.66700000
3.40018892 8.16842937 -2.47685838 12 3 2400 9.18800000 3181256595 3181256595 -15.63900000
5.33523655 11.23092365 -2.48676729 4 4 2401 12.68000000 3181256597 3181256597 -11.31000000
21.48957825 51.60000992 0.00000000 16 5 2401 55.89600000 3181256597 3181256597 0.00000000
21.27971840 39.66987991 -0.52408159 12 6 2401 45.02000000 3181256600 3181256600 -0.66700000
5.76667738 13.84674072 -2.33358264 3 7 2401 15.18000000 3181256600 3181256600 -8.84300000
7.41598988 15.60397911 -2.19908738 3 8 2402 17.41600000 3181256602 3181256602 -7.25400000
21.52085495 59.71106720 0.36889377 28 9 2402 63.47200000 3181256602 3181256602 0.33300000
21.32232666 44.84410095 -0.28859639 18 10 2403 49.65600000 3181256604 3181256604 -0.33300000
7.42330360 17.80705643 -2.07811117 3 11 2403 19.40400000 3181256604 3181256604 -6.14800000
9.91608620 18.46246147 -1.95628679 2 12 2404 21.04800000 3181256606 3181256606 -5.33300000
27.02007484 64.78404236 1.63335156 22 13 2404 70.21200000 3181256606 3181256606 1.33300000
39.70504379 73.89467621 0.97659373 28 14 2405 83.89200000 3181256609 3181256609 0.66700000
9.77156353 23.41705322 -1.77432561 2 15 2405 25.43600000 3181256609 3181256609 -4.00000000
9.84590912 20.67951965 -1.86975563 3 16 2406 22.98000000 3181256611 3181256611 -4.66700000
45.39495468 125.67623901 3.88882256 28 17 2406 133.68000000 3181256611 3181256611 1.66700000
41.35168076 86.85159302 1.67906117 28 18 2406 96.20800000 3181256613 3181256613 1.00000000
9.22561550 25.54118156 -1.74041259 3 19 2406 27.21200000 3181256613 3181256613 -3.66700000
12.85897541 23.91169357 -1.58114886 4 20 2407 27.19600000 3181256616 3181256616 -3.33300000
44.54417038 106.64307404 6.73063803 42 21 2407 115.76800000 3181256616 3181256616 3.33300000
40.84506226 85.71043396 3.86816859 28 22 2408 95.02400000 3181256618 3181256618 2.33300000
11.87544823 28.41703224 -1.43464756 3 23 2408 30.83200000 3181256618 3181256618 -2.66700000
12.73647881 26.71458244 -1.55102837 5 24 2409 29.63600000 3181256620 3181256620 -3.00000000
11.51297760 31.80424881 -1.37802291 5 27 2410 33.85200000 3181256623 3181256623 -2.33300000
16.00444412 29.71105385 -1.17848623 5 28 2411 33.76800000 3181256625 3181256625 -2.00000000
15.95106125 38.11355209 -0.96141905 5 31 2411 41.32800000 3181256627 3181256627 -1.33300000
2.38634038 4.98290825 -2.57628083 14 0 2419 6.09600000 3181256648 3181256648 -25.00000000
16.57297707 34.59047318 -1.11626196 7 2 2420 38.37200000 3181256650 3181256650 -1.66700000
3.11372614 7.40726185 -2.24933672 13 3 2420 8.34400000 3181256650 3181256650 -15.63900000
5.37271214 11.20869446 -2.48598289 4 4 2421 12.67600000 3181256653 3181256653 -11.31000000
21.49743652 51.11540604 0.00000000 15 5 2421 55.45200000 3181256653 3181256653 0.00000000
21.26126289 39.28909683 -0.52007705 11 6 2422 44.67600000 3181256655 3181256655 -0.66700000
5.80972481 13.80729580 -2.33050823 4 7 2422 15.16000000 3181256655 3181256655 -8.84300000
7.46526575 15.56726360 -2.19757223 3 8 2422 17.40400000 3181256657 3181256657 -7.25400000
21.50457764 59.01923370 0.36508116 28 9 2422 62.81600000 3181256657 3181256657 0.33300000
21.30744171 44.41236877 -0.28629488 18 10 2423 49.26000000 3181256659 3181256659 -0.33300000
7.47307205 17.75171089 -2.07468414 1 11 2423 19.37200000 3181256659 3181256659 -6.14800000
9.97478199 18.41722870 -1.95517147 2 12 2424 21.03600000 3181256662 3181256662 -5.33300000
42.77286911 101.55410767 2.56415629 28 13 2424 110.22400000 3181256662 3181256662 1.33300000
39.61785889 73.11911011 0.96816558 28 14 2425 83.16800000 3181256664 3181256664 0.66700000
9.85014534 23.37544823 -1.77376759 2 15 2425 25.42800000 3181256664 3181256664 -4.00000000
9.91112804 20.63064957 -1.86845374 3 16 2426 22.96400000 3181256666 3181256666 -4.66700000
44.12181854 120.82984924 3.74360275 28 17 2426 128.68800000 3181256666 3181256666 1.66700000
41.47395706 86.29211426 1.67117262 28 18 2427 95.75600000 3181256669 3181256669 1.00000000
9.29724884 25.44720459 -1.73631930 3 19 2427 27.14800000 3181256669 3181256669 -3.66700000
12.94997883 23.88070297 -1.58207905 4 20 2427 27.21200000 3181256671 3181256671 -3.33300000
44.90063095 106.45014191 6.72831249 42 21 2427 115.72800000 3181256671 3181256671 3.33300000
40.98119736 85.22875977 3.85286260 28 22 2428 94.64800000 3181256673 3181256673 2.33300000
11.94971371 28.31650543 -1.43166959 3 23 2428 30.76800000 3181256673 3181256673 -2.66700000
12.82099438 26.65196228 -1.54998171 5 24 2429 29.61600000 3181256676 3181256676 -3.00000000
11.61568451 31.74134827 -1.37704587 5 27 2430 33.82800000 3181256678 3181256678 -2.33300000
16.10042572 29.64095688 -1.17792785 5 28 2431 33.75200000 3181256680 3181256680 -2.00000000
16.09490204 38.08342361 -0.96207041 5 31 2431 41.35600000 3181256683 3181256683 -1.33300000
2.43070984 5.02592564 -2.60332847 16 0 2441 6.16000000 3181256703 3181256703 -25.00000000
15.86396217 43.09377289 -0.80155414 9 1 2441 45.92800000 3181256703 3181256703 -1.00000000
16.70567322 34.52658081 -1.11626196 7 2 2442 38.37200000 3181256706 3181256706 -1.66700000
3.16624594 7.45197439 -2.26658964 18 3 2442 8.40800000 3181256706 3181256706 -15.63900000
5.40716600 11.17033005 -2.48206043 4 4 2443 12.65600000 3181256708 3181256708 -11.31000000
21.52767181 50.64227676 0.00000000 15 5 2443 55.02800000 3181256708 3181256708 0.00000000
21.29502296 38.99303818 -0.51723659 11 6 2444 44.43200000 3181256710 3181256710 -0.66700000
5.85805750 13.77397537 -2.32866335 5 7 2444 15.14800000 3181256710 3181256710 -8.84300000
21.51378059 58.34701157 0.36143130 28 9 2444 62.18800000 3181256712 3181256712 0.33300000
21.36794090 44.10344696 -0.28483027 18 10 2445 49.00800000 3181256715 3181256715 -0.33300000
7.55674982 17.75948143 -2.07896781 3 11 2445 19.41200000 3181256715 3181256715 -6.14800000
10.03587437 18.36131859 -1.95331252 2 12 2446 21.01600000 3181256717 3181256717 -5.33300000
42.24147415 99.22564697 2.50944138 28 13 2446 107.87200000 3181256717 3181256717 1.33300000
39.54140091 72.31371307 0.95950466 28 14 2447 82.42400000 3181256719 3181256719 0.66700000
9.94921017 23.35947990 -1.77544177 2 15 2447 25.45200000 3181256719 3181256719 -4.00000000
9.98505020 20.58168030 -1.86747742 3 16 2448 22.95200000 3181256722 3181256722 -4.66700000
44.86122894 121.40588379 3.76675868 28 17 2448 129.48400000 3181256722 3181256722 1.66700000
41.47224045 85.48464203 1.65846729 28 18 2448 95.02800000 3181256724 3181256724 1.00000000
9.38492107 25.39798164 -1.73529601 3 19 2448 27.13200000 3181256724 3181256724 -3.66700000
13.02815914 23.80628204 -1.58045113 4 20 2449 27.18400000 3181256726 3181256726 -3.33300000
50.17476654 117.69001007 7.45086432 42 21 2449 128.15600000 3181256726 3181256726 3.33300000
40.90487671 84.24027252 3.81524920 28 22 2450 93.72400000 3181256729 3181256729 2.33300000
12.03640652 28.21895981 -1.42906392 3 23 2450 30.71200000 3181256729 3181256729 -2.66700000
12.86912727 26.49115372 -1.54349208 5 24 2451 29.49200000 3181256731 3181256731 -3.00000000
11.72637272 31.66653061 -1.37574327 5 27 2452 33.79600000 3181256733 3181256733 -2.33300000
16.19682503 29.54736710 -1.17667139 5 28 2453 33.71600000 3181256736 3181256736 -2.00000000
16.16875458 37.85218048 -0.95779002 5 31 2453 41.17200000 3181256738 3181256738 -1.33300000
2.42598200 4.97179747 -2.57966185 17 0 2461 6.10400000 3181256759 3181256759 -25.00000000
16.03939629 43.10560608 -0.80281067 9 1 2461 46.00000000 3181256759 3181256759 -1.00000000
16.75768471 34.32793045 -1.11172390 7 2 2462 38.21600000 3181256761 3181256761 -1.66700000
3.23476148 7.53999424 -2.29678202 22 3 2462 8.52000000 3181256761 3181256761 -15.63900000
5.44440317 11.14786243 -2.48127604 4 4 2463 12.65200000 3181256764 3181256764 -11.31000000
21.49290466 50.07427597 0.00000000 14 5 2463 54.49200000 3181256764 3181256764 0.00000000
21.24869728 38.60334396 -0.51299924 11 6 2463 44.06800000 3181256766 3181256766 -0.66700000
5.89902449 13.74357700 -2.32681870 3 7 2463 15.13600000 3181256766 3181256766 -8.84300000
7.56350040 15.48003578 -2.19302654 24 8 2464 17.36800000 3181256768 3181256768 -7.25400000
21.50219917 57.69435501 0.35785115 28 9 2464 61.57200000 3181256768 3181256768 0.33300000
21.34785843 43.67282486 -0.28252876 18 10 2465 48.61200000 3181256771 3181256771 -0.33300000
10.09029484 18.30873489 -1.95145369 2 12 2466 20.99600000 3181256773 3181256773 -5.33300000
42.52441025 98.93063354 2.50571942 28 13 2466 107.71200000 3181256773 3181256773 1.33300000
39.54639435 71.72690582 0.95354438 28 14 2467 81.91200000 3181256775 3181256775 0.66700000
10.01965427 23.29895020 -1.77348864 2 15 2467 25.42400000 3181256775 3181256775 -4.00000000
10.04456425 20.52163506 -1.86519921 3 16 2468 22.92400000 3181256777 3181256777 -4.66700000
41.56642914 84.92266083 1.65036941 28 18 2468 94.56400000 3181256780 3181256780 1.00000000
9.46793270 25.35010910 -1.73427260 3 19 2468 27.11600000 3181256780 3181256780 -3.66700000
13.01857567 23.59284019 -1.56928849 4 20 2469 26.99200000 3181256782 3181256782 -3.33300000
50.22529221 116.67787933 7.39784145 42 21 2469 127.24400000 3181256782 3181256782 3.33300000
40.89097977 83.46887207 3.78675413 28 22 2470 93.02400000 3181256784 3181256784 2.33300000
12.12061119 28.14374352 -1.42738879 3 23 2470 30.67600000 3181256784 3181256784 -2.66700000
12.95624638 26.43531036 -1.54286397 5 24 2471 29.48000000 3181256787 3181256787 -3.00000000
58.41913223 119.14300537 10.83254051 28 26 2472 133.13600000 3181256789 3181256789 4.66700000
11.82703114 31.59920311 -1.37460339 5 27 2472 33.76800000 3181256789 3181256789 -2.33300000
16.29213142 29.47665596 -1.17611301 5 28 2473 33.70000000 3181256791 3181256791 -2.00000000
16.30553436 37.80652618 -0.95806915 5 31 2473 41.18400000 3181256794 3181256794 -1.33300000
2.44478941 4.97065783 -2.58304286 17 0 2479 6.11200000 3181256814 3181256814 -25.00000000
16.12410164 42.92022324 -0.80029756 9 1 2479 45.85600000 3181256814 3181256814 -1.00000000
16.81072426 34.16390228 -1.10811663 7 2 2480 38.09200000 3181256817 3181256817 -1.66700000
3.29973722 7.62524271 -2.32589626 14 3 2480 8.62800000 3181256817 3181256817 -15.63900000
5.47420168 11.12014675 -2.47892261 4 4 2481 12.64000000 3181256819 3181256819 -11.31000000
21.48006248 49.61373901 0.00000000 14 5 2481 54.06400000 3181256819 3181256819 0.00000000
21.25348663 38.32652664 -0.51020539 11 6 2481 43.82800000 3181256821 3181256821 -0.66700000
5.93746138 13.71409607 -2.32497406 2 7 2481 15.12400000 3181256821 3181256821 -8.84300000
21.49176788 57.11737823 0.35468948 28 9 2482 61.02800000 3181256824 3181256824 0.33300000
21.31877518 43.26826859 -0.28034347 18 10 2483 48.23600000 3181256826 3181256826 -0.33300000
7.61269474 17.56665802 -2.06226087 27 11 2483 19.25600000 3181256826 3181256826 -6.14800000
10.14196301 18.26650047 -1.95033836 2 12 2484 20.98400000 3181256828 3181256828 -5.33300000
43.77193832 100.95754242 2.56052732 28 13 2484 110.06800000 3181256828 3181256828 1.33300000
39.65306473 71.38902283 0.95070398 28 14 2485 81.66800000 3181256830 3181256830 0.66700000
10.09438801 23.27101707 -1.77376759 2 15 2485 25.42800000 3181256830 3181256830 -4.00000000
10.07370758 20.41847229 -1.85869002 3 16 2486 22.84400000 3181256833 3181256833 -4.66700000
41.05974197 83.22429657 1.61986256 28 18 2486 92.81600000 3181256835 3181256835 1.00000000
9.51513195 25.23433113 -1.72838855 3 19 2486 27.02400000 3181256835 3181256835 -3.66700000
13.10233116 23.56927490 -1.57045126 4 20 2487 27.01200000 3181256837 3181256837 -3.33300000
50.65362549 116.66236877 7.40691137 42 21 2487 127.40000000 3181256837 3181256837 3.33300000
40.88048935 82.78812408 3.76167846 28 22 2488 92.40800000 3181256840 3181256840 2.33300000
12.19145584 28.06521416 -1.42534137 3 23 2488 30.63200000 3181256840 3181256840 -2.66700000
13.01269341 26.34075737 -1.53972387 5 24 2489 29.42000000 3181256842 3181256842 -3.00000000
11.88527584 31.45347023 -1.36988139 5 27 2490 33.65200000 3181256844 3181256844 -2.33300000
16.31464195 29.29959297 -1.17108750 5 28 2491 33.55600000 3181256847 3181256847 -2.00000000
16.32532501 37.52776337 -0.95229989 5 31 2491 40.93600000 3181256849 3181256849 -1.33300000
2.46299124 4.96166372 -2.58304286 13 0 2500 6.11200000 3181256870 3181256870 -25.00000000
16.19041061 42.62155914 -0.79582971 9 1 2500 45.60000000 3181256870 3181256870 -1.00000000
16.91448593 34.05908585 -1.10672033 7 2 2501 38.04400000 3181256872 3181256872 -1.66700000
3.31223559 7.57780266 -2.31511331 14 3 2501 8.58800000 3181256872 3181256872 -15.63900000
5.51143169 11.09298229 -2.47735357 4 4 2502 12.63200000 3181256874 3181256874 -11.31000000
21.49348068 49.14986420 0.00000000 13 5 2502 53.64400000 3181256874 3181256874 0.00000000
21.27861786 38.04241562 -0.50745809 22 6 2502 43.59200000 3181256877 3181256877 -0.66700000
5.98293495 13.68137836 -2.32312918 3 7 2502 15.11200000 3181256877 3181256877 -8.84300000
21.48619270 56.47370911 0.35117906 28 9 2503 60.42400000 3181256879 3181256879 0.33300000
21.31692696 42.86750031 -0.27825117 17 10 2504 47.87600000 3181256881 3181256881 -0.33300000
10.20495319 18.22225571 -1.94959474 2 12 2505 20.97600000 3181256883 3181256883 -5.33300000
44.78333282 102.26165771 2.59774828 28 13 2505 111.66800000 3181256883 3181256883 1.33300000
39.88512421 71.19087219 0.95000553 28 14 2506 81.60800000 3181256886 3181256886 0.66700000
10.17801189 23.23020935 -1.77348864 2 15 2506 25.42400000 3181256886 3181256886 -4.00000000
10.14492321 20.37427521 -1.85803914 3 16 2507 22.83600000 3181256888 3181256888 -4.66700000
41.05810165 107.68970490 3.35413861 28 17 2507 115.30000000 3181256888 3181256888 1.66700000
41.32192993 82.95146942 1.61762869 28 18 2508 92.68800000 3181256890 3181256890 1.00000000
9.59772778 25.16031456 -1.72583020 3 19 2508 26.98400000 3181256890 3181256890 -3.66700000
13.18862915 23.52109528 -1.57045126 4 20 2508 27.01200000 3181256893 3181256893 -3.33300000
40.97685623 82.22279358 3.74279022 28 22 2509 91.94400000 3181256895 3181256895 2.33300000
12.28942108 28.00936508 -1.42478299 3 23 2509 30.62000000 3181256895 3181256895 -2.66700000
13.11627865 26.30718613 -1.54056120 5 24 2510 29.43600000 3181256897 3181256897 -3.00000000
12.00475788 31.42089653 -1.37036991 5 27 2511 33.66400000 3181256900 3181256900 -2.33300000
16.39060020 29.18383217 -1.16885400 5 28 2512 33.49200000 3181256902 3181256902 -2.00000000
16.46597862 37.47499847 -0.95248604 5 31 2512 40.94400000 3181256904 3181256904 -1.33300000
2.50626731 5.00490046 -2.61009049 15 0 2520 6.17600000 3181256925 3181256925 -25.00000000
16.33192253 42.54611588 -0.79548067 9 1 2520 45.58000000 3181256925 3181256925 -1.00000000
17.01357269 33.96051025 -1.10544026 7 2 2521 38.00000000 3181256927 3181256927 -1.66700000
3.35732746 7.60848331 -2.32805276 15 3 2521 8.63600000 3181256927 3181256927 -15.63900000
5.54660463 11.06666374 -2.47578478 4 4 2522 12.62400000 3181256929 3181256929 -11.31000000
21.48559952 48.66835785 0.00000000 13 5 2522 53.20000000 3181256929 3181256929 0.00000000
21.25478745 37.67503357 -0.50359327 11 6 2523 43.26000000 3181256932 3181256932 -0.66700000
6.02505541 13.64128017 -2.32005477 3 7 2523 15.09200000 3181256932 3181256932 -8.84300000
7.70649433 15.36940861 -2.18848085 3 8 2523 17.33200000 3181256934 3181256934 -7.25400000
21.46501160 55.83087158 0.34764543 27 9 2523 59.81600000 3181256934 3181256934 0.33300000
21.34088707 42.54255676 -0.27662385 17 10 2524 47.59600000 3181256936 3181256936 -0.33300000
7.73177338 17.49718285 -2.06054711 1 11 2524 19.24000000 3181256936 3181256936 -6.14800000
10.24500084 18.14490509 -1.94513345 2 12 2525 20.92800000 3181256939 3181256939 -5.33300000
46.14899063 104.38695526 2.65581322 28 13 2525 114.16400000 3181256939 3181256939 1.33300000
39.84618378 70.54275513 0.94320714 28 14 2526 81.02400000 3181256941 3181256941 0.66700000
10.19931793 23.05951691 -1.76316464 2 15 2526 25.27600000 3181256941 3181256941 -4.00000000
10.20703316 20.32092667 -1.85641181 3 16 2527 22.81600000 3181256943 3181256943 -4.66700000
41.01336288 81.65247345 1.59494054 28 18 2527 91.38800000 3181256946 3181256946 1.00000000
9.67106342 25.10227394 -1.72403944 3 19 2527 26.95600000 3181256946 3181256946 -3.66700000
13.02697372 23.04386330 -1.54161429 4 20 2528 26.51600000 3181256948 3181256948 -3.33300000
60.63358307 136.95649719 8.72271347 42 21 2528 150.03200000 3181256948 3181256948 3.33300000
40.99075317 81.53649139 3.71804023 28 22 2529 91.33600000 3181256950 3181256950 2.33300000
12.37902641 27.94802856 -1.42385232 3 23 2529 30.60000000 3181256950 3181256950 -2.66700000
13.15418339 26.15418243 -1.53428090 5 24 2530 29.31600000 3181256953 3181256953 -3.00000000
12.09996986 31.34151649 -1.36874163 5 27 2531 33.62400000 3181256955 3181256955 -2.33300000
16.49434090 29.12991905 -1.16899359 5 28 2532 33.49600000 3181256957 3181256957 -2.00000000
16.54644966 37.28646469 -0.94922918 5 31 2533 40.80400000 3181256959 3181256959 -1.33300000
2.51141262 4.97390890 -2.59825706 14 0 2539 6.14800000 3181256980 3181256980 -25.00000000
16.48015022 42.51036835 -0.79582971 9 1 2539 45.60000000 3181256980 3181256980 -1.00000000
17.10987091 33.87178802 -1.10439301 7 2 2540 37.96400000 3181256982 3181256982 -1.66700000
3.37000585 7.56915712 -2.31942630 16 3 2540 8.60400000 3181256982 3181256982 -15.63900000
5.57973433 11.04120827 -2.47421575 4 4 2541 12.61600000 3181256985 3181256985 -11.31000000
21.48574066 48.23510361 0.00000000 12 5 2541 52.80400000 3181256985 3181256985 0.00000000
21.26692390 37.40615082 -0.50093907 22 6 2542 43.03200000 3181256987 3181256987 -0.66700000
6.06704044 13.61400509 -2.31882477 4 7 2542 15.08400000 3181256987 3181256987 -8.84300000
