# .PCD v0.7 - Point Cloud Data file format
VERSION 0.7
FIELDS x y z intensity laser_id azimuth distance_m adjustedtime timestamp vertical_angle
SIZE 4 4 4 1 1 2 8 8 4 8
TYPE F F F U U U F U U F
COUNT 1 1 1 1 1 1 1 1 1 1
WIDTH 528
HEIGHT 1
VIEWPOINT 0 0 0 1 0 0 0
POINTS 528
DATA ascii
-0.23997508 14.47189426 -2.25179958 16 7 45 14.64800000 3176800295 3176800295 -8.84300000
0.56281471 17.33095551 -2.20716858 15 8 46 17.48000000 3176800298 3176800298 -7.25400000
-4.08352518 62.46961975 0.36384904 56 9 46 62.60400000 3176800298 3176800298 0.33300000
2.71936297 83.29021454 -0.48434165 28 10 47 83.33600000 3176800300 3176800300 -0.33300000
-0.31410027 19.34950447 -2.08453703 16 11 47 19.46400000 3176800300 3176800300 -6.14800000
1.72190857 21.03388596 -1.97004247 33 12 48 21.19600000 3176800302 3176800302 -5.33300000
-0.42947587 27.03855515 -1.89095855 26 15 49 27.10800000 3176800304 3176800304 -4.00000000
0.78674132 23.71601677 -1.93712533 22 16 50 23.80800000 3176800307 3176800307 -4.66700000
-1.94565845 30.08729935 -1.93228519 13 19 50 30.21200000 3176800309 3176800309 -3.66700000
2.56183767 31.09378052 -1.81696069 15 20 51 31.25200000 3176800311 3176800311 -3.33300000
5.69766283 169.96345520 6.92837906 28 22 52 170.20000000 3176800314 3176800314 2.33300000
-0.53315330 34.71026230 -1.61704957 11 23 52 34.75200000 3176800314 3176800314 -2.66700000
1.11430633 33.06782532 -1.73399496 13 24 53 33.13200000 3176800316 3176800316 -3.00000000
-0.16589721 10.92468834 1.34153771 10 25 53 11.00800000 3176800316 3176800316 7.00000000
3.30931735 39.82638550 -1.39556110 22 28 55 39.98800000 3176800321 3176800321 -2.00000000
-0.16140492 10.87899113 2.91533780 5 29 55 11.26400000 3176800321 3176800321 15.00000000
-0.16502963 11.25574303 -0.26194295 0 31 56 11.26000000 3176800323 3176800323 -1.33300000
0.20610726 5.81484461 -2.71320915 12 0 63 6.42000000 3176800344 3176800344 -25.00000000
-2.67288017 42.84216309 -0.74926668 9 1 63 42.93200000 3176800344 3176800344 -1.00000000
1.69257069 47.51773453 -1.38377857 11 2 64 47.56800000 3176800346 3176800346 -1.66700000
-0.11531524 8.69301224 -2.43372631 19 3 64 9.02800000 3176800346 3176800346 -15.63900000
0.39538735 11.04602909 -2.21063399 11 4 65 11.27200000 3176800348 3176800348 -11.31000000
5.67207098 66.84724426 -0.78102356 29 6 65 67.09200000 3176800351 3176800351 -0.66700000
-0.19313054 14.75324345 -2.29545832 17 7 65 14.93200000 3176800351 3176800351 -8.84300000
0.62402076 17.34871292 -2.20969391 18 8 66 17.50000000 3176800353 3176800353 -7.25400000
-3.97188807 64.20417023 0.37386879 28 9 66 64.32800000 3176800353 3176800353 0.33300000
2.99621344 82.89646912 -0.48210987 28 10 67 82.95200000 3176800355 3176800355 -0.33300000
-0.24554260 19.27095032 -2.07596922 13 11 67 19.38400000 3176800355 3176800355 -6.14800000
1.78549480 20.91266823 -1.95926094 27 12 68 21.08000000 3176800357 3176800357 -5.33300000
-0.13783728 10.96816444 0.25524318 7 13 68 10.97200000 3176800357 3176800357 1.33300000
-0.13676581 11.03620148 -0.77178562 1 15 69 11.06400000 3176800360 3176800360 -4.00000000
0.86820608 23.67726898 -1.93419623 16 16 70 23.77200000 3176800362 3176800362 -4.66700000
-8.76725388 143.34333801 4.17949533 28 17 70 143.67200000 3176800362 3176800362 1.66700000
-1.82795024 29.88672066 -1.91898203 13 19 70 30.00400000 3176800364 3176800364 -3.66700000
2.63344693 30.65496063 -1.79184461 15 20 71 30.82000000 3176800367 3176800367 -3.33300000
-0.13156998 10.92469597 0.63627344 12 21 71 10.94400000 3176800367 3176800367 3.33300000
-0.13045359 10.99130630 -0.51202846 7 23 72 11.00400000 3176800369 3176800369 -2.66700000
1.23091555 33.09566879 -1.73566961 19 24 73 33.16400000 3176800371 3176800371 -3.00000000
-0.12752979 10.90535164 1.33910036 12 25 73 10.98800000 3176800371 3176800371 7.00000000
-2.33270979 38.58147812 -1.57472038 7 27 74 38.68400000 3176800374 3176800374 -2.33300000
3.48453546 40.23276901 -1.41021883 23 28 75 40.40800000 3176800376 3176800376 -2.00000000
-0.12382366 10.91425991 2.92465520 4 29 75 11.30000000 3176800376 3176800376 15.00000000
0.22245388 5.71265984 -2.66587591 14 0 83 6.30800000 3176800399 3176800399 -25.00000000
-2.63240290 44.70373917 -0.78165835 9 1 83 44.78800000 3176800399 3176800399 -1.00000000
1.85467768 47.41564941 -1.38098586 22 2 84 47.47200000 3176800401 3176800401 -1.66700000
-0.08549733 8.74728584 -2.44882250 21 3 84 9.08400000 3176800401 3176800401 -15.63900000
0.44102630 11.22486877 -2.24671960 20 4 85 11.45600000 3176800404 3176800404 -11.31000000
-0.10524523 10.96349525 0.00000000 9 5 85 10.96400000 3176800404 3176800404 0.00000000
5.88493776 66.46344757 -0.77678621 29 6 86 66.72800000 3176800406 3176800406 -0.66700000
-0.13838539 14.68271160 -2.28438997 7 7 86 14.86000000 3176800406 3176800406 -8.84300000
0.68551415 17.37021828 -2.21272445 13 8 86 17.52400000 3176800408 3176800408 -7.25400000
-3.74005914 64.08587646 0.37310162 84 9 86 64.19600000 3176800408 3176800408 0.33300000
3.22186828 81.27879333 -0.47276431 28 10 87 81.34400000 3176800410 3176800410 -0.33300000
-0.10208572 11.03568745 -1.18877721 1 11 87 11.10000000 3176800410 3176800410 -6.14800000
1.83450234 20.63654900 -1.93398023 6 12 88 20.80800000 3176800413 3176800413 -5.33300000
-0.09936894 10.94858551 0.25477791 10 13 88 10.95200000 3176800413 3176800413 1.33300000
-0.09781524 10.98873043 -0.76843733 7 15 89 11.01600000 3176800415 3176800415 -4.00000000
0.94812995 23.60637474 -1.92866349 22 16 90 23.70400000 3176800417 3176800417 -4.66700000
-8.34279060 144.69030762 4.21789455 28 17 90 144.99200000 3176800417 3176800417 1.66700000
-0.09343488 10.92508888 0.63627344 14 21 91 10.94400000 3176800422 3176800422 3.33300000
-0.09191860 10.97171783 -0.51109785 8 23 92 10.98400000 3176800424 3176800424 -2.66700000
1.34123671 32.96345139 -1.72897065 13 24 93 33.03600000 3176800427 3176800427 -3.00000000
-0.08949479 10.90970039 1.33958781 10 25 93 10.99200000 3176800427 3176800427 7.00000000
-2.25393200 39.57098007 -1.61477637 15 27 94 39.66800000 3176800429 3176800429 -2.33300000
3.59983444 39.94166183 -1.40044701 15 28 95 40.12800000 3176800431 3176800431 -2.00000000
-0.08611827 10.96469402 -0.25515011 10 31 95 10.96800000 3176800434 3176800434 -1.33300000
0.24254712 5.71547079 -2.66756654 14 0 103 6.31200000 3176800454 3176800454 -25.00000000
-2.56414270 46.29798508 -0.80937278 9 1 103 46.37600000 3176800454 3176800454 -1.00000000
2.02647591 47.55669022 -1.38529122 22 2 104 47.62000000 3176800457 3176800457 -1.66700000
-0.05515670 8.77834606 -2.45744896 21 3 104 9.11600000 3176800457 3176800457 -15.63900000
0.48121172 11.24677372 -2.25142646 15 4 105 11.48000000 3176800459 3176800459 -11.31000000
-0.06697485 10.96379566 0.00000000 14 5 105 10.96400000 3176800459 3176800459 0.00000000
6.06556797 65.88489532 -0.77026719 29 6 106 66.16800000 3176800461 3176800461 -0.66700000
-0.06534338 11.01134014 -1.71313870 6 7 106 11.14400000 3176800461 3176800461 -8.84300000
0.73609483 17.13382530 -2.18292499 15 8 106 17.28800000 3176800463 3176800463 -7.25400000
-3.50537992 63.89884186 0.37193924 56 9 106 63.99600000 3176800463 3176800463 0.33300000
3.44471383 79.85639191 -0.46455789 28 10 107 79.93200000 3176800466 3176800466 -0.33300000
-0.06324268 10.98029900 -1.18277979 6 11 107 11.04400000 3176800466 3176800466 -6.14800000
1.93291402 20.91555786 -1.96074808 31 12 108 21.09600000 3176800468 3176800468 -5.33300000
-0.06112830 10.94486618 0.25468487 14 13 108 10.94800000 3176800468 3176800468 1.33300000
-0.05937046 10.97304440 -0.76732123 7 15 109 11.00000000 3176800470 3176800470 -4.00000000
1.02426541 23.45953560 -1.91694701 13 16 110 23.56000000 3176800473 3176800473 -4.66700000
-1.15383780 21.30500603 -1.36741221 9 19 110 21.38000000 3176800475 3176800475 -3.66700000
2.82595897 30.40521622 -1.77835643 10 20 111 30.58800000 3176800477 3176800477 -3.33300000
-0.05525821 10.91736221 0.63580835 9 21 111 10.93600000 3176800477 3176800477 3.33300000
-0.05352196 10.95199299 -0.51016724 12 23 112 10.96400000 3176800480 3176800480 -2.66700000
1.46281660 33.10622025 -1.73671639 19 24 113 33.18400000 3176800482 3176800482 -3.00000000
-0.05150583 10.92979717 1.34202516 6 25 113 11.01200000 3176800482 3176800482 7.00000000
-1.15187538 21.54733276 -0.87911445 2 27 114 21.59600000 3176800484 3176800484 -2.33300000
-0.04782638 10.96092892 -0.25505707 15 31 115 10.96400000 3176800489 3176800489 -1.33300000
0.25984183 5.67842054 -2.65066171 15 0 122 6.27200000 3176850276 3176850276 -25.00000000
-2.46964741 47.44052505 -0.82919872 10 1 122 47.51200000 3176850276 3176850276 -1.00000000
2.14032006 46.59511948 -1.35748065 21 2 123 46.66400000 3176850278 3176850278 -1.66700000
-0.02594349 8.74381351 -2.44774437 16 3 123 9.08000000 3176850278 3176850278 -15.63900000
0.52735728 11.43710613 -2.28986549 11 4 124 11.67600000 3176850281 3176850281 -11.31000000
-0.03060605 10.95995712 0.00000000 10 5 124 10.96000000 3176850281 3176850281 0.00000000
6.25204515 65.65050507 -0.76775271 29 6 124 65.95200000 3176850283 3176850283 -0.66700000
-0.03065063 10.97591972 -1.70760453 9 7 124 11.10800000 3176850283 3176850283 -8.84300000
0.80391610 17.36911392 -2.21322942 16 8 125 17.52800000 3176850285 3176850285 -7.25400000
-3.30252194 64.08587646 0.37296212 56 9 125 64.17200000 3176850285 3176850285 0.33300000
3.87657809 83.44058990 -0.48548079 28 10 126 83.53200000 3176850288 3176850288 -0.33300000
-0.02681091 10.97249413 -1.18192303 9 11 126 11.03600000 3176850288 3176850288 -6.14800000
2.04098606 21.31341553 -1.99866927 9 12 127 21.50400000 3176850290 3176850290 -5.33300000
-0.02485163 10.95300674 0.25487095 7 13 127 10.95600000 3176850290 3176850290 1.33300000
9.94146252 103.62516022 1.21192992 28 14 128 104.10800000 3176850292 3176850292 0.66700000
-0.02294878 10.95721912 -0.76620513 10 15 128 10.98400000 3176850292 3176850292 -4.00000000
1.09812522 23.37238121 -1.91011238 21 16 129 23.47600000 3176850294 3176850294 -4.66700000
-7.32789135 144.15675354 4.20078945 28 17 129 144.40400000 3176850294 3176850294 1.66700000
-1.08095241 21.26486015 -1.36459804 4 19 129 21.33600000 3176850297 3176850297 -3.66700000
2.91796803 30.30425644 -1.77300763 9 20 130 30.49600000 3176850299 3176850299 -3.33300000
-0.01911735 10.95342445 0.63790137 6 21 130 10.97200000 3176850299 3176850299 3.33300000
-0.01719100 10.94411945 -0.50979501 10 23 131 10.95600000 3176850301 3176850301 -2.66700000
1.51970541 31.98797226 -1.67830944 18 24 132 32.06800000 3176850304 3176850304 -3.00000000
-0.01532202 10.97357941 1.34738743 2 25 132 11.05600000 3176850304 3176850304 7.00000000
-2.12220907 42.33167648 -1.72680283 17 27 133 42.42000000 3176850306 3176850306 -2.33300000
3.86236095 39.82073975 -1.39709663 15 28 134 40.03200000 3176850308 3176850308 -2.00000000
-0.01147836 10.96102715 -0.25505707 10 31 134 10.96400000 3176850311 3176850311 -1.33300000
0.27431095 5.56885338 -2.59994745 14 0 142 6.15200000 3176850331 3176850331 -25.00000000
-2.42041898 49.84566879 -0.87108451 10 1 142 49.91200000 3176850331 3176850331 -1.00000000
2.35270095 47.59370804 -1.38680398 22 2 143 47.67200000 3176850334 3176850334 -1.66700000
0.00459239 8.77081394 -2.45529246 21 3 143 9.10800000 3176850334 3176850334 -15.63900000
0.56222415 11.33333969 -2.26946926 15 4 144 11.57200000 3176850336 3176850336 -11.31000000
0.00766269 10.97599697 0.00000000 8 5 144 10.97600000 3176850336 3176850336 0.00000000
6.46151590 65.42926025 -0.76542449 29 6 144 65.75200000 3176850338 3176850338 -0.66700000
0.00766819 10.98386478 -1.70883429 14 7 144 11.11600000 3176850338 3176850338 -8.84300000
0.85309774 17.13634300 -2.18393517 12 8 145 17.29600000 3176850341 3176850341 -7.25400000
-3.12025285 64.96000671 0.37798363 28 9 145 65.03600000 3176850341 3176850341 0.33300000
4.35921288 87.25770569 -0.50777525 28 10 146 87.36800000 3176850343 3176850343 -0.33300000
0.01147791 10.96059036 -1.18063784 9 11 146 11.02400000 3176850343 3176850343 -6.14800000
2.06894016 20.83850479 -1.95479965 9 12 147 21.03200000 3176850345 3176850345 -5.33300000
0.01341585 10.98101902 0.25552234 5 13 147 10.98400000 3176850345 3176850345 1.33300000
10.30312061 103.58982849 1.21192992 28 14 148 104.10800000 3176850347 3176850347 0.66700000
0.01530476 10.96122265 -0.76648414 7 15 148 10.98800000 3176850347 3176850347 -4.00000000
1.17226613 23.22108269 -1.89807045 28 16 149 23.32800000 3176850350 3176850350 -4.66700000
-6.88438320 145.44351196 4.23755980 28 17 149 145.66800000 3176850350 3176850350 1.66700000
-1.42174792 30.03667831 -1.92716861 9 19 149 30.13200000 3176850352 3176850352 -3.66700000
3.03959608 30.45282555 -1.78230977 10 20 150 30.65600000 3176850354 3176850354 -3.33300000
0.01918705 10.99335670 0.64022690 1 21 150 11.01200000 3176850354 3176850354 3.33300000
0.02103423 10.95609951 -0.51035339 7 23 151 10.96800000 3176850357 3176850357 -2.66700000
1.71987188 33.71783066 -1.76937401 20 24 152 33.80800000 3176850359 3176850359 -3.00000000
-1.91131628 40.98542023 -1.67160380 16 27 153 41.06400000 3176850361 3176850361 -2.33300000
3.99374127 39.73144150 -1.39444435 15 28 154 39.95600000 3176850364 3176850364 -2.00000000
0.02683168 10.98099422 -0.25552234 5 31 154 10.98400000 3176850366 3176850366 -1.33300000
0.28877959 5.45558596 -2.54754281 25 0 163 6.02800000 3176850387 3176850387 -25.00000000
-2.26371241 50.43353271 -0.88120693 11 1 163 50.49200000 3176850387 3176850387 -1.00000000
2.53666687 47.76443863 -1.39204025 22 2 164 47.85200000 3176850389 3176850389 -1.66700000
0.03694875 8.82081318 -2.46931028 21 3 164 9.16000000 3176850389 3176850389 -15.63900000
0.61440265 11.53095818 -2.30947733 16 4 165 11.77600000 3176850391 3176850391 -11.31000000
0.04808367 11.01989555 0.00000000 4 5 165 11.02000000 3176850391 3176850391 0.00000000
6.65440083 64.94757080 -0.76006961 29 6 165 65.29200000 3176850394 3176850394 -0.66700000
0.04787427 10.97190571 -1.70698965 12 7 165 11.10400000 3176850394 3176850394 -8.84300000
0.91717070 17.15687561 -2.18696570 20 8 166 17.32000000 3176850396 3176850396 -7.25400000
-2.88019156 64.92704773 0.37772790 28 9 166 64.99200000 3176850396 3176850396 0.33300000
4.65971947 86.88166046 -0.50568300 28 10 167 87.00800000 3176850398 3176850398 -0.33300000
0.05172537 10.97638226 -1.18235147 7 11 167 11.04000000 3176850398 3176850398 -6.14800000
2.15346336 20.91001701 -1.96223521 33 12 168 21.11200000 3176850400 3176850400 -5.33300000
10.67739105 103.49964905 1.21132457 28 14 169 104.05600000 3176850403 3176850403 0.66700000
0.05560073 10.98503494 -0.76815832 6 15 169 11.01200000 3176850403 3176850403 -4.00000000
1.24982178 23.07729912 -1.88667941 28 16 170 23.18800000 3176850405 3176850405 -4.66700000
-2.82045674 64.59908295 1.88180852 28 17 170 64.68800000 3176850405 3176850405 1.66700000
-1.30363035 29.97810745 -1.92307532 13 19 171 30.06800000 3176850407 3176850407 -3.66700000
0.06136873 10.98791409 -0.51184237 5 23 172 11.00000000 3176850412 3176850412 -2.66700000
1.81247115 33.14492798 -1.73964715 19 24 173 33.24000000 3176850414 3176850414 -3.00000000
-1.68354583 39.18731308 -1.59800506 14 27 174 39.25600000 3176850417 3176850417 -2.33300000
3.79912353 36.45221710 -1.27983439 6 28 175 36.67200000 3176850419 3176850419 -2.00000000
0.06734757 11.02480984 -0.25654590 4 31 175 11.02800000 3176850421 3176850421 -1.33300000
0.30625850 5.44373941 -2.54247141 20 0 182 6.01600000 3176850442 3176850442 -25.00000000
-2.31601715 55.72339630 -0.97349524 20 1 182 55.78000000 3176850442 3176850442 -1.00000000
2.69955111 47.83560181 -1.39436746 22 2 183 47.93200000 3176850444 3176850444 -1.66700000
0.06628614 8.83219719 -2.47254515 15 3 183 9.17200000 3176850444 3176850444 -15.63900000
0.66239142 11.70116425 -2.34399390 22 4 184 11.95200000 3176850446 3176850446 -11.31000000
6.84945250 64.62563324 -0.75657725 29 6 185 64.99200000 3176850449 3176850449 -0.66700000
0.08623517 10.97957611 -1.70821941 9 7 185 11.11200000 3176850449 3176850449 -8.84300000
0.97563463 17.18147087 -2.19050121 13 8 185 17.34800000 3176850451 3176850451 -7.25400000
-2.63059139 64.10095978 0.37286913 28 9 185 64.15600000 3176850451 3176850451 0.33300000
4.94598389 86.83378601 -0.50549698 28 10 186 86.97600000 3176850453 3176850453 -0.33300000
0.08821987 10.98808098 -1.18363655 4 11 186 11.05200000 3176850453 3176850453 -6.14800000
2.18151951 20.51464462 -1.92580104 11 12 187 20.72000000 3176850456 3176850456 -5.33300000
11.02054977 103.46366882 1.21132457 28 14 188 104.05600000 3176850458 3176850458 0.66700000
0.09226211 11.01272106 -0.77011144 2 15 188 11.04000000 3176850458 3176850458 -4.00000000
1.32428288 23.03720665 -1.88375032 21 16 189 23.15200000 3176850460 3176850460 -4.66700000
-2.60638404 64.61207581 1.88192487 28 17 189 64.69200000 3176850460 3176850460 1.66700000
-1.21330655 30.07778168 -1.92921519 13 19 189 30.16400000 3176850463 3176850463 -3.66700000
3.25678873 30.47453880 -1.78486800 10 20 190 30.70000000 3176850465 3176850465 -3.33300000
1.47295201 168.78358459 9.82991314 42 21 190 169.07600000 3176850465 3176850465 3.33300000
0.29732910 33.40245438 -1.55600083 7 23 191 33.44000000 3176850467 3176850467 -2.66700000
1.94851422 33.58935547 -1.76330304 13 24 192 33.69200000 3176850470 3176850470 -3.00000000
0.33001661 5.52225065 -2.57966185 15 0 202 6.10400000 3176850497 3176850497 -25.00000000
-2.17078328 57.02600479 -0.99611354 22 1 202 57.07600000 3176850497 3176850497 -1.00000000
2.79785728 46.68042755 -1.36097157 11 2 203 46.78400000 3176850499 3176850499 -1.66700000
0.09415114 8.56229401 -2.39706421 18 3 203 8.89200000 3176850499 3176850499 -15.63900000
0.71123403 11.83189869 -2.37066579 16 4 204 12.08800000 3176850502 3176850502 -11.31000000
1.03607297 92.75021362 0.00000000 28 5 204 92.75600000 3176850502 3176850502 0.00000000
7.03754902 64.25939941 -0.75257272 29 6 205 64.64800000 3176850504 3176850504 -0.66700000
0.12496406 11.01477814 -1.71375358 5 7 205 11.14800000 3176850504 3176850504 -8.84300000
1.02414167 16.98784256 -2.16625762 13 8 205 17.15600000 3176850506 3176850506 -7.25400000
-2.41072297 64.21367645 0.37347358 28 9 205 64.26000000 3176850506 3176850506 0.33300000
5.25461245 86.90782166 -0.50603169 28 10 206 87.06800000 3176850509 3176850509 -0.33300000
0.22062419 19.15193367 -2.06311750 4 11 206 19.26400000 3176850509 3176850509 -6.14800000
2.27007937 20.66130066 -1.94030035 18 12 207 20.87600000 3176850511 3176850511 -5.33300000
0.31046727 26.15827751 -1.82929373 21 15 208 26.22400000 3176850513 3176850513 -4.00000000
1.40153468 22.98071098 -1.87951934 25 16 209 23.10000000 3176850516 3176850516 -4.66700000
-1.04966664 28.49018097 -1.82713902 8 19 209 28.56800000 3176850518 3176850518 -3.66700000
3.00075793 27.18052483 -1.59254408 8 20 210 27.39200000 3176850520 3176850520 -3.33300000
0.41382459 33.39322281 -1.55562854 31 23 211 33.43200000 3176850523 3176850523 -2.66700000
2.06109142 33.50659943 -1.75932550 20 24 212 33.61600000 3176850525 3176850525 -3.00000000
-1.36306667 37.71207047 -1.53743255 14 27 213 37.76800000 3176850527 3176850527 -2.33300000
3.99020982 35.91298294 -1.26182616 12 28 214 36.15600000 3176850529 3176850529 -2.00000000
0.72867805 56.41602325 -1.31287861 10 31 214 56.43600000 3176850532 3176850532 -1.33300000
0.34745970 5.49212074 -2.56613803 15 0 222 6.07200000 3176850552 3176850552 -25.00000000
-2.08405352 60.28279877 -1.05286872 28 1 222 60.32800000 3176850552 3176850552 -1.00000000
3.07697892 48.50191879 -1.41438174 23 2 223 48.62000000 3176850555 3176850555 -1.66700000
0.12269940 8.46947670 -2.37118483 28 3 223 8.79600000 3176850555 3176850555 -15.63900000
0.75203270 11.82151508 -2.36909676 16 4 224 12.08000000 3176850557 3176850557 -11.31000000
1.35888696 92.68203735 0.00000000 28 5 224 92.69200000 3176850557 3176850557 0.00000000
7.20573997 63.83826065 -0.74791634 29 6 224 64.24800000 3176850559 3176850559 -0.66700000
0.21068408 14.36957550 -2.23581195 18 7 224 14.54400000 3176850559 3176850559 -8.84300000
1.10440040 17.31283951 -2.20817876 15 8 225 17.48800000 3176850562 3176850562 -7.25400000
-2.19567990 64.48954010 0.37503117 28 9 225 64.52800000 3176850562 3176850562 0.33300000
5.48134422 85.69142151 -0.49905741 28 10 226 85.86800000 3176850564 3176850564 -0.33300000
0.28598329 19.05163383 -2.05240774 22 11 226 19.16400000 3176850564 3176850564 -6.14800000
2.33455777 20.58597565 -1.93398023 15 12 227 20.80800000 3176850566 3176850566 -5.33300000
2.60798907 171.74169922 3.99679351 28 13 227 171.80800000 3176850566 3176850566 1.33300000
0.40257147 26.20890045 -1.83292115 18 15 228 26.27600000 3176850569 3176850569 -4.00000000
1.49534249 23.18653870 -1.89676857 15 16 229 23.31200000 3176850571 3176850571 -4.66700000
-4.35793495 130.67999268 3.80527449 28 17 229 130.80800000 3176850571 3176850571 1.66700000
3.09923363 27.20162582 -1.59440446 8 20 230 27.42400000 3176850576 3176850576 -3.33300000
2.66064668 169.36808777 9.86479664 42 21 230 169.67600000 3176850576 3176850576 3.33300000
0.53939730 33.95888901 -1.58205819 10 23 231 34.00000000 3176850578 3176850578 -2.66700000
2.17829776 33.50318527 -1.75953484 13 24 232 33.62000000 3176850580 3176850580 -3.00000000
-1.23793960 37.91632462 -1.54557407 14 27 233 37.96800000 3176850582 3176850582 -2.33300000
3.68209028 32.11791992 -1.12892890 15 28 234 32.34800000 3176850585 3176850585 -2.00000000
0.84852690 51.17111206 -1.19088662 8 31 235 51.19200000 3176850587 3176850587 -1.33300000
0.37025148 5.54513216 -2.59149528 13 0 242 6.13200000 3176850608 3176850608 -25.00000000
-1.89001286 60.81737137 -1.06208360 28 1 242 60.85600000 3176850608 3176850608 -1.00000000
3.12928581 46.74353409 -1.36341512 11 2 243 46.86800000 3176850610 3176850610 -1.66700000
0.15288582 8.50365925 -2.38088965 27 3 243 8.83200000 3176850610 3176850610 -15.63900000
0.78436184 11.68575859 -2.34242487 15 4 244 11.94400000 3176850612 3176850612 -11.31000000
1.67012978 92.00083923 0.00000000 28 5 244 92.01600000 3176850612 3176850612 0.00000000
7.40402126 63.60215378 -0.74544841 29 6 244 64.03600000 3176850615 3176850615 -0.66700000
0.26227674 14.44778824 -2.24811029 15 7 244 14.62400000 3176850615 3176850615 -8.84300000
1.11926746 16.63188362 -2.12181115 13 8 245 16.80400000 3176850617 3176850617 -7.25400000
-1.98729074 65.04454803 0.37821609 28 9 245 65.07600000 3176850617 3176850617 0.33300000
5.72657537 84.87358856 -0.49440786 28 10 246 85.06800000 3176850619 3176850619 -0.33300000
0.35550061 19.21354866 -2.06997180 11 11 246 19.32800000 3176850619 3176850619 -6.14800000
2.43369484 20.81109047 -1.95591497 18 12 247 21.04400000 3176850622 3176850622 -5.33300000
0.48713583 25.84029770 -1.80725074 18 15 248 25.90800000 3176850624 3176850624 -4.00000000
1.57248294 23.12549210 -1.89221215 15 16 249 23.25600000 3176850626 3176850626 -4.66700000
-3.91117597 131.01013184 3.81446719 28 17 249 131.12400000 3176850626 3176850626 1.66700000
14.26997852 209.85935974 3.67156744 28 18 249 210.37600000 3176850629 3176850629 1.00000000
-0.84454960 28.28933334 -1.81383586 8 19 249 28.36000000 3176850629 3176850629 -3.66700000
3.18205285 27.08752632 -1.58835804 12 20 250 27.32000000 3176850631 3176850631 -3.33300000
0.65553313 33.83295822 -1.57628834 10 23 251 33.87600000 3176850633 3176850633 -2.66700000
-1.09183538 37.44900894 -1.52636015 20 27 253 37.49600000 3176850638 3176850638 -2.33300000
3.79511857 32.11281204 -1.12920809 10 28 254 32.35600000 3176850640 3176850640 -2.00000000
1.06069016 52.83905029 -1.22978270 9 31 255 52.86400000 3176850642 3176850642 -1.33300000
0.38833460 5.52572441 -2.58304286 17 0 262 6.11200000 3176850663 3176850663 -25.00000000
-1.70880640 61.95099640 -1.08176994 28 1 262 61.98400000 3176850663 3176850663 -1.00000000
3.51357627 49.87121582 -1.45499218 24 2 263 50.01600000 3176850665 3176850665 -1.66700000
0.18504874 8.61860466 -2.41323853 18 3 263 8.95200000 3176850665 3176850665 -15.63900000
0.80773860 11.43645763 -2.29300332 16 4 264 11.69200000 3176850668 3176850668 -11.31000000
1.97836471 91.39859009 0.00000000 28 5 264 91.42000000 3176850668 3176850668 0.00000000
7.56882620 63.09936905 -0.73986065 29 6 264 63.55600000 3176850670 3176850670 -0.66700000
0.30928603 14.28872395 -2.22351384 16 7 264 14.46400000 3176850670 3176850670 -8.84300000
1.17367351 16.57642174 -2.11524534 15 8 265 16.75200000 3176850672 3176850672 -7.25400000
-1.77375519 65.55089569 0.38112205 28 9 265 65.57600000 3176850672 3176850672 0.33300000
0.41968033 19.08098030 -2.05583501 14 11 266 19.19600000 3176850675 3176850675 -6.14800000
2.46678329 20.47427750 -1.92505753 15 12 267 20.71200000 3176850677 3176850677 -5.33300000
0.57724321 25.83445168 -1.80697167 15 15 268 25.90400000 3176850679 3176850679 -4.00000000
1.63869476 22.91705513 -1.87561381 12 16 269 23.05200000 3176850682 3176850682 -4.66700000
-0.77567017 29.42538834 -1.88649154 8 19 269 29.49600000 3176850684 3176850684 -3.66700000
3.29145837 27.19914627 -1.59556735 12 20 270 27.44400000 3176850686 3176850686 -3.33300000
0.79235458 34.64936066 -1.61444390 26 23 271 34.69600000 3176850688 3176850688 -2.66700000
2.41328716 33.50309753 -1.76037228 20 24 272 33.63600000 3176850691 3176850691 -3.00000000
-0.96807927 37.72427368 -1.53743255 21 27 273 37.76800000 3176850693 3176850693 -2.33300000
3.36571908 27.65093422 -0.97271878 11 28 274 27.87200000 3176850695 3176850695 -2.00000000
1.24578583 52.86301041 -1.23043406 9 31 275 52.89200000 3176850698 3176850698 -1.33300000
0.40868768 5.53879690 -2.58980465 14 0 282 6.12800000 3176850718 3176850718 -25.00000000
-1.49283564 61.96857834 -1.08197939 28 1 282 61.99600000 3176850718 3176850718 -1.00000000
3.71653962 50.24941254 -1.46639562 12 2 283 50.40800000 3176850721 3176850721 -1.66700000
0.21397863 8.57169724 -2.40029907 33 3 283 8.90400000 3176850721 3176850721 -15.63900000
0.88187373 11.89513588 -2.38557076 15 4 284 12.16400000 3176850723 3176850723 -11.31000000
2.29709172 91.37913513 0.00000000 28 5 284 91.40800000 3176850723 3176850723 0.00000000
7.75717402 62.81454468 -0.73683399 29 6 284 63.29600000 3176850725 3176850725 -0.66700000
0.35479078 14.11370373 -2.19645786 16 7 284 14.28800000 3176850725 3176850725 -8.84300000
1.22917640 16.54056740 -2.11120462 16 8 285 16.72000000 3176850728 3176850728 -7.25400000
-1.99915361 84.83101654 0.49317575 28 9 285 84.85600000 3176850728 3176850728 0.33300000
6.25953531 84.03376770 -0.48975834 28 10 286 84.26800000 3176850730 3176850730 -0.33300000
0.48709348 19.11120605 -2.05926204 11 11 286 19.22800000 3176850730 3176850730 -6.14800000
2.57647228 20.77383041 -1.95405614 11 12 287 21.02400000 3176850732 3176850732 -5.33300000
0.66401774 25.70064354 -1.79776382 20 15 288 25.77200000 3176850734 3176850734 -4.00000000
1.72285533 22.96685410 -1.88017023 15 16 289 23.10800000 3176850737 3176850737 -4.66700000
-0.62932938 27.52033043 -1.76420474 8 19 289 27.58400000 3176850739 3176850739 -3.66700000
3.42734742 27.51638985 -1.61486948 13 20 290 27.77600000 3176850741 3176850741 -3.33300000
0.90803403 34.44667053 -1.60513759 10 23 291 34.49600000 3176850744 3176850744 -2.66700000
2.43634105 32.25172043 -1.69505692 12 24 292 32.38800000 3176850746 3176850746 -3.00000000
-0.84108591 37.93919754 -1.54606247 21 27 293 37.98000000 3176850748 3176850748 -2.33300000
3.48010564 27.78181267 -0.97774428 16 28 294 28.01600000 3176850751 3176850751 -2.00000000
1.39428473 51.52718735 -1.19944751 9 31 295 51.56000000 3176850753 3176850753 -1.33300000
0.42801923 5.53733635 -2.58980465 16 0 302 6.12800000 3176850774 3176850774 -25.00000000
-1.30155361 63.18896866 -1.10320151 28 1 302 63.21200000 3176850774 3176850774 -1.00000000
3.87091947 49.96506119 -1.45848298 12 2 303 50.13600000 3176850776 3176850776 -1.66700000
0.24367900 8.56319714 -2.39814234 16 3 303 8.89600000 3176850776 3176850776 -15.63900000
0.91154790 11.73947334 -2.35497642 16 4 304 12.00800000 3176850778 3176850778 -11.31000000
2.59761953 90.72682190 0.00000000 28 5 304 90.76400000 3176850778 3176850778 0.00000000
7.93858528 62.48949432 -0.73334169 29 6 304 62.99600000 3176850781 3176850781 -0.66700000
0.40563828 14.16769123 -2.20506644 14 7 304 14.34400000 3176850781 3176850781 -8.84300000
1.29306376 16.61529541 -2.12130618 16 8 305 16.80000000 3176850783 3176850783 -7.25400000
-1.86069274 92.69175720 0.53883415 28 9 305 92.71200000 3176850783 3176850783 0.33300000
0.55714208 19.22467232 -2.07168531 17 11 306 19.34400000 3176850785 3176850785 -6.14800000
2.69584179 21.13212204 -1.98863125 19 12 307 21.39600000 3176850787 3176850787 -5.33300000
0.73524231 25.06797981 -1.75367773 24 15 308 25.14000000 3176850790 3176850790 -4.00000000
1.80176568 22.94480324 -1.87886846 12 16 309 23.09200000 3176850792 3176850792 -4.66700000
-0.56334269 29.07488251 -1.86372268 13 19 309 29.14000000 3176850794 3176850794 -3.66700000
1.01181555 33.89213181 -1.57945251 10 23 311 33.94400000 3176850799 3176850799 -2.66700000
2.69056416 34.03496552 -1.78926170 21 24 312 34.18800000 3176850801 3176850801 -3.00000000
-0.70909607 37.96587753 -1.54703951 21 27 313 38.00400000 3176850804 3176850804 -2.33300000
3.57246470 27.73381233 -0.97648793 12 28 314 27.98000000 3176850806 3176850806 -2.00000000
1.57206845 51.75011063 -1.20475149 9 31 314 51.78800000 3176850808 3176850808 -1.33300000
0.44646952 5.52496815 -2.58473325 16 0 322 6.11600000 3176850829 3176850829 -25.00000000
-0.19351251 11.31262112 -0.19749144 0 1 322 11.31600000 3176850829 3176850829 -1.00000000
4.03723764 49.85161209 -1.45557392 24 2 323 50.03600000 3176850831 3176850831 -1.66700000
0.27873498 8.72399235 -2.44343114 16 3 323 9.06400000 3176850831 3176850831 -15.63900000
0.95474184 11.76358604 -2.36046767 15 4 324 12.03600000 3176850834 3176850834 -11.31000000
2.89464903 90.10551453 0.00000000 28 5 324 90.15200000 3176850834 3176850834 0.00000000
8.13333893 62.19822693 -0.73026842 29 6 325 62.73200000 3176850836 3176850836 -0.66700000
0.46139064 14.28462124 -2.22351384 14 7 325 14.46400000 3176850836 3176850836 -8.84300000
1.40927804 17.32652283 -2.21272445 15 8 325 17.52400000 3176850838 3176850838 -7.25400000
0.63224846 19.46905518 -2.09824538 16 11 326 19.59200000 3176850840 3176850840 -6.14800000
2.76078796 21.05545235 -1.98231113 14 12 327 21.32800000 3176850843 3176850843 -5.33300000
0.85402781 26.01841927 -1.82036495 24 15 328 26.09600000 3176850845 3176850845 -4.00000000
1.87271976 22.82711792 -1.86975563 9 16 329 22.98000000 3176850847 3176850847 -4.66700000
-0.17386417 10.94598389 0.31859952 9 17 329 10.95200000 3176850847 3176850847 1.66700000
-0.17355536 11.04796791 -0.70813787 0 19 330 11.07200000 3176850850 3176850850 -3.66700000
3.53336143 26.83854485 -1.57649767 8 20 330 27.11600000 3176850852 3176850852 -3.33300000
5.88912344 177.52539062 10.34432697 42 21 330 177.92400000 3176850852 3176850852 3.33300000
1.12651932 33.78057098 -1.57442713 10 23 331 33.83600000 3176850854 3176850854 -2.66700000
2.74328423 33.22518921 -1.74718356 20 24 332 33.38400000 3176850857 3176850857 -3.00000000
-0.16773273 11.04556274 -0.45005968 2 27 333 11.05600000 3176850859 3176850859 -2.33300000
3.65981007 27.64983940 -0.97397518 7 28 334 27.90800000 3176850861 3176850861 -2.00000000
1.73469555 51.21275711 -1.19237554 8 31 334 51.25600000 3176850864 3176850864 -1.33300000
0.45417726 5.38610458 -2.52049541 11 0 342 5.96400000 3176850884 3176850884 -25.00000000
4.24321032 50.21570587 -1.46662831 25 2 343 50.41600000 3176850887 3176850887 -1.66700000
0.30973148 8.73836422 -2.44774437 15 3 343 9.08000000 3176850887 3176850887 -15.63900000
1.00109363 11.82271481 -2.37301922 18 4 344 12.10000000 3176850889 3176850889 -11.31000000
2.94972587 82.81148529 0.00000000 28 5 344 82.86400000 3176850889 3176850889 0.00000000
8.32537651 61.98314285 -0.72807992 29 6 345 62.54400000 3176850891 3176850891 -0.66700000
0.50375700 14.07357788 -2.19092369 15 7 345 14.25200000 3176850891 3176850891 -8.84300000
1.44928586 17.08031654 -2.18191481 12 8 345 17.28000000 3176850893 3176850893 -7.25400000
-0.14345954 10.95887566 0.06369857 8 9 345 10.96000000 3176850893 3176850893 0.33300000
0.69034022 19.19249344 -2.06868649 16 11 346 19.31600000 3176850896 3176850896 -6.14800000
2.81194305 20.87991142 -1.96669650 29 12 347 21.16000000 3176850898 3176850898 -5.33300000
0.94947827 26.14288330 -1.82929373 12 15 348 26.22400000 3176850900 3176850900 -4.00000000
1.94627273 22.74894142 -1.86389732 30 16 349 22.90800000 3176850903 3176850903 -4.66700000
-0.13555540 10.93852806 0.31836680 13 17 349 10.94400000 3176850903 3176850903 1.66700000
-0.13612658 10.98461914 -0.70404458 6 19 349 11.00800000 3176850905 3176850905 -3.66700000
3.61097264 26.70733070 -1.56952107 8 20 350 26.99600000 3176850907 3176850907 -3.33300000
1.24869490 33.89223099 -1.57982469 25 23 351 33.95200000 3176850910 3176850910 -2.66700000
-0.12847449 10.98613453 -0.44761726 8 27 353 10.99600000 3176850914 3176850914 -2.33300000
5.72463465 42.11883545 -1.48434544 8 28 354 42.53200000 3176850917 3176850917 -2.00000000
1.83595121 49.13240051 -1.14408123 8 31 354 49.18000000 3176850919 3176850919 -1.33300000
0.47583050 5.41698837 -2.53570962 16 0 362 6.00000000 3176850939 3176850939 -25.00000000
-0.11096878 10.96176815 -0.19134818 9 1 362 10.96400000 3176850939 3176850939 -1.00000000
4.45668077 50.63472748 -1.47931182 27 2 363 50.85200000 3176850941 3176850941 -1.66700000
0.33528605 8.61021328 -2.41216040 22 3 363 8.94800000 3176850941 3176850941 -15.63900000
1.06303132 12.05357838 -2.42008734 15 4 364 12.34000000 3176850944 3176850944 -11.31000000
3.25690961 83.26432800 0.00000000 28 5 364 83.32800000 3176850944 3176850944 0.00000000
8.48340797 61.61046982 -0.72402883 29 6 364 62.19600000 3176850946 3176850946 -0.66700000
0.56077433 14.33644199 -2.23212266 13 7 364 14.52000000 3176850946 3176850946 -8.84300000
1.52985537 17.31230927 -2.21221924 100 8 365 17.52000000 3176850948 3176850948 -7.25400000
-0.10485949 10.92331219 0.06348935 11 9 365 10.92400000 3176850948 3176850948 0.33300000
0.76031011 19.26547050 -2.07682586 17 11 366 19.39200000 3176850951 3176850951 -6.14800000
2.78937697 20.17956352 -1.90163565 12 12 367 20.46000000 3176850953 3176850953 -5.33300000
16.31255341 117.86042023 1.38519573 28 14 368 118.99200000 3176850955 3176850955 0.66700000
1.03025103 25.87626076 -1.81087804 24 15 368 25.96000000 3176850955 3176850955 -4.00000000
1.97296751 22.15032768 -1.81540418 8 16 369 22.31200000 3176850957 3176850957 -4.66700000
-0.09712287 10.91094780 0.31755227 17 17 369 10.91600000 3176850957 3176850957 1.66700000
-0.09735590 10.93712711 -0.70097464 8 19 369 10.96000000 3176850960 3176850960 -3.66700000
3.68386936 26.54821587 -1.56091642 8 20 370 26.84800000 3176850962 3176850962 -3.33300000
1.38342035 34.29489136 -1.59880936 14 23 371 34.36000000 3176850964 3176850964 -2.66700000
3.07926297 34.36697388 -1.80831194 21 24 372 34.55200000 3176850967 3176850967 -3.00000000
-0.08992822 10.96253681 -0.44664028 9 27 373 10.97200000 3176850969 3176850969 -2.33300000
5.85063839 41.94814682 -1.47904062 8 28 374 42.38000000 3176850971 3176850971 -2.00000000
1.97658551 48.37052536 -1.12649429 7 31 374 48.42400000 3176850974 3176850974 -1.33300000
0.49807078 5.46231413 -2.55768561 16 0 381 6.05200000 3176850994 3176850994 -25.00000000
-0.07448152 10.94207954 -0.19099914 12 1 381 10.94400000 3176850994 3176850994 -1.00000000
4.62711382 50.64754105 -1.48012638 13 2 382 50.88000000 3176850997 3176850997 -1.66700000
0.36334878 8.59750843 -2.40892553 22 3 382 8.93600000 3176850997 3176850997 -15.63900000
1.09227049 11.93280697 -2.39655328 16 4 383 12.22000000 3176850999 3176850999 -11.31000000
3.54725218 83.58876801 0.00000000 28 5 383 83.66400000 3176850999 3176850999 0.00000000
0.61367512 14.46086788 -2.25179958 21 7 383 14.64800000 3176851001 3176851001 -8.84300000
1.54775643 16.87643814 -2.15716624 17 8 384 17.08400000 3176851004 3176851004 -7.25400000
-0.06868617 10.93159962 0.06353584 11 9 384 10.93200000 3176851004 3176851004 0.33300000
0.81552219 19.06020355 -2.05497813 19 11 385 19.18800000 3176851006 3176851006 -6.14800000
2.85963011 20.19386292 -1.90386629 17 12 386 20.48400000 3176851008 3176851008 -5.33300000
16.72407722 117.95220184 1.38691866 28 14 387 119.14000000 3176851010 3176851010 0.66700000
1.13307869 26.26737022 -1.83850157 24 15 387 26.35600000 3176851010 3176851010 -4.00000000
2.14913368 23.25521469 -1.90653229 15 16 388 23.43200000 3176851013 3176851013 -4.66700000
-0.06105198 10.93120098 0.31813407 10 17 388 10.93600000 3176851013 3176851013 1.66700000
9.65211105 104.44297028 1.83082724 28 18 388 104.90400000 3176851015 3176851015 1.00000000
-0.06101966 10.92541504 -0.70020711 14 19 388 10.94800000 3176851015 3176851015 -3.66700000
1.49487305 34.23822021 -1.59638977 25 23 390 34.30800000 3176851020 3176851020 -2.66700000
3.21760917 34.61907959 -1.82212865 21 24 391 34.81600000 3176851022 3176851022 -3.00000000
-0.05349652 10.94678783 -0.44598895 13 27 392 10.95600000 3176851024 3176851024 -2.33300000
3.80413079 26.62925529 -0.93935484 7 28 393 26.91600000 3176851027 3176851027 -2.00000000
2.25436425 51.02039337 -1.18837428 8 31 393 51.08400000 3176851029 3176851029 -1.33300000
0.52362889 5.52911472 -2.58980465 15 0 401 6.12800000 3176851050 3176851050 -25.00000000
-0.03628609 10.94227314 -0.19099914 8 1 401 10.94400000 3176851050 3176851050 -1.00000000
3.81893229 40.25011826 -1.17665386 8 2 402 40.44800000 3176851052 3176851052 -1.66700000
0.39547041 8.64236259 -2.42186499 23 3 402 8.98400000 3176851052 3176851052 -15.63900000
1.13465953 11.93673038 -2.39812231 16 4 403 12.22800000 3176851054 3176851054 -11.31000000
4.01778173 87.46777344 0.00000000 28 5 403 87.56000000 3176851054 3176851054 0.00000000
8.82013035 60.98126984 -0.71732354 29 6 403 61.62000000 3176851057 3176851057 -0.66700000
0.64818931 14.11118793 -2.19768763 14 7 403 14.29600000 3176851057 3176851057 -8.84300000
1.61154711 16.92228317 -2.16373229 15 8 404 17.13600000 3176851059 3176851059 -7.25400000
-0.03056086 10.94377232 0.06360558 8 9 404 10.94400000 3176851059 3176851059 0.33300000
0.88204974 19.05723953 -2.05497813 17 11 405 19.18800000 3176851061 3176851061 -6.14800000
3.02851629 20.86167336 -1.96781182 6 12 406 21.17200000 3176851063 3176851063 -5.33300000
1.22085857 26.17955208 -1.83264208 24 15 407 26.27200000 3176851066 3176851066 -4.00000000
2.14615607 22.37052917 -1.83460617 12 16 408 22.54800000 3176851068 3176851068 -4.66700000
-0.02294484 10.95533752 0.31883225 8 17 408 10.96000000 3176851068 3176851068 1.66700000
9.98472500 103.88537598 1.82168221 28 18 409 104.38000000 3176851070 3176851070 1.00000000
-0.02098327 10.92955685 -0.70046300 8 19 409 10.95200000 3176851070 3176851070 -3.66700000
3.66700554 25.16715813 -1.48114967 12 20 409 25.47600000 3176851073 3176851073 -3.33300000
1.60628402 34.06117249 -1.58838642 10 23 410 34.13600000 3176851075 3176851075 -2.66700000
3.26172233 33.81242371 -1.78025985 14 24 411 34.01600000 3176851077 3176851077 -3.00000000
-0.01529594 10.95490170 -0.44631463 8 27 412 10.96400000 3176851080 3176851080 -2.33300000
3.88316154 26.52088547 -0.93600452 10 28 413 26.82000000 3176851082 3176851082 -2.00000000
2.43149257 50.99224091 -1.18790901 8 31 413 51.06400000 3176851084 3176851084 -1.33300000
0.53466004 5.43335533 -2.54585242 21 0 422 6.02400000 3176851105 3176851105 -25.00000000
0.00382658 10.96232986 -0.19134818 6 1 422 10.96400000 3176851105 3176851105 -1.00000000
3.94524908 40.02098465 -1.17037034 17 2 423 40.23200000 3176851107 3176851107 -1.66700000
0.42809448 8.66009140 -2.42725658 18 3 423 9.00400000 3176851107 3176851107 -15.63900000
1.18264246 11.97542858 -2.40675139 21 4 424 12.27200000 3176851109 3176851109 -11.31000000
9.00660896 60.62649155 -0.71355182 29 6 425 61.29600000 3176851112 3176851112 -0.66700000
0.70217097 14.10464764 -2.19707274 15 7 425 14.29200000 3176851112 3176851112 -8.84300000
1.67980993 16.97944260 -2.17181349 19 8 425 17.20000000 3176851114 3176851114 -7.25400000
0.00958518 10.98381042 0.06383806 6 9 425 10.98400000 3176851114 3176851114 0.33300000
7.87764120 79.48523712 -0.46423241 28 10 426 79.87600000 3176851116 3176851116 -0.33300000
0.93165171 18.64873123 -2.01128268 15 11 426 18.78000000 3176851116 3176851116 -6.14800000
3.09615850 20.79134369 -1.96223521 24 12 427 21.11200000 3176851119 3176851119 -5.33300000
1.30317008 25.90390587 -1.81366837 30 15 428 26.00000000 3176851121 3176851121 -4.00000000
2.22497153 22.33077621 -1.83200252 21 16 429 22.51600000 3176851123 3176851123 -4.66700000
10.31755257 103.55141449 1.81644642 28 18 429 104.08000000 3176851126 3176851126 1.00000000
0.01719948 10.94952297 -0.70174211 5 19 429 10.97200000 3176851126 3176851126 -3.66700000
3.75036955 25.09430885 -1.47766137 11 20 430 25.41600000 3176851128 3176851128 -3.33300000
1.75079000 34.44213486 -1.60644054 10 23 431 34.52400000 3176851130 3176851130 -2.66700000
3.39120293 33.85588837 -1.78319073 21 24 432 34.07200000 3176851133 3176851133 -3.00000000
0.02492843 10.98685741 -0.44761726 6 27 433 10.99600000 3176851135 3176851135 -2.33300000
6.22191477 41.43391037 -1.46312654 8 28 434 41.92400000 3176851137 3176851137 -2.00000000
2.62418342 50.92262650 -1.18651319 8 31 435 51.00400000 3176851139 3176851139 -1.33300000
0.55355853 5.44968224 -2.55430484 15 0 440 6.04400000 3176851160 3176851160 -25.00000000
0.03844716 11.01425552 -0.19225571 4 1 440 11.01600000 3176851160 3176851160 -1.00000000
4.06529284 39.95270157 -1.16874135 8 2 441 40.17600000 3176851162 3176851162 -1.66700000
0.44781500 8.51637936 -2.38735938 20 3 441 8.85600000 3176851162 3176851162 -15.63900000
1.22702003 12.03798962 -2.42008734 16 4 442 12.34000000 3176851165 3176851165 -11.31000000
5.24147940 99.34983063 0.00000000 28 5 442 99.48800000 3176851165 3176851165 0.00000000
9.13701057 60.20245361 -0.70889539 29 6 443 60.89600000 3176851167 3176851167 -0.66700000
0.76925099 14.53258705 -2.26409793 19 7 443 14.72800000 3176851167 3176851167 -8.84300000
1.75289392 17.16750717 -2.19656205 16 8 443 17.39600000 3176851169 3176851169 -7.25400000
8.12731171 79.46009827 -0.46423241 28 10 444 79.87600000 3176851172 3176851172 -0.33300000
0.98896831 18.62188339 -2.00871229 16 11 444 18.75600000 3176851172 3176851172 -6.14800000
3.21297407 21.12012863 -1.99420798 9 12 445 21.45600000 3176851174 3176851174 -5.33300000
1.37644875 25.74827003 -1.80306530 15 15 446 25.84800000 3176851176 3176851176 -4.00000000
2.37543750 23.10494423 -1.89611769 12 16 447 23.30400000 3176851179 3176851179 -4.66700000
10.65304279 103.61795044 1.81819165 28 18 447 104.18000000 3176851181 3176851181 1.00000000
0.05184282 11.00130749 -0.70506793 4 19 447 11.02400000 3176851181 3176851181 -3.66700000
3.73577738 24.47053909 -1.44161522 7 20 448 24.79600000 3176851183 3176851183 -3.33300000
1.82710743 33.84596634 -1.57889414 10 23 449 33.93200000 3176851186 3176851186 -2.66700000
3.50329590 33.90069580 -1.78612149 14 24 450 34.12800000 3176851188 3176851188 -3.00000000
0.05963910 11.02269459 -0.44908273 2 27 451 11.03200000 3176851190 3176851190 -2.33300000
6.34902191 41.39440155 -1.46242845 8 28 452 41.90400000 3176851192 3176851192 -2.00000000
2.77547979 50.91860962 -1.18660629 17 31 452 51.00800000 3176851195 3176851195 -1.33300000
0.58697784 5.58472061 -2.61854267 14 0 460 6.19600000 3176851215 3176851215 -25.00000000
5.25549221 49.91885757 -1.46081030 12 2 461 50.21600000 3176851218 3176851218 -1.66700000
0.47279477 8.43015480 -2.36363673 24 3 461 8.76800000 3176851218 3176851218 -15.63900000
1.26615345 12.00632858 -2.41459608 13 4 462 12.31200000 3176851220 3176851220 -11.31000000
9.33659840 60.17182159 -0.70889539 29 6 462 60.89600000 3176851222 3176851222 -0.66700000
0.80434000 14.29712963 -2.22781825 14 7 462 14.49200000 3176851222 3176851222 -8.84300000
1.79821980 17.02317238 -2.17888451 15 8 463 17.25600000 3176851225 3176851225 -7.25400000
0.82563913 110.01104736 0.63940352 28 9 463 110.01600000 3176851225 3176851225 0.33300000
8.27836514 78.23792267 -0.45725814 28 10 464 78.67600000 3176851227 3176851227 -0.33300000
1.05508864 18.63817215 -2.01085424 13 11 464 18.77600000 3176851227 3176851227 -6.14800000
3.24562478 20.84512329 -1.96929896 9 12 465 21.18800000 3176851229 3176851229 -5.33300000
1.47834504 25.95445061 -1.81785369 15 15 466 26.06000000 3176851232 3176851232 -4.00000000
2.45818210 23.11633301 -1.89774501 28 16 467 23.32400000 3176851234 3176851234 -4.66700000
1.50142384 183.02835083 5.32682610 28 17 467 183.11200000 3176851234 3176851234 1.66700000
11.02524471 103.67955780 1.81993699 28 18 467 104.28000000 3176851236 3176851236 1.00000000
0.23513928 28.66422653 -1.83711636 8 19 467 28.72400000 3176851236 3176851236 -3.66700000
3.82425499 24.47707748 -1.44277799 11 20 468 24.81600000 3176851239 3176851239 -3.33300000
1.99110293 34.63719940 -1.61611903 22 23 469 34.73200000 3176851241 3176851241 -2.66700000
3.59868860 33.67377472 -1.77481699 13 24 470 33.91200000 3176851243 3176851243 -3.00000000
0.32280514 36.26447678 -1.47751141 13 27 471 36.29600000 3176851245 3176851245 -2.33300000
6.47054243 41.22586441 -1.45726335 8 28 472 41.75600000 3176851248 3176851248 -2.00000000
2.95233107 50.74042511 -1.18269801 8 31 473 50.84000000 3176851250 3176851250 -1.33300000
0.60665858 5.57532406 -2.61516190 11 0 481 6.18800000 3176851271 3176851271 -25.00000000
0.64302421 60.39537811 -1.05426502 28 1 481 60.40800000 3176851271 3176851271 -1.00000000
5.41762495 49.70847321 -1.45522487 12 2 482 50.02400000 3176851273 3176851273 -1.66700000
0.50391942 8.43220997 -2.36471510 25 3 482 8.77200000 3176851273 3176851273 -15.63900000
1.27950358 11.72086811 -2.35811424 22 4 483 12.02400000 3176851275 3176851275 -11.31000000
9.52568817 59.93968964 -0.70656717 29 6 483 60.69600000 3176851278 3176851278 -0.66700000
0.84302086 14.06525421 -2.19215345 14 7 483 14.26000000 3176851278 3176851278 -8.84300000
1.84809327 16.90207672 -2.16423726 13 8 484 17.14000000 3176851280 3176851280 -7.25400000
1.22544861 109.70330048 0.63763666 28 9 484 109.71200000 3176851280 3176851280 0.33300000
8.52151966 77.80944061 -0.45493335 28 10 485 78.27600000 3176851282 3176851282 -0.33300000
1.12004328 18.57860184 -2.00485682 16 11 485 18.72000000 3176851282 3176851282 -6.14800000
3.32388544 20.84488487 -1.97041428 21 12 486 21.20000000 3176851285 3176851285 -5.33300000
1.55921364 25.71386528 -1.80139112 8 15 487 25.82400000 3176851287 3176851287 -4.00000000
2.52501130 22.94469261 -1.88440120 12 16 488 23.16000000 3176851289 3176851289 -4.66700000
11.45417309 104.08369446 1.82775557 28 18 488 104.72800000 3176851292 3176851292 1.00000000
0.32214761 27.14239883 -1.73964512 11 19 488 27.20000000 3176851292 3176851292 -3.66700000
3.91457295 24.46683884 -1.44301045 11 20 489 24.82000000 3176851294 3176851294 -3.33300000
2.10999155 34.49805832 -1.60997689 21 23 490 34.60000000 3176851296 3176851296 -2.66700000
3.09339595 27.97486496 -1.47503662 14 24 491 28.18400000 3176851298 3176851298 -3.00000000
0.45376027 36.10719299 -1.47116113 12 27 492 36.14000000 3176851301 3176851301 -2.33300000
6.59305525 41.02426147 -1.45098150 8 28 493 41.57600000 3176851303 3176851303 -2.00000000
3.36223578 54.34935760 -1.26709676 10 31 494 54.46800000 3176851305 3176851305 -1.33300000
0.62029451 5.53004980 -2.59487605 14 0 500 6.14000000 3176851326 3176851326 -25.00000000
0.86105615 61.66459274 -1.07646441 28 1 500 61.68000000 3176851326 3176851326 -1.00000000
5.55699110 49.46375656 -1.44859219 12 2 501 49.79600000 3176851328 3176851328 -1.66700000
0.53600198 8.49584579 -2.38304615 21 3 501 8.84000000 3176851328 3176851328 -15.63900000
1.36441493 12.12582111 -2.44048357 15 4 502 12.44400000 3176851331 3176851331 -11.31000000
9.66031742 59.51296616 -0.70191073 29 6 502 60.29600000 3176851333 3176851333 -0.66700000
0.90887392 14.36611271 -2.23950148 14 7 502 14.56800000 3176851333 3176851333 -8.84300000
1.90191054 16.87614059 -2.16171193 13 8 503 17.12000000 3176851335 3176851335 -7.25400000
1.58911526 109.69063568 0.63759017 28 9 503 109.70400000 3176851335 3176851335 0.33300000
8.73463345 77.38328552 -0.45260859 28 10 504 77.87600000 3176851338 3176851338 -0.33300000
1.20235002 18.90024185 -2.03998446 14 11 504 19.04800000 3176851338 3176851338 -6.14800000
