# .PCD v0.7 - Point Cloud Data file format
VERSION 0.7
FIELDS x y z intensity laser_id azimuth distance_m adjustedtime timestamp vertical_angle
SIZE 4 4 4 1 1 2 8 8 4 8
TYPE F F F U U U F U U F
COUNT 1 1 1 1 1 1 1 1 1 1
WIDTH 507
HEIGHT 1
VIEWPOINT 0 0 0 1 0 0 0
POINTS 507
DATA ascii
19.65789223 -41.23214722 -2.12777519 13 23 15591 45.72800000 3178793126 3178793126 -2.66700000
19.58392525 -46.86282349 -2.66180682 15 24 15592 50.86000000 3178793128 3178793128 -3.00000000
41.61059189 -99.61980438 8.81339931 28 26 15593 108.32000000 3178793131 3178793131 4.66700000
37.48963928 -69.71324158 -3.22483087 28 27 15593 79.22000000 3178793131 3178793131 -2.33300000
37.55590820 -103.97379303 -3.86044264 28 28 15594 110.61600000 3178793133 3178793133 -2.00000000
37.78489685 -79.36022186 -2.04529524 28 31 15594 87.92000000 3178793135 3178793135 -1.33300000
2.49583983 -6.00177431 -3.03101826 9 0 15602 7.17200000 3178793156 3178793156 -25.00000000
37.45261765 -69.90741730 -1.38432491 28 1 15602 79.32000000 3178793156 3178793156 -1.00000000
37.28151703 -89.69544220 -2.82690167 28 2 15603 97.17600000 3178793158 3178793158 -1.66700000
3.72165298 -7.84838629 -2.43156981 12 3 15603 9.02000000 3178793158 3178793158 -15.63900000
6.02071095 -14.49233818 -3.13866115 6 4 15604 16.00400000 3178793160 3178793160 -11.31000000
38.11909103 -80.42346954 0.00000000 28 5 15604 89.00000000 3178793160 3178793160 0.00000000
37.40349579 -104.17736053 -1.28862131 29 6 15605 110.69600000 3178793163 3178793163 -0.66700000
8.31392384 -17.54858971 -3.02105188 2 7 15605 19.65200000 3178793163 3178793163 -8.84300000
9.50289440 -22.88550949 -3.15418029 2 8 15605 24.98000000 3178793165 3178793165 -7.25400000
37.01535034 -69.17823029 0.45600274 28 9 15605 78.46000000 3178793165 3178793165 0.33300000
38.30918503 -92.30423737 -0.58084267 28 10 15606 99.94000000 3178793167 3178793167 -0.33300000
11.81264019 -24.94474602 -2.97301412 3 11 15606 27.76000000 3178793167 3178793167 -6.14800000
12.01048470 -33.48872375 -3.32107735 5 12 15607 35.73200000 3178793170 3178793170 -5.33300000
37.78951263 -79.83610535 2.05534506 28 13 15607 88.35200000 3178793170 3178793170 1.33300000
40.97397995 -114.31014252 1.41369319 28 14 15608 121.44000000 3178793172 3178793172 0.66700000
18.35710526 -38.79969788 -3.00148153 6 15 15608 43.02800000 3178793172 3178793172 -4.00000000
14.86312199 -35.86504364 -3.16930890 8 16 15609 38.95200000 3178793174 3178793174 -4.66700000
38.38753128 -71.86326599 2.37111115 28 17 15609 81.50800000 3178793174 3178793174 1.66700000
39.73781967 -95.88823700 1.81176925 28 18 15609 103.81200000 3178793177 3178793177 1.00000000
19.75409126 -36.98059082 -2.68698406 22 19 15609 42.01200000 3178793177 3178793177 -3.66700000
19.29769325 -53.89636612 -3.33392406 23 20 15610 57.34400000 3178793179 3178793179 -3.33300000
57.94044495 -122.57395935 7.89574432 42 21 15610 135.80800000 3178793179 3178793179 3.33300000
40.11777878 -96.90071106 4.27279902 28 22 15611 104.96400000 3178793181 3178793181 2.33300000
19.64528084 -41.57869339 -2.14210677 13 23 15611 46.03600000 3178793181 3178793181 -2.66700000
19.57754135 -47.31106949 -2.68336916 16 24 15612 51.27200000 3178793184 3178793184 -3.00000000
40.86490631 -98.80290222 8.72845554 28 26 15613 107.27600000 3178793186 3178793186 4.66700000
37.62783813 -70.55957031 -3.25788498 28 27 15613 80.03200000 3178793186 3178793186 -2.33300000
37.39986420 -104.68399048 -3.88194084 28 28 15614 111.23200000 3178793188 3178793188 -2.00000000
37.69506073 -79.92496490 -2.05627561 28 31 15615 88.39200000 3178793190 3178793190 -1.33300000
2.47763515 -6.01715422 -3.03439903 11 0 15622 7.18000000 3178793211 3178793211 -25.00000000
37.34909439 -70.30261993 -1.38956058 28 1 15622 79.62000000 3178793211 3178793211 -1.00000000
37.84469604 -91.95474243 -2.89392638 28 2 15623 99.48000000 3178793213 3178793213 -1.66700000
3.70078731 -7.87527418 -2.43588305 12 3 15623 9.03600000 3178793213 3178793213 -15.63900000
5.97754717 -14.53140259 -3.14258337 4 4 15624 16.02400000 3178793216 3178793216 -11.31000000
36.95042038 -78.66614532 0.00000000 28 5 15624 86.91200000 3178793216 3178793216 0.00000000
37.50539398 -105.61894989 -1.30482578 29 6 15625 112.08800000 3178793218 3178793218 -0.66700000
8.25765705 -17.58823776 -3.02289653 2 7 15625 19.66400000 3178793218 3178793218 -8.84300000
9.43954945 -22.95890999 -3.15973592 2 8 15625 25.02400000 3178793220 3178793220 -7.25400000
36.93675232 -69.61441803 0.45802531 28 9 15625 78.80800000 3178793220 3178793220 0.33300000
38.17679977 -92.89986420 -0.58374864 28 10 15626 100.44000000 3178793223 3178793223 -0.33300000
11.74576950 -25.02902985 -2.97815466 3 11 15626 27.80800000 3178793223 3178793223 -6.14800000
11.94011402 -33.66181564 -3.33408952 5 12 15627 35.87200000 3178793225 3178793225 -5.33300000
37.59890747 -80.15579224 2.06018376 28 13 15627 88.56000000 3178793225 3178793225 1.33300000
40.62282562 -114.58818054 1.41536951 28 14 15628 121.58400000 3178793227 3178793227 0.66700000
18.30964279 -39.05140686 -3.01599097 6 15 15628 43.23600000 3178793227 3178793227 -4.00000000
14.79534912 -36.05686188 -3.18167639 8 16 15629 39.10400000 3178793230 3178793230 -4.66700000
39.99863434 -75.51239777 2.48689151 28 17 15629 85.48800000 3178793230 3178793230 1.66700000
39.55620575 -96.40007019 1.81882000 28 18 15629 104.21600000 3178793232 3178793232 1.00000000
19.76128578 -37.30682755 -2.70565987 22 19 15629 42.30400000 3178793232 3178793232 -3.66700000
19.18942070 -54.18925095 -3.34787750 24 20 15630 57.58400000 3178793234 3178793234 -3.33300000
57.57659912 -122.91287231 7.90458107 42 21 15630 135.96000000 3178793234 3178793234 3.33300000
39.51096725 -96.38561249 4.24397802 28 22 15631 104.25600000 3178793237 3178793237 2.33300000
19.64404106 -41.95459747 -2.15792727 13 23 15631 46.37600000 3178793237 3178793237 -2.66700000
19.56069183 -47.74135590 -2.70388484 16 24 15632 51.66400000 3178793239 3178793239 -3.00000000
40.62401962 -99.19950867 8.75091171 28 26 15633 107.55200000 3178793241 3178793241 4.66700000
37.73628998 -71.36177826 -3.28882265 28 27 15633 80.79200000 3178793241 3178793241 -2.33300000
37.51233292 -106.16704559 -3.93205643 28 28 15634 112.66800000 3178793243 3178793243 -2.00000000
37.95489502 -81.17249298 -2.08512187 28 31 15634 89.63200000 3178793246 3178793246 -1.33300000
2.44429898 -5.99555349 -3.01918483 9 0 15642 7.14400000 3178793266 3178793266 -25.00000000
38.22374725 -72.55916595 -1.43151617 28 1 15642 82.02400000 3178793266 3178793266 -1.00000000
37.74527359 -92.63058472 -2.91103148 28 2 15643 100.06800000 3178793269 3178793269 -1.66700000
3.67815328 -7.89862013 -2.43911791 12 3 15643 9.04800000 3178793269 3178793269 -15.63900000
5.93714333 -14.57760811 -3.14807487 4 4 15644 16.05200000 3178793271 3178793271 -11.31000000
37.71706009 -81.03214264 0.00000000 28 5 15644 89.38000000 3178793271 3178793271 0.00000000
37.40554047 -106.45594788 -1.31362641 29 6 15644 112.84400000 3178793273 3178793273 -0.66700000
8.20762634 -17.63344002 -3.02597117 2 7 15644 19.68400000 3178793273 3178793273 -8.84300000
9.36832619 -23.01377106 -3.16276646 3 8 15645 25.04800000 3178793276 3178793276 -7.25400000
36.86114883 -70.06151581 0.46011758 28 9 15645 79.16800000 3178793276 3178793276 0.33300000
37.97137451 -93.32525635 -0.58558518 28 10 15646 100.75600000 3178793278 3178793278 -0.33300000
11.68180752 -25.12036514 -2.98415208 3 11 15646 27.86400000 3178793278 3178793278 -6.14800000
11.89900112 -33.92126465 -3.35565257 5 12 15647 36.10400000 3178793280 3178793280 -5.33300000
38.51565170 -82.86122894 2.12625098 28 13 15647 91.40000000 3178793280 3178793280 1.33300000
18.20347977 -39.18022156 -3.02101326 6 15 15648 43.30800000 3178793283 3178793283 -4.00000000
14.69640732 -36.17477417 -3.18753457 8 16 15649 39.17600000 3178793285 3178793285 -4.66700000
39.74967575 -75.67987823 2.48782253 28 17 15649 85.52000000 3178793285 3178793285 1.66700000
39.22548676 -96.55237579 1.81909919 28 18 15649 104.23200000 3178793287 3178793287 1.00000000
19.74602318 -37.59468842 -2.72152114 23 19 15649 42.55200000 3178793287 3178793287 -3.66700000
19.14136887 -54.65916824 -3.37276077 24 20 15650 58.01200000 3178793290 3178793290 -3.33300000
58.16606522 -125.30805969 8.04551029 42 21 15650 138.38400000 3178793290 3178793290 3.33300000
39.21035004 -96.61181641 4.24788618 28 22 15651 104.35200000 3178793292 3178793292 2.33300000
19.62696266 -42.30200195 -2.17225909 14 23 15651 46.68400000 3178793292 3178793292 -2.66700000
19.55308914 -48.20170975 -2.72607517 17 24 15652 52.08800000 3178793294 3178793294 -3.00000000
40.75086212 -100.50820923 8.85375690 28 26 15653 108.81600000 3178793296 3178793296 4.66700000
37.67998123 -71.86118317 -3.30575681 28 27 15653 81.20800000 3178793296 3178793296 -2.33300000
37.50149155 -107.32759857 -3.97016668 28 28 15654 113.76000000 3178793299 3178793299 -2.00000000
37.81341553 -81.64852905 -2.09377575 28 31 15655 90.00400000 3178793301 3178793301 -1.33300000
2.43421054 -6.03094292 -3.03270864 8 0 15662 7.17600000 3178793322 3178793322 -25.00000000
38.12207031 -72.98283386 -1.43724060 28 1 15662 82.35200000 3178793322 3178793322 -1.00000000
37.80912781 -93.72212982 -2.94116926 28 2 15663 101.10400000 3178793324 3178793324 -1.66700000
3.65055943 -7.91141081 -2.43911791 12 3 15663 9.04800000 3178793324 3178793324 -15.63900000
5.89502239 -14.62007046 -3.15278149 4 4 15664 16.07600000 3178793326 3178793326 -11.31000000
37.61657715 -81.55922699 0.00000000 28 5 15664 89.81600000 3178793326 3178793326 0.00000000
37.29626083 -107.34149933 -1.32293928 29 6 15664 113.64400000 3178793329 3178793329 -0.66700000
8.20561695 -17.79119110 -3.04810786 2 7 15664 19.82800000 3178793329 3178793329 -8.84300000
9.30573463 -23.09049606 -3.16882730 3 8 15665 25.09600000 3178793331 3178793331 -7.25400000
36.61821365 -70.19330597 0.46014082 28 9 15665 79.17200000 3178793331 3178793331 0.33300000
37.73803711 -93.68726349 -0.58702654 28 10 15666 101.00400000 3178793333 3178793333 -0.33300000
11.64398193 -25.26934814 -2.99700379 3 11 15666 27.98400000 3178793333 3178793333 -6.14800000
11.77007961 -33.93249130 -3.35267854 5 12 15667 36.07200000 3178793336 3178793336 -5.33300000
38.38175583 -83.33296204 2.13490486 28 13 15667 91.77200000 3178793336 3178793336 1.33300000
18.11499405 -39.34863663 -3.02910519 6 15 15668 43.42400000 3178793338 3178793338 -4.00000000
14.62211227 -36.35530853 -3.19892573 8 16 15669 39.31600000 3178793340 3178793340 -4.66700000
39.71242142 -76.25435638 2.50213504 28 17 15669 86.01200000 3178793340 3178793340 1.66700000
40.28507614 -100.16175842 1.88444102 28 18 15669 107.97600000 3178793343 3178793343 1.00000000
19.74005318 -37.90413666 -2.73891759 24 19 15669 42.82400000 3178793343 3178793343 -3.66700000
18.94784164 -54.71810532 -3.37229586 24 20 15670 58.00400000 3178793345 3178793345 -3.33300000
43.42805099 -94.41935730 6.05250454 42 21 15670 104.10400000 3178793345 3178793345 3.33300000
39.32436371 -97.87178802 4.29722357 28 22 15671 105.56400000 3178793347 3178793347 2.33300000
19.61437225 -42.66431808 -2.18733501 14 23 15671 47.00800000 3178793347 3178793347 -2.66700000
19.56632423 -48.72189713 -2.75161529 17 24 15672 52.57600000 3178793349 3178793349 -3.00000000
40.31809616 -100.44635773 8.83585644 28 26 15673 108.59600000 3178793352 3178793352 4.66700000
37.61695862 -72.35397339 -3.32236552 28 27 15673 81.61600000 3178793352 3178793352 -2.33300000
37.34854507 -108.10018158 -3.99389839 28 28 15674 114.44000000 3178793354 3178793354 -2.00000000
37.76167679 -82.28885651 -2.10680294 28 31 15675 90.56400000 3178793356 3178793356 -1.33300000
2.40103769 -6.00910521 -3.01749444 8 0 15682 7.14000000 3178793377 3178793377 -25.00000000
37.92777634 -73.23265839 -1.43954432 28 1 15682 82.48400000 3178793377 3178793377 -1.00000000
37.56923676 -94.07261658 -2.94803476 28 2 15683 101.34000000 3178793379 3178793379 -1.66700000
3.61971807 -7.91709948 -2.43696117 8 3 15683 9.04000000 3178793379 3178793379 -15.63900000
5.85413122 -14.66605854 -3.15827274 4 4 15684 16.10400000 3178793382 3178793382 -11.31000000
37.67747116 -82.44676208 0.00000000 28 5 15684 90.64800000 3178793382 3178793382 0.00000000
37.14096451 -108.11031342 -1.33080864 29 6 15684 114.32000000 3178793384 3178793384 -0.66700000
8.14346409 -17.81972504 -3.04810786 2 7 15684 19.82800000 3178793384 3178793384 -8.84300000
9.25889587 -23.20760536 -3.18044400 3 8 15685 25.18800000 3178793386 3178793386 -7.25400000
37.31753159 -72.14684296 0.47209013 28 9 15685 81.22800000 3178793386 3178793386 0.33300000
38.32637787 -96.11456299 -0.60139358 28 10 15686 103.47600000 3178793389 3178793389 -0.33300000
11.56726646 -25.33516312 -3.00000262 3 11 15686 28.01200000 3178793389 3178793389 -6.14800000
11.66577339 -34.01480865 -3.35676789 5 12 15687 36.11600000 3178793391 3178793391 -5.33300000
38.10059738 -83.48825836 2.13546324 28 13 15687 91.79600000 3178793391 3178793391 1.33300000
18.05370712 -39.57862854 -3.04194021 6 15 15688 43.60800000 3178793393 3178793393 -4.00000000
14.52461338 -36.48020935 -3.20543480 8 16 15689 39.39600000 3178793396 3178793396 -4.66700000
39.73034286 -76.94317627 2.52017117 28 17 15689 86.63200000 3178793396 3178793396 1.66700000
39.05939102 -98.10207367 1.84311378 28 18 15689 105.60800000 3178793398 3178793398 1.00000000
19.73399353 -38.21754456 -2.75656986 24 19 15689 43.10000000 3178793398 3178793398 -3.66700000
18.87055206 -55.11637115 -3.39276075 25 20 15690 58.35600000 3178793400 3178793400 -3.33300000
43.49563217 -95.44245911 6.10831833 42 21 15690 105.06400000 3178793400 3178793400 3.33300000
39.21439362 -98.59150696 4.32278776 28 22 15691 106.19200000 3178793402 3178793402 2.33300000
19.60114670 -43.03069305 -2.20259738 14 23 15691 47.33600000 3178793402 3178793402 -2.66700000
19.54812813 -49.17222977 -2.77317762 18 24 15692 52.98800000 3178793405 3178793405 -3.00000000
41.56744766 -104.61379242 9.18962860 28 26 15693 112.94400000 3178793407 3178793407 4.66700000
37.42826080 -72.60917664 -3.32806444 28 27 15693 81.75600000 3178793407 3178793407 -2.33300000
37.22296524 -108.96755981 -4.02112007 28 28 15694 115.22000000 3178793409 3178793409 -2.00000000
37.40468979 -82.26727295 -2.10289478 28 31 15695 90.39600000 3178793412 3178793412 -1.33300000
2.40138125 -6.07138777 -3.04454207 8 0 15702 7.20400000 3178793432 3178793432 -25.00000000
37.85094833 -73.71326447 -1.44638562 28 1 15702 82.87600000 3178793432 3178793432 -1.00000000
37.73012161 -95.44137573 -2.98678327 28 2 15703 102.67200000 3178793435 3178793435 -1.66700000
3.82888174 -8.45248413 -2.59762812 6 3 15703 9.63600000 3178793435 3178793435 -15.63900000
5.80866718 -14.70099545 -3.16141081 4 4 15704 16.12000000 3178793437 3178793437 -11.31000000
37.77716827 -83.43408966 0.00000000 28 5 15704 91.58800000 3178793437 3178793437 0.00000000
37.27017593 -109.73147583 -1.34915495 29 6 15704 115.89600000 3178793439 3178793439 -0.66700000
8.08610249 -17.85884476 -3.04995251 2 7 15704 19.84000000 3178793439 3178793439 -8.84300000
9.18657494 -23.26192856 -3.18347454 3 8 15705 25.21200000 3178793442 3178793442 -7.25400000
37.20965958 -72.55784607 0.47392669 28 9 15705 81.54400000 3178793442 3178793442 0.33300000
38.18889999 -96.75003815 -0.60453200 28 10 15706 104.01600000 3178793444 3178793444 -0.33300000
11.49678993 -25.41524506 -3.00471473 3 11 15706 28.05600000 3178793444 3178793444 -6.14800000
11.59684467 -34.20242310 -3.37126732 5 12 15707 36.27200000 3178793446 3178793446 -5.33300000
37.87319183 -83.76285553 2.13909221 28 13 15707 91.95200000 3178793446 3178793446 1.33300000
18.00582504 -39.84139633 -3.05728674 7 15 15708 43.82800000 3178793448 3178793448 -4.00000000
14.43957806 -36.63824844 -3.21487308 8 16 15709 39.51200000 3178793451 3178793451 -4.66700000
39.72388840 -77.59388733 2.53692722 28 17 15709 87.20800000 3178793451 3178793451 1.66700000
38.76510620 -98.36060333 1.84541750 28 18 15709 105.74000000 3178793453 3178793453 1.00000000
19.72598648 -38.53137207 -2.77422214 25 19 15709 43.37600000 3178793453 3178793453 -3.66700000
18.71901321 -55.30294037 -3.40020251 25 20 15710 58.48400000 3178793455 3178793455 -3.33300000
42.51147461 -94.15248108 6.01622581 42 21 15710 103.48000000 3178793455 3178793455 3.33300000
38.49811554 -97.78320312 4.28142881 28 22 15711 105.17600000 3178793458 3178793458 2.33300000
19.59217453 -43.41205978 -2.21860409 14 23 15711 47.68000000 3178793458 3178793458 -2.66700000
19.52409744 -49.61559296 -2.79432130 19 24 15712 53.39200000 3178793460 3178793460 -3.00000000
41.28957367 -104.98085785 9.20915699 28 26 15713 113.18400000 3178793462 3178793462 4.66700000
37.53106308 -73.43692017 -3.35997891 28 27 15713 82.54000000 3178793462 3178793462 -2.33300000
37.21968460 -110.21412659 -4.06230164 28 28 15714 116.40000000 3178793465 3178793465 -2.00000000
37.74306107 -83.78648376 -2.13834786 28 31 15715 91.92000000 3178793467 3178793467 -1.33300000
2.36167145 -6.03247261 -3.02087545 6 0 15722 7.14800000 3178793488 3178793488 -25.00000000
37.85106277 -74.35104370 -1.45629859 28 1 15722 83.44400000 3178793488 3178793488 -1.00000000
37.49435425 -95.82196808 -2.99457955 28 2 15723 102.94000000 3178793490 3178793490 -1.66700000
3.83247399 -8.53959656 -2.62027264 5 3 15723 9.72000000 3178793490 3178793490 -15.63900000
5.76874447 -14.75040531 -3.16768646 4 4 15724 16.15200000 3178793492 3178793492 -11.31000000
37.65760040 -83.94866180 0.00000000 28 5 15724 92.00800000 3178793492 3178793492 0.00000000
36.83344269 -109.70165253 -1.34719932 29 6 15724 115.72800000 3178793495 3178793495 -0.66700000
8.02694988 -17.89417458 -3.05118251 3 7 15724 19.84800000 3178793495 3178793495 -8.84300000
9.11832047 -23.32711411 -3.18802023 3 8 15725 25.24800000 3178793497 3178793497 -7.25400000
37.24258423 -73.25064087 0.47759983 28 9 15725 82.17600000 3178793497 3178793497 0.33300000
38.19155502 -97.75457001 -0.60997194 28 10 15726 104.95200000 3178793499 3178793499 -0.33300000
11.45354557 -25.55683899 -3.01670957 3 11 15726 28.16800000 3178793499 3178793499 -6.14800000
11.54320240 -34.43905640 -3.39059973 5 12 15727 36.48000000 3178793501 3178793501 -5.33300000
38.30805588 -85.51856995 2.18050075 28 13 15727 93.73200000 3178793501 3178793501 1.33300000
44.64638519 -133.27935791 1.63636374 28 14 15728 140.56800000 3178793504 3178793504 0.66700000
17.89273262 -39.96227646 -3.06175113 7 15 15728 43.89200000 3178793504 3178793504 -4.00000000
14.34637070 -36.77756882 -3.22268414 8 16 15729 39.60800000 3178793506 3178793506 -4.66700000
39.38584137 -77.60015869 2.53262186 28 17 15729 87.06000000 3178793506 3178793506 1.66700000
39.23399734 -100.57812500 1.88444102 28 18 15729 107.97600000 3178793508 3178793508 1.00000000
19.71421814 -38.84204483 -2.79161859 26 19 15729 43.64800000 3178793508 3178793508 -3.66700000
18.62975502 -55.67847061 -3.41927218 26 20 15730 58.81200000 3178793511 3178793511 -3.33300000
42.54943848 -95.12046051 6.06855106 42 21 15730 104.38000000 3178793511 3178793511 3.33300000
38.23926926 -98.12925720 4.29070997 28 22 15731 105.40400000 3178793513 3178793513 2.33300000
19.58567047 -43.80482483 -2.23516917 15 23 15731 48.03600000 3178793513 3178793513 -2.66700000
19.50880623 -50.08915710 -2.81713986 19 24 15732 53.82800000 3178793515 3178793515 -3.00000000
41.35529709 -106.23517609 9.30646801 28 26 15733 114.38000000 3178793518 3178793518 4.66700000
37.40635681 -73.82774353 -3.37186551 28 27 15733 82.83200000 3178793518 3178793518 -2.33300000
37.46636963 -112.23551178 -4.13196087 28 28 15734 118.39600000 3178793520 3178793520 -2.00000000
36.84873962 -82.53092194 -2.10317397 28 31 15734 90.40800000 3178793522 3178793522 -1.33300000
2.34714866 -6.05758142 -3.02932763 6 0 15742 7.16800000 3178793543 3178793543 -25.00000000
38.01476669 -75.32176208 -1.47270381 28 1 15742 84.38400000 3178793543 3178793543 -1.00000000
37.56250000 -96.99250793 -3.02704453 28 2 15743 104.05600000 3178793545 3178793545 -1.66700000
3.87462592 -8.71483040 -2.66987443 14 3 15743 9.90400000 3178793545 3178793545 -15.63900000
5.72430038 -14.78874111 -3.17160892 4 4 15744 16.17200000 3178793548 3178793548 -11.31000000
37.44068146 -84.25139618 0.00000000 28 5 15744 92.19600000 3178793548 3178793548 0.00000000
36.43615723 -109.85110474 -1.34738553 29 6 15745 115.74400000 3178793550 3178793550 -0.66700000
7.96933270 -17.94153404 -3.05425692 2 7 15745 19.86800000 3178793550 3178793550 -8.84300000
9.05688190 -23.41061020 -3.19509125 3 8 15745 25.30400000 3178793552 3178793552 -7.25400000
37.06587982 -73.53736115 0.47862270 28 9 15745 82.35200000 3178793552 3178793552 0.33300000
37.86884689 -97.93578339 -0.61027420 28 10 15746 105.00400000 3178793554 3178793554 -0.33300000
11.37233448 -25.61483765 -3.01885152 3 11 15746 28.18800000 3178793554 3178793554 -6.14800000
11.42917919 -34.49804306 -3.39245844 5 12 15747 36.50000000 3178793557 3178793557 -5.33300000
42.83812714 -96.53323364 2.45751810 28 13 15747 105.64000000 3178793557 3178793557 1.33300000
44.23493958 -133.59765625 1.63836610 28 14 15748 140.74000000 3178793559 3178793559 0.66700000
17.81299210 -40.15944672 -3.07207513 7 15 15748 44.04000000 3178793559 3178793559 -4.00000000
14.26959610 -36.96131516 -3.23440051 8 16 15749 39.75200000 3178793561 3178793561 -4.66700000
39.12730408 -77.76216888 2.53343654 28 17 15749 87.08800000 3178793561 3178793561 1.66700000
38.95004272 -100.94139099 1.88855982 28 18 15750 108.21200000 3178793564 3178793564 1.00000000
19.69727516 -39.16366959 -2.80952668 26 19 15750 43.92800000 3178793564 3178793564 -3.66700000
18.49798012 -55.93272400 -3.43089986 26 20 15750 59.01200000 3178793566 3178793566 -3.33300000
42.28186035 -95.41444397 6.07785320 42 21 15750 104.54000000 3178793566 3178793566 3.33300000
41.51055527 -107.63304901 4.69989967 28 22 15751 115.45600000 3178793568 3178793568 2.33300000
19.58475304 -44.21633911 -2.25266480 15 23 15751 48.41200000 3178793568 3178793568 -2.66700000
19.48900986 -50.55949020 -2.83974910 20 24 15752 54.26000000 3178793571 3178793571 -3.00000000
40.92401886 -106.22264099 9.29279900 28 26 15753 114.21200000 3178793573 3178793573 4.66700000
37.46056366 -74.57929993 -3.40019774 28 27 15753 83.52800000 3178793573 3178793573 -2.33300000
37.38500214 -113.30708313 -4.16658115 28 28 15754 119.38800000 3178793575 3178793575 -2.00000000
37.45009613 -84.67048645 -2.15435290 28 31 15754 92.60800000 3178793578 3178793578 -1.33300000
2.34889340 -6.11907625 -3.05637527 8 0 15760 7.23200000 3178793598 3178793598 -25.00000000
37.45381927 -74.79354858 -1.46006835 28 1 15760 83.66000000 3178793598 3178793598 -1.00000000
37.36215591 -97.38254547 -3.03553915 28 2 15761 104.34800000 3178793601 3178793601 -1.66700000
3.88296604 -8.80802536 -2.69467521 12 3 15761 9.99600000 3178793601 3178793601 -15.63900000
5.68623781 -14.82862568 -3.17631555 4 4 15762 16.19600000 3178793603 3178793603 -11.31000000
37.62420273 -85.38619232 0.00000000 28 5 15762 93.30800000 3178793603 3178793603 0.00000000
37.13358307 -113.14206696 -1.38631332 29 6 15763 119.08800000 3178793605 3178793605 -0.66700000
7.92089415 -17.98456764 -3.05733156 3 7 15763 19.88800000 3178793605 3178793605 -8.84300000
9.01169205 -23.51305199 -3.20519257 3 8 15763 25.38400000 3178793607 3178793607 -7.25400000
38.11032486 -76.20419312 0.49519828 28 9 15763 85.20400000 3178793607 3178793607 0.33300000
37.74270248 -98.52864838 -0.61322665 28 10 15764 105.51200000 3178793610 3178793610 -0.33300000
11.30783081 -25.68683815 -3.02313542 3 11 15764 28.22800000 3178793610 3178793610 -6.14800000
11.32570744 -34.54891968 -3.39394569 5 12 15765 36.51600000 3178793612 3178793612 -5.33300000
42.68764877 -97.01506042 2.46635818 28 13 15765 106.02000000 3178793612 3178793612 1.33300000
43.32562256 -132.24220276 1.62006629 28 14 15766 139.16800000 3178793614 3178793614 0.66700000
17.75099564 -40.36131668 -3.08323622 7 15 15766 44.20000000 3178793614 3178793614 -4.00000000
14.20895100 -37.15118408 -3.24709344 8 16 15767 39.90800000 3178793617 3178793617 -4.66700000
38.94889450 -78.01706696 2.53774190 28 17 15767 87.23600000 3178793617 3178793617 1.66700000
39.00325775 -101.97917938 1.90580273 28 18 15767 109.20000000 3178793619 3178793619 1.00000000
19.71292877 -39.48622894 -2.82845831 27 19 15767 44.22400000 3178793619 3178793619 -3.66700000
18.43767166 -56.34351730 -3.45252752 27 20 15768 59.38400000 3178793621 3178793621 -3.33300000
43.18505478 -98.28506470 6.25203753 42 21 15768 107.53600000 3178793621 3178793621 3.33300000
37.86862183 -99.11620331 4.32278776 28 22 15769 106.19200000 3178793624 3178793624 2.33300000
19.58552933 -44.59592819 -2.26885748 15 23 15769 48.76000000 3178793624 3178793624 -2.66700000
19.51675034 -51.10931778 -2.86717296 21 24 15770 54.78400000 3178793626 3178793626 -3.00000000
41.76148605 -109.41981506 9.56097698 28 26 15771 117.50800000 3178793628 3178793628 4.66700000
37.32056427 -74.88619995 -3.40882778 28 27 15771 83.74000000 3178793628 3178793628 -2.33300000
37.15539551 -113.81159210 -4.18081999 28 28 15772 119.79600000 3178793631 3178793631 -2.00000000
37.30436707 -85.06238556 -2.16133189 28 31 15772 92.90800000 3178793633 3178793633 -1.33300000
2.32902360 -6.13442278 -3.05975628 6 0 15781 7.24000000 3178793654 3178793654 -25.00000000
37.71095276 -76.00152588 -1.48094141 28 1 15781 84.85600000 3178793654 3178793654 -1.00000000
37.29861450 -98.29264069 -3.05962610 28 2 15782 105.17600000 3178793656 3178793656 -1.66700000
3.81521678 -8.74100113 -2.66987443 33 3 15782 9.90400000 3178793656 3178793656 -15.63900000
5.63741398 -14.86403656 -3.17945361 4 4 15783 16.21200000 3178793659 3178793659 -11.31000000
41.76873398 -95.74147034 0.00000000 28 5 15783 104.45600000 3178793659 3178793659 0.00000000
37.19129562 -114.66728973 -1.40340245 29 6 15783 120.55600000 3178793661 3178793661 -0.66700000
7.86122894 -18.01935387 -3.05856133 3 7 15783 19.89600000 3178793661 3178793661 -8.84300000
8.93811035 -23.57931709 -3.20973825 3 8 15784 25.42000000 3178793663 3178793663 -7.25400000
37.84675217 -76.37561798 0.49540752 28 9 15784 85.24000000 3178793663 3178793663 0.33300000
43.26954269 -114.20800781 -0.70982063 28 10 15785 122.13200000 3178793666 3178793666 -0.33300000
11.23267555 -25.77185822 -3.02827621 3 11 15785 28.27600000 3178793666 3178793666 -6.14800000
11.24930000 -34.74554825 -3.40918851 5 12 15786 36.68000000 3178793668 3178793668 -5.33300000
41.45975494 -95.16915894 2.41555142 28 13 15786 103.83600000 3178793668 3178793668 1.33300000
17.64595795 -40.52488327 -3.09076977 7 15 15787 44.30800000 3178793670 3178793670 -4.00000000
14.10372162 -37.28504944 -3.25425339 8 16 15788 39.99600000 3178793672 3178793672 -4.66700000
38.68041229 -78.19513702 2.53890538 28 17 15788 87.27600000 3178793672 3178793672 1.66700000
38.60941315 -102.06908417 1.90482545 28 18 15788 109.14400000 3178793675 3178793675 1.00000000
19.70258522 -39.83014297 -2.84790134 14 19 15788 44.52800000 3178793675 3178793675 -3.66700000
18.32191086 -56.69189453 -3.46973681 27 20 15789 59.68000000 3178793677 3178793677 -3.33300000
41.40203857 -95.17273712 6.04436541 42 21 15789 103.96400000 3178793677 3178793677 3.33300000
40.30793762 -106.67186737 4.64584064 28 22 15790 114.12800000 3178793679 3178793679 2.33300000
19.56852531 -45.00452805 -2.28598094 16 23 15790 49.12800000 3178793679 3178793679 -2.66700000
19.48453903 -51.59156418 -2.89020085 21 24 15791 55.22400000 3178793682 3178793682 -3.00000000
42.58363342 -112.81339264 9.84379959 28 26 15792 120.98400000 3178793684 3178793684 4.66700000
37.37498093 -75.68903351 -3.43911386 28 27 15792 84.48400000 3178793684 3178793684 -2.33300000
37.30718994 -115.71239471 -4.24559355 28 28 15793 121.65200000 3178793686 3178793686 -2.00000000
37.52747726 -86.43101501 -2.19259739 28 31 15793 94.25200000 3178793689 3178793689 -1.33300000
2.30122161 -6.12554693 -3.05130386 6 0 15801 7.22000000 3178793709 3178793709 -25.00000000
37.78786087 -76.82892609 -1.49448442 28 1 15801 85.63200000 3178793709 3178793709 -1.00000000
37.33335114 -99.42914581 -3.09092736 28 2 15802 106.25200000 3178793712 3178793712 -1.66700000
3.79843855 -8.78608704 -2.67957902 19 3 15802 9.94000000 3178793712 3178793712 -15.63900000
5.59376287 -14.90565777 -3.18416023 4 4 15803 16.23600000 3178793714 3178793714 -11.31000000
41.48981476 -96.01519775 0.00000000 28 5 15803 104.59600000 3178793714 3178793714 0.00000000
37.38650894 -116.65515900 -1.42612576 29 6 15803 122.50800000 3178793716 3178793716 -0.66700000
7.84531593 -18.15553093 -3.07700872 3 7 15803 20.01600000 3178793716 3178793716 -8.84300000
8.87386417 -23.65867043 -3.21630430 3 8 15804 25.47200000 3178793719 3178793719 -7.25400000
37.62224579 -76.59342957 0.49596548 28 9 15804 85.33600000 3178793719 3178793719 0.33300000
42.16015625 -112.46317291 -0.69805735 28 10 15805 120.10800000 3178793721 3178793721 -0.33300000
11.18205357 -25.90219307 -3.03898597 3 11 15805 28.37600000 3178793721 3178793721 -6.14800000
11.14493561 -34.83771133 -3.41439319 5 12 15806 36.73600000 3178793723 3178793723 -5.33300000
41.12254715 -95.30228424 2.41527224 28 13 15806 103.82400000 3178793723 3178793723 1.33300000
42.31731033 -132.35835266 1.61773801 28 14 15807 138.96800000 3178793725 3178793725 0.66700000
17.57234192 -40.74378586 -3.10276794 7 15 15807 44.48000000 3178793725 3178793725 -4.00000000
14.02379608 -37.46846771 -3.26596999 8 16 15808 40.14000000 3178793728 3178793728 -4.66700000
38.67478561 -78.87535858 2.55659246 28 17 15808 87.88400000 3178793728 3178793728 1.66700000
37.78464890 -100.95219421 1.88150907 28 18 15808 107.80800000 3178793730 3178793730 1.00000000
19.70929718 -40.19615936 -2.86913514 29 19 15808 44.86000000 3178793730 3178793730 -3.66700000
18.19922066 -56.99135208 -3.48415518 28 20 15809 59.92800000 3178793732 3178793732 -3.33300000
41.19914246 -95.61740112 6.06343460 42 21 15809 104.29200000 3178793732 3178793732 3.33300000
40.37483597 -107.98740387 4.69696903 28 22 15810 115.38400000 3178793735 3178793735 2.33300000
19.56145477 -45.42119217 -2.30366278 16 23 15810 49.50800000 3178793735 3178793735 -2.66700000
19.46093750 -52.07834625 -2.91364741 22 24 15811 55.67200000 3178793737 3178793737 -3.00000000
39.00227737 -104.42743683 9.10012817 28 26 15812 111.84400000 3178793739 3178793739 4.66700000
37.23529816 -76.07390594 -3.45067477 28 27 15812 84.76800000 3178793739 3178793739 -2.33300000
37.03652191 -116.26090240 -4.26094913 28 28 15813 122.09200000 3178793742 3178793742 -2.00000000
37.43724442 -87.05374908 -2.20506644 28 31 15813 94.78800000 3178793744 3178793744 -1.33300000
2.27963233 -6.12974644 -3.04961348 6 0 15820 7.21600000 3178793765 3178793765 -25.00000000
37.50482941 -76.89629364 -1.49336755 28 1 15820 85.56800000 3178793765 3178793765 -1.00000000
37.15666199 -99.96465302 -3.10372734 28 2 15821 106.69200000 3178793767 3178793767 -1.66700000
3.85118985 -8.98983192 -2.73780727 9 3 15821 10.15600000 3178793767 3178793767 -15.63900000
5.55386496 -14.94986343 -3.18965173 6 4 15822 16.26400000 3178793769 3178793769 -11.31000000
42.18357849 -98.51662445 0.00000000 28 5 15822 107.16800000 3178793769 3178793769 0.00000000
37.30268478 -117.73553467 -1.43781352 29 6 15822 123.51200000 3178793772 3178793772 -0.66700000
7.75239563 -18.10514641 -3.06409550 2 7 15822 19.93200000 3178793772 3178793772 -8.84300000
8.81055355 -23.72888565 -3.22185993 3 8 15823 25.51600000 3178793774 3178793774 -7.25400000
37.37855530 -76.73934937 0.49610496 28 9 15823 85.36000000 3178793774 3178793774 0.33300000
41.69235229 -112.34735870 -0.69647646 28 10 15824 119.83600000 3178793776 3178793776 -0.33300000
11.10861015 -25.96838379 -3.04241300 3 11 15824 28.40800000 3178793776 3178793776 -6.14800000
11.07618523 -35.02257156 -3.42889261 5 12 15825 36.89200000 3178793778 3178793778 -5.33300000
40.73396683 -95.26898956 2.41099191 28 13 15825 103.64000000 3178793778 3178793778 1.33300000
42.63154221 -134.88156128 1.64684081 28 14 15826 141.46800000 3178793781 3178793781 0.66700000
17.50613022 -40.96327972 -3.11504507 7 15 15826 44.65600000 3178793781 3178793781 -4.00000000
13.91193485 -37.54841232 -3.26889896 8 16 15827 40.17600000 3178793783 3178793783 -4.66700000
39.72427750 -81.70001984 2.64386415 28 17 15827 90.88400000 3178793783 3178793783 1.66700000
38.12783813 -102.96247101 1.91648364 28 18 15828 109.81200000 3178793785 3178793785 1.00000000
19.70496750 -40.54475403 -2.88909006 30 19 15828 45.17200000 3178793785 3178793785 -3.66700000
18.09788513 -57.32937241 -3.50113177 28 20 15828 60.22000000 3178793788 3178793788 -3.33300000
41.91827011 -98.18102264 6.21715450 42 21 15828 106.93600000 3178793788 3178793788 3.33300000
39.62530899 -107.06369781 4.65105104 28 22 15829 114.25600000 3178793790 3178793790 2.33300000
19.56285095 -45.84228897 -2.32171702 16 23 15829 49.89600000 3178793790 3178793790 -2.66700000
19.46829033 -52.62962723 -2.94086194 23 24 15830 56.19200000 3178793792 3178793792 -3.00000000
41.33917999 -111.81430054 9.73184204 28 26 15831 119.60800000 3178793795 3178793795 4.66700000
37.18002319 -76.60326385 -3.46907449 28 27 15831 85.22000000 3178793795 3178793795 -2.33300000
37.24396133 -118.26667786 -4.32991076 28 28 15832 124.06800000 3178793797 3178793797 -2.00000000
37.45561600 -87.89846802 -2.22330475 28 31 15832 95.57200000 3178793799 3178793799 -1.33300000
2.22191978 -6.03900099 -3.00058961 6 0 15840 7.10000000 3178793820 3178793820 -25.00000000
37.32495499 -77.21038055 -1.49692786 28 1 15840 85.77200000 3178793820 3178793820 -1.00000000
37.15662384 -101.04315948 -3.13316679 28 2 15841 107.70400000 3178793822 3178793822 -1.66700000
3.84536171 -9.06350231 -2.75613856 9 3 15841 10.22400000 3178793822 3178793822 -15.63900000
5.51247072 -14.99861050 -3.19592738 4 4 15842 16.29600000 3178793824 3178793824 -11.31000000
40.66196060 -95.88661957 0.00000000 28 5 15842 104.15200000 3178793824 3178793824 0.00000000
37.16823959 -118.82198334 -1.44940794 29 6 15843 124.50800000 3178793827 3178793827 -0.66700000
7.69523954 -18.15527344 -3.06778502 2 7 15843 19.95600000 3178793827 3178793827 -8.84300000
8.75777054 -23.84143829 -3.23297167 3 8 15843 25.60400000 3178793829 3178793829 -7.25400000
37.14349747 -76.93779755 0.49654666 28 9 15843 85.43600000 3178793829 3178793829 0.33300000
51.03524017 -139.00910950 -0.86065143 28 10 15844 148.08400000 3178793831 3178793831 -0.33300000
11.03185844 -26.03995895 -3.04626846 3 11 15844 28.44400000 3178793831 3178793831 -6.14800000
10.96099186 -35.08382797 -3.43112326 5 12 15845 36.91600000 3178793834 3178793834 -5.33300000
41.36169052 -97.67894745 2.46831226 28 13 15845 106.10400000 3178793834 3178793834 1.33300000
42.80179977 -137.08360291 1.67189240 28 14 15846 143.62000000 3178793836 3178793836 0.66700000
17.37392235 -41.04986191 -3.11699820 7 15 15846 44.68400000 3178793836 3178793836 -4.00000000
39.41454697 -81.78775787 2.64223504 28 17 15847 90.82800000 3178793838 3178793838 1.66700000
37.83712006 -103.22727966 1.91906667 28 18 15847 109.96000000 3178793841 3178793841 1.00000000
19.71251106 -40.90474701 -2.91006804 30 19 15847 45.50000000 3178793841 3178793841 -3.66700000
17.98682022 -57.67810822 -3.51857352 28 20 15848 60.52000000 3178793843 3178793843 -3.33300000
41.55041504 -98.26789856 6.21343327 42 21 15848 106.87200000 3178793843 3178793843 3.33300000
39.36814880 -107.52037048 4.66489172 28 22 15849 114.59600000 3178793845 3178793845 2.33300000
19.55981255 -46.28202438 -2.34051561 16 23 15849 50.30000000 3178793845 3178793845 -2.66700000
19.44232750 -53.12865829 -2.96493649 23 24 15850 56.65200000 3178793848 3178793848 -3.00000000
39.65588379 -108.42343140 9.42460918 28 26 15851 115.83200000 3178793850 3178793850 4.66700000
37.11684418 -77.15756989 -3.48828816 28 27 15851 85.69200000 3178793850 3178793850 -2.33300000
37.17526245 -119.50293732 -4.37039423 28 28 15852 125.22800000 3178793852 3178793852 -2.00000000
37.37253952 -88.60258484 -2.23763490 28 31 15853 96.18800000 3178793854 3178793854 -1.33300000
2.20082617 -6.04672003 -3.00058961 7 0 15860 7.10000000 3178793875 3178793875 -25.00000000
37.30060196 -77.85236359 -1.50684083 28 1 15860 86.34000000 3178793875 3178793875 -1.00000000
37.70717621 -103.65589905 -3.21008229 28 2 15861 110.34800000 3178793877 3178793877 -1.66700000
3.87935114 -9.23312283 -2.80358386 23 3 15861 10.40000000 3178793877 3178793877 -15.63900000
5.46812391 -15.03987885 -3.20063424 6 4 15862 16.32000000 3178793880 3178793880 -11.31000000
40.33010483 -96.03534698 0.00000000 28 5 15862 104.16000000 3178793880 3178793880 0.00000000
37.06142044 -119.94840240 -1.46156132 29 6 15863 125.55200000 3178793882 3178793882 -0.66700000
7.64864588 -18.22211266 -3.07454896 2 7 15863 20.00000000 3178793882 3178793882 -8.84300000
8.68669224 -23.90542793 -3.23751736 3 8 15863 25.64000000 3178793884 3178793884 -7.25400000
37.12331390 -77.58655548 0.49989432 28 9 15863 86.01200000 3178793884 3178793884 0.33300000
41.48595428 -114.22978210 -0.70633352 28 10 15864 121.53200000 3178793887 3178793887 -0.33300000
10.95320320 -26.10764694 -3.04969549 3 11 15864 28.47600000 3178793887 3178793887 -6.14800000
10.87838936 -35.25126648 -3.44376373 5 12 15865 37.05200000 3178793889 3178793889 -5.33300000
41.57409668 -99.14296722 2.50162506 28 13 15865 107.53600000 3178793889 3178793889 1.33300000
41.45310974 -134.41146851 1.63752794 28 14 15866 140.66800000 3178793891 3178793891 0.66700000
17.28296852 -41.23537827 -3.12648511 22 15 15866 44.82000000 3178793891 3178793891 -4.00000000
39.13053894 -81.92845154 2.64235139 28 17 15867 90.83200000 3178793894 3178793894 1.66700000
36.76628876 -101.39983368 1.88269579 28 18 15867 107.87600000 3178793896 3178793896 1.00000000
19.69691658 -41.23986053 -2.92899942 15 19 15867 45.79600000 3178793896 3178793896 -3.66700000
17.83239555 -57.89319611 -3.52787590 28 20 15868 60.68000000 3178793898 3178793898 -3.33300000
40.78455353 -97.40309906 6.14971304 42 21 15868 105.77600000 3178793898 3178793898 3.33300000
40.73609161 -112.47087860 4.87347555 28 22 15869 119.72000000 3178793901 3178793901 2.33300000
19.55856895 -46.73334885 -2.35987258 16 23 15869 50.71600000 3178793901 3178793901 -2.66700000
19.44030762 -53.70325851 -2.99319792 24 24 15870 57.19200000 3178793903 3178793903 -3.00000000
38.84992218 -107.38027954 9.32209015 28 26 15871 114.57200000 3178793905 3178793905 4.66700000
37.03133011 -77.67267609 -3.50571108 28 27 15871 86.12000000 3178793905 3178793905 -2.33300000
36.88587189 -120.04849243 -4.38561058 28 28 15872 125.66400000 3178793907 3178793907 -2.00000000
37.29284286 -89.23889160 -2.25056934 28 31 15872 96.74400000 3178793910 3178793910 -1.33300000
2.18216181 -6.06118774 -3.00397062 4 0 15880 7.10800000 3178793930 3178793930 -25.00000000
37.90866089 -79.83544922 -1.54265308 28 1 15880 88.39200000 3178793930 3178793930 -1.00000000
37.54005432 -104.32864380 -3.22683835 28 2 15881 110.92400000 3178793933 3178793933 -1.66700000
3.78347301 -9.09368324 -2.75721669 17 3 15881 10.22800000 3178793933 3178793933 -15.63900000
5.42222834 -15.07732964 -3.20455647 4 4 15882 16.34000000 3178793935 3178793935 -11.31000000
40.07603455 -96.37129211 0.00000000 28 5 15882 104.37200000 3178793935 3178793935 0.00000000
36.87837982 -120.77451324 -1.47012913 29 6 15882 126.28800000 3178793937 3178793937 -0.66700000
7.59728289 -18.26927185 -3.07823849 2 7 15882 20.02400000 3178793937 3178793937 -8.84300000
8.61258793 -23.96174240 -3.24105287 3 8 15883 25.66800000 3178793940 3178793940 -7.25400000
38.53522873 -81.26479340 0.52272350 28 9 15883 89.94000000 3178793940 3178793940 0.33300000
41.14511108 -114.53577423 -0.70733315 28 10 15884 121.70400000 3178793942 3178793942 -0.33300000
10.90777779 -26.25590324 -3.06254721 3 11 15884 28.59600000 3178793942 3178793942 -6.14800000
10.76456165 -35.31950378 -3.44673777 5 12 15885 37.08400000 3178793944 3178793944 -5.33300000
40.55147552 -97.65879059 2.46058893 28 13 15885 105.77200000 3178793944 3178793944 1.33300000
41.74001694 -137.03854370 1.66774809 28 14 15886 143.26400000 3178793947 3178793947 0.66700000
17.20622635 -41.45761490 -3.13876224 14 15 15886 44.99600000 3178793947 3178793947 -4.00000000
13.63775635 -38.02602768 -3.29786491 8 16 15887 40.53200000 3178793949 3178793949 -4.66700000
38.90247726 -82.18741608 2.64630771 28 17 15887 90.96800000 3178793949 3178793949 1.66700000
40.09666443 -111.80115509 2.07320619 28 18 15887 118.79200000 3178793951 3178793951 1.00000000
19.68776131 -41.59339905 -2.94921017 16 19 15887 46.11200000 3178793951 3178793951 -3.66700000
17.76036644 -58.38297272 -3.55392218 28 20 15888 61.12800000 3178793954 3178793954 -3.33300000
40.28830338 -97.16861725 6.12599230 42 21 15888 105.36800000 3178793954 3178793954 3.33300000
39.41048813 -110.00872040 4.76079798 28 22 15889 116.95200000 3178793956 3178793956 2.33300000
19.54676247 -47.16677094 -2.37829876 16 23 15889 51.11200000 3178793956 3178793956 -2.66700000
19.41835403 -54.23336029 -3.01894736 25 24 15890 57.68400000 3178793958 3178793958 -3.00000000
38.68978119 -108.11582184 9.37416363 28 26 15891 115.21200000 3178793960 3178793960 4.66700000
36.87948990 -78.05442047 -3.51710892 28 27 15891 86.40000000 3178793960 3178793960 -2.33300000
36.67669678 -120.86889648 -4.41087770 28 28 15892 126.38800000 3178793963 3178793963 -2.00000000
37.29259109 -90.16577911 -2.27048254 28 31 15893 97.60000000 3178793965 3178793965 -1.33300000
2.24987817 -6.32188368 -3.12906551 7 0 15901 7.40400000 3178793986 3178793986 -25.00000000
37.54089737 -79.81462097 -1.53958154 28 1 15901 88.21600000 3178793986 3178793986 -1.00000000
37.48971939 -105.39977264 -3.25569630 28 2 15902 111.91600000 3178793988 3178793988 -1.66700000
3.78238297 -9.18584824 -2.78093934 15 3 15902 10.31600000 3178793988 3178793988 -15.63900000
5.37218571 -15.11188412 -3.20769429 4 4 15903 16.35600000 3178793990 3178793990 -11.31000000
38.37222672 -93.23653412 0.00000000 28 5 15903 100.82400000 3178793990 3178793990 0.00000000
36.50009918 -121.12332916 -1.47273672 29 6 15903 126.51200000 3178793993 3178793993 -0.66700000
7.54531431 -18.33354568 -3.08438754 2 7 15903 20.06400000 3178793993 3178793993 -8.84300000
8.56190300 -24.09784126 -3.25519490 3 8 15904 25.78000000 3178793995 3178793995 -7.25400000
38.35276031 -81.65167236 0.52430433 28 9 15904 90.21200000 3178793995 3178793995 0.33300000
50.56297684 -142.39042664 -0.87820339 28 10 15905 151.10400000 3178793997 3178793997 -0.33300000
10.81298351 -26.29938316 -3.06297565 3 11 15905 28.60000000 3178793997 3178793997 -6.14800000
10.65453815 -35.42355728 -3.45305800 5 12 15906 37.15200000 3178794000 3178794000 -5.33300000
40.78910446 -99.25668335 2.49706554 28 13 15906 107.34000000 3178794000 3178794000 1.33300000
41.20868301 -137.09484863 1.66658401 28 14 15907 143.16400000 3178794002 3178794002 0.66700000
17.12541580 -41.69388199 -3.15187645 7 15 15907 45.18400000 3178794002 3178794002 -4.00000000
13.57555485 -38.29369736 -3.31674147 8 16 15908 40.76400000 3178794004 3178794004 -4.66700000
37.69799423 -80.40352631 2.58440304 28 17 15908 88.84000000 3178794004 3178794004 1.66700000
40.69155121 -114.78205109 2.12570310 28 18 15908 121.80000000 3178794007 3178794007 1.00000000
19.67074776 -41.95441818 -2.96967649 16 19 15908 46.43200000 3178794007 3178794007 -3.66700000
17.67600441 -58.87985611 -3.58020091 28 20 15909 61.58000000 3178794009 3178794009 -3.33300000
39.79394531 -96.97944641 6.10482979 42 21 15909 105.00400000 3178794009 3178794009 3.33300000
39.04037476 -110.24661255 4.76486874 28 22 15910 117.05200000 3178794011 3178794011 2.33300000
19.52537346 -47.60778046 -2.39691114 16 23 15910 51.51200000 3178794011 3178794011 -2.66700000
19.40469933 -54.82759094 -3.04804611 25 24 15911 58.24000000 3178794013 3178794013 -3.00000000
45.15350723 -110.15038300 14.61700916 28 25 15911 119.94000000 3178794013 3178794013 7.00000000
38.59239197 -109.10256958 9.44739151 28 26 15912 116.11200000 3178794016 3178794016 4.66700000
36.74224472 -78.50761414 -3.53143811 28 27 15912 86.75200000 3178794016 3178794016 -2.33300000
36.91001892 -123.26195526 -4.49324036 28 28 15913 128.74800000 3178794018 3178794018 -2.00000000
37.51023483 -91.64157867 -2.30416751 28 31 15914 99.04800000 3178794020 3178794020 -1.33300000
2.14715838 -6.10058451 -3.01580381 4 0 15921 7.13600000 3178794041 3178794041 -25.00000000
37.26882172 -79.95967865 -1.53986073 28 1 15921 88.23200000 3178794041 3178794041 -1.00000000
37.52889633 -106.68792725 -3.29141927 28 2 15922 113.14400000 3178794043 3178794043 -1.66700000
3.78519511 -9.28460026 -2.80681872 21 3 15922 10.41200000 3178794043 3178794043 -15.63900000
5.32330561 -15.14164543 -3.21004772 6 4 15923 16.36800000 3178794046 3178794046 -11.31000000
38.04200745 -93.35879517 0.00000000 28 5 15923 100.81200000 3178794046 3178794046 0.00000000
36.81052780 -123.71501923 -1.50267756 29 6 15923 129.08400000 3178794048 3178794048 -0.66700000
7.48574686 -18.37075233 -3.08623219 2 7 15923 20.07600000 3178794048 3178794048 -8.84300000
8.48825741 -24.15752983 -3.25923538 3 8 15924 25.81200000 3178794050 3178794050 -7.25400000
38.04725266 -81.74153900 0.52402538 28 9 15924 90.16400000 3178794050 3178794050 0.33300000
50.38371277 -143.47181702 -0.88378286 28 10 15925 152.06400000 3178794053 3178794053 -0.33300000
10.73760986 -26.37748528 -3.06768775 3 11 15925 28.64400000 3178794053 3178794053 -6.14800000
10.57277298 -35.60179138 -3.46681380 5 12 15926 37.30000000 3178794055 3178794055 -5.33300000
40.06712341 -98.47615051 2.47389531 28 13 15926 106.34400000 3178794055 3178794055 1.33300000
40.47383118 -136.37512207 1.65610707 28 14 15927 142.26400000 3178794057 3178794057 0.66700000
17.12708282 -42.11564255 -3.17922115 7 15 15927 45.57600000 3178794057 3178794057 -4.00000000
13.50247478 -38.51391220 -3.33171248 8 16 15928 40.94800000 3178794060 3178794060 -4.66700000
38.61660767 -83.11637878 2.66725278 28 17 15928 91.68800000 3178794060 3178794060 1.66700000
19.66041756 -42.31605911 -2.99039865 17 19 15928 46.75600000 3178794062 3178794062 -3.66700000
17.47717667 -58.96416855 -3.58159614 28 20 15929 61.60400000 3178794064 3178794064 -3.33300000
40.36148834 -99.34860992 6.24506092 42 21 15929 107.41600000 3178794064 3178794064 3.33300000
40.43331909 -115.45943451 4.98403645 28 22 15930 122.43600000 3178794066 3178794066 2.33300000
19.51691628 -48.06436539 -2.41645432 16 23 15930 51.93200000 3178794066 3178794066 -2.66700000
19.39266205 -55.40774536 -3.07651687 26 24 15931 58.78400000 3178794069 3178794069 -3.00000000
43.69673538 -107.66598511 14.26700020 28 25 15931 117.06800000 3178794069 3178794069 7.00000000
40.07528305 -114.56523132 9.90824032 28 26 15932 121.77600000 3178794071 3178794071 4.66700000
36.80427170 -79.36054230 -3.56400371 28 27 15932 87.55200000 3178794071 3178794071 -2.33300000
36.72773743 -124.22958374 -4.52381229 28 28 15933 129.62400000 3178794073 3178794073 -2.00000000
37.45144653 -92.41683197 -2.32035875 28 31 15934 99.74400000 3178794076 3178794076 -1.33300000
2.15076065 -6.17614317 -3.04961348 5 0 15940 7.21600000 3178794096 3178794096 -25.00000000
37.85230255 -81.91988373 -1.57518435 28 1 15940 90.25600000 3178794096 3178794096 -1.00000000
37.37860870 -107.39708710 -3.30945563 28 2 15941 113.76400000 3178794099 3178794099 -1.66700000
3.72553897 -9.22566795 -2.78525257 16 3 15941 10.33200000 3178794099 3178794099 -15.63900000
5.28208494 -15.18514729 -3.21553922 6 4 15942 16.39600000 3178794101 3178794101 -11.31000000
39.57817459 -98.05795288 0.00000000 28 5 15942 105.74400000 3178794101 3178794101 0.00000000
36.72266388 -124.93389893 -1.51599503 29 6 15942 130.22800000 3178794103 3178794103 -0.66700000
7.43662071 -18.42479706 -3.09115148 2 7 15942 20.10800000 3178794103 3178794103 -8.84300000
8.40940380 -24.18929291 -3.25974035 3 8 15943 25.81600000 3178794106 3178794106 -7.25400000
37.77262497 -81.85999298 0.52397889 28 9 15943 90.15600000 3178794106 3178794106 0.33300000
10.66049099 -26.43876648 -3.07068658 3 11 15944 28.67200000 3178794108 3178794108 -6.14800000
10.49725819 -35.78187943 -3.48094130 5 12 15945 37.45200000 3178794110 3178794110 -5.33300000
39.61179352 -98.28949738 2.46589279 28 13 15945 106.00000000 3178794110 3178794110 1.33300000
40.04050446 -136.57383728 1.65689862 28 14 15946 142.33200000 3178794112 3178794112 0.66700000
