# .PCD v0.7 - Point Cloud Data file format
VERSION 0.7
FIELDS x y z intensity laser_id azimuth distance_m adjustedtime timestamp vertical_angle
SIZE 4 4 4 1 1 2 8 8 4 8
TYPE F F F U U U F U U F
COUNT 1 1 1 1 1 1 1 1 1 1
WIDTH 522
HEIGHT 1
VIEWPOINT 0 0 0 1 0 0 0
POINTS 522
DATA ascii
12.16979694 10.43446255 -2.04049444 2 8 4799 16.16000000 3176263207 3176263207 -7.25400000
40.40481567 42.14847565 0.33934602 50 9 4799 58.38800000 3176263207 3176263207 0.33300000
39.62722015 33.96463394 -0.30333540 13 10 4800 52.19200000 3176263210 3176263210 -0.33300000
12.85864544 12.15981674 -1.90632749 1 11 4800 17.80000000 3176263210 3176263210 -6.14800000
15.36228752 11.91191769 -1.81464005 2 12 4801 19.52400000 3176263212 3176263212 -5.33300000
40.27413940 38.07204819 1.28961539 40 13 4801 55.43600000 3176263212 3176263212 1.33300000
40.17330933 31.13915825 0.59173954 54 14 4802 50.83200000 3176263214 3176263214 0.66700000
16.58900642 15.67647839 -1.59602809 2 15 4802 22.88000000 3176263214 3176263214 -4.00000000
15.90804672 13.62040234 -1.70963025 2 16 4803 21.01200000 3176263217 3176263217 -4.66700000
39.34623337 40.98689270 1.65350592 22 17 4803 56.84000000 3176263217 3176263217 1.66700000
40.14697266 34.37366867 0.92253423 36 18 4803 52.86000000 3176263219 3176263219 1.00000000
16.57818222 17.26945877 -1.53421342 3 19 4803 23.98800000 3176263219 3176263219 -3.66700000
19.37124062 15.00422478 -1.42696416 3 20 4804 24.54400000 3176263221 3176263221 -3.33300000
39.72581863 37.51433945 3.18206501 38 21 4804 54.73200000 3176263221 3176263221 3.33300000
39.80077744 34.05318832 2.13403845 45 22 4805 52.42400000 3176263224 3176263224 2.33300000
19.53688622 18.44284630 -1.25150108 4 23 4805 26.89600000 3176263224 3176263224 -2.66700000
19.93203545 17.04764748 -1.37455153 4 24 4806 26.26400000 3176263226 3176263226 -3.00000000
99.25171661 93.66099548 16.75605965 28 25 4806 137.49200000 3176263226 3176263226 7.00000000
42.53770828 36.36917114 4.56877804 43 26 4807 56.15200000 3176263228 3176263228 4.66700000
20.11151886 20.92087364 -1.18230224 8 27 4807 29.04400000 3176263228 3176263228 -2.33300000
20.81934929 16.10263443 -0.91911316 10 28 4808 26.33600000 3176263230 3176263230 -2.00000000
20.92692375 19.73433113 -0.66932708 18 31 4808 28.77200000 3176263233 3176263233 -1.33300000
3.98415685 3.39558220 -2.44104314 5 0 4816 5.77600000 3176263253 3176263253 -25.00000000
20.93255615 21.70660400 -0.52636456 13 1 4816 30.16000000 3176263253 3176263253 -1.00000000
20.86323929 17.77485275 -0.79766244 12 2 4817 27.42000000 3176263256 3176263256 -1.66700000
6.57293034 6.17887211 -2.52538204 6 3 4817 9.36800000 3176263256 3176263256 -15.63900000
8.97027683 7.63970470 -2.35654545 1 4 4818 12.01600000 3176263258 3176263258 -11.31000000
40.22879028 37.80378342 0.00000000 31 5 4818 55.20400000 3176263258 3176263258 0.00000000
34.83000183 26.84208488 -0.51192826 11 6 4818 43.97600000 3176263260 3176263260 -0.66700000
10.10686684 9.49762058 -2.15771842 2 7 4818 14.03600000 3176263260 3176263260 -8.84300000
12.24542332 10.42535782 -2.04706049 2 8 4819 16.21200000 3176263263 3176263263 -7.25400000
40.39890289 41.84890366 0.33806738 49 9 4819 58.16800000 3176263263 3176263263 0.33300000
39.60236740 33.70425797 -0.30224276 13 10 4820 52.00400000 3176263265 3176263265 -0.33300000
12.89521503 12.10941315 -1.90547073 1 11 4820 17.79200000 3176263265 3176263265 -6.14800000
15.39746284 11.85336208 -1.81389642 2 12 4821 19.51600000 3176263267 3176263267 -5.33300000
40.24643326 37.78070068 1.28449750 40 13 4821 55.21600000 3176263267 3176263267 1.33300000
40.25640106 30.97922325 0.59136701 18 14 4822 50.80000000 3176263270 3176263270 0.66700000
16.64653587 15.62120628 -1.59630716 2 15 4822 22.88400000 3176263270 3176263270 -4.00000000
15.94638157 13.55704308 -1.70865393 2 16 4823 21.00000000 3176263272 3176263272 -4.66700000
39.66136169 41.02753067 1.66072035 46 17 4823 57.08800000 3176263272 3176263272 1.66700000
40.26671219 34.23332214 0.92253423 36 18 4823 52.86000000 3176263274 3176263274 1.00000000
16.63003922 17.20287514 -1.53344595 3 19 4823 23.97600000 3176263274 3176263274 -3.66700000
19.39817238 14.91704178 -1.42510366 3 20 4824 24.51200000 3176263277 3176263277 -3.33300000
39.91186905 37.42734146 3.18648338 26 21 4824 54.80800000 3176263277 3176263277 3.33300000
39.81279755 33.82348251 2.12833953 29 22 4825 52.28400000 3176263279 3176263279 2.33300000
19.58365440 18.35814285 -1.25038433 4 23 4825 26.87200000 3176263279 3176263279 -2.66700000
19.98533249 16.97279549 -1.37413287 9 24 4826 26.25600000 3176263281 3176263281 -3.00000000
97.24308014 91.12588501 16.36315346 28 25 4826 134.26800000 3176263281 3176263281 7.00000000
42.81636047 36.34947586 4.58505058 44 26 4827 56.35200000 3176263283 3176263283 4.66700000
20.17886353 20.84480095 -1.18197656 8 27 4827 29.03600000 3176263283 3176263283 -2.33300000
20.81835938 15.98603821 -0.91660041 10 28 4828 26.26400000 3176263286 3176263286 -2.00000000
20.92321014 19.58644295 -0.66690773 18 31 4829 28.66800000 3176263288 3176263288 -1.33300000
3.98491621 3.37228680 -2.43428111 6 0 4836 5.76000000 3176263309 3176263309 -25.00000000
20.92182541 21.54445839 -0.52420050 13 1 4836 30.03600000 3176263309 3176263309 -1.00000000
20.86410713 17.65027237 -0.79533517 12 2 4837 27.34000000 3176263311 3176263311 -1.66700000
6.59164286 6.15326214 -2.52430367 6 3 4837 9.36400000 3176263311 3176263311 -15.63900000
9.00287914 7.61341143 -2.35811424 1 4 4838 12.02400000 3176263313 3176263313 -11.31000000
40.24645233 37.55669785 0.00000000 30 5 4838 55.04800000 3176263313 3176263313 0.00000000
34.85042191 26.66444206 -0.51085728 11 6 4838 43.88400000 3176263316 3176263316 -0.66700000
10.13128853 9.45419312 -2.15587378 2 7 4838 14.02400000 3176263316 3176263316 -8.84300000
12.28174019 10.38255024 -2.04706049 2 8 4839 16.21200000 3176263318 3176263318 -7.25400000
40.39417648 41.55275345 0.33681202 48 9 4839 57.95200000 3176263318 3176263318 0.33300000
39.59146118 33.45737839 -0.30126637 25 10 4840 51.83600000 3176263320 3176263320 -0.33300000
12.94904041 12.07517529 -1.90718424 1 11 4840 17.80800000 3176263320 3176263320 -6.14800000
15.44190884 11.80196095 -1.81426823 2 12 4841 19.52000000 3176263323 3176263323 -5.33300000
40.23766327 37.50910187 1.28003109 26 13 4841 55.02400000 3176263323 3176263323 1.33300000
40.45010757 30.90407562 0.59262425 18 14 4842 50.90800000 3176263325 3176263325 0.66700000
16.68928528 15.55212307 -1.59519100 2 15 4842 22.86800000 3176263325 3176263325 -4.00000000
15.98446751 13.49358273 -1.70767760 2 16 4843 20.98800000 3176263327 3176263327 -4.66700000
39.91868210 41.00629807 1.66549122 46 17 4843 57.25200000 3176263327 3176263327 1.66700000
40.30956268 34.02806091 0.92078894 53 18 4843 52.76000000 3176263330 3176263330 1.00000000
16.68720245 17.14186096 -1.53319013 3 19 4843 23.97200000 3176263330 3176263330 -3.66700000
19.42790604 14.83227634 -1.42347574 3 20 4844 24.48400000 3176263332 3176263332 -3.33300000
39.86693192 37.12451172 3.17253017 25 21 4844 54.56800000 3176263332 3176263332 3.33300000
39.74121857 33.52452850 2.11824393 28 22 4845 52.03600000 3176263334 3176263334 2.33300000
19.62714577 18.27061272 -1.24908149 4 23 4845 26.84400000 3176263334 3176263334 -2.66700000
20.04140282 16.90035439 -1.37392354 9 24 4846 26.25200000 3176263336 3176263336 -3.00000000
43.45423126 40.43673325 7.28827429 27 25 4846 59.80400000 3176263336 3176263336 7.00000000
42.61378098 35.92228699 4.54990149 43 26 4847 55.92000000 3176263339 3176263339 4.66700000
20.23476410 20.75706482 -1.18099964 8 27 4847 29.01200000 3176263339 3176263339 -2.33300000
20.81681061 15.86964703 -0.91408759 10 28 4848 26.19200000 3176263341 3176263341 -2.00000000
20.92408562 19.45066833 -0.66476750 17 31 4849 28.57600000 3176263343 3176263343 -1.33300000
3.99111247 3.35369182 -2.43090034 6 0 4856 5.75200000 3176263364 3176263364 -25.00000000
20.91301537 21.38551521 -0.52210617 12 1 4856 29.91600000 3176263364 3176263364 -1.00000000
20.86129761 17.52332878 -0.79289162 12 2 4857 27.25600000 3176263366 3176263366 -1.66700000
6.61308146 6.13021564 -2.52430367 6 3 4857 9.36400000 3176263366 3176263366 -15.63900000
9.00837421 7.56428337 -2.35262299 1 4 4858 11.99600000 3176263369 3176263369 -11.31000000
40.26874542 37.31538773 0.00000000 30 5 4858 54.90000000 3176263369 3176263369 0.00000000
34.94328690 26.54262924 -0.51085728 11 6 4858 43.88400000 3176263371 3176263371 -0.66700000
10.15263176 9.40802479 -2.15341401 2 7 4858 14.00800000 3176263371 3176263371 -8.84300000
12.31182861 10.33451366 -2.04605031 2 8 4859 16.20400000 3176263373 3176263373 -7.25400000
40.40746689 41.27715683 0.33571938 47 9 4859 57.76400000 3176263373 3176263373 0.33300000
39.66817474 33.28555298 -0.30096415 12 10 4860 51.78400000 3176263376 3176263376 -0.33300000
12.98819351 12.02719879 -1.90675581 1 11 4860 17.80400000 3176263376 3176263376 -6.14800000
15.48301125 11.74798679 -1.81426823 2 12 4861 19.52000000 3176263378 3176263378 -5.33300000
40.39182663 37.39014816 1.28077543 13 13 4861 55.05600000 3176263378 3176263378 1.33300000
40.50675201 30.72401619 0.59187925 18 14 4862 50.84400000 3176263380 3176263380 0.66700000
16.74054337 15.49106121 -1.59491205 2 15 4862 22.86400000 3176263380 3176263380 -4.00000000
16.03147125 13.43770409 -1.70767760 2 16 4863 20.98800000 3176263383 3176263383 -4.66700000
40.06717300 40.87241745 1.66572392 46 17 4863 57.26000000 3176263383 3176263383 1.66700000
40.29629898 33.77667236 0.91778713 35 18 4863 52.58800000 3176263385 3176263385 1.00000000
16.73855400 17.07495499 -1.53242266 3 19 4863 23.96000000 3176263385 3176263385 -3.66700000
19.47001457 14.75713348 -1.42277813 3 20 4864 24.47200000 3176263387 3176263387 -3.33300000
39.94936752 36.94174957 3.16880918 38 21 4864 54.50400000 3176263387 3176263387 3.33300000
40.19195938 33.66533279 2.13599253 15 22 4865 52.47200000 3176263389 3176263389 2.33300000
19.67906570 18.19114113 -1.24833703 4 23 4865 26.82800000 3176263389 3176263389 -2.66700000
20.08496094 16.81747246 -1.37287676 9 24 4866 26.23200000 3176263392 3176263392 -3.00000000
43.48431396 40.18241501 7.26975012 54 25 4866 59.65200000 3176263392 3176263392 7.00000000
42.68388367 35.72725677 4.54404306 64 26 4867 55.84800000 3176263394 3176263394 4.66700000
20.31269455 20.69200897 -1.18132532 8 27 4867 29.02000000 3176263394 3176263394 -2.33300000
20.81789207 15.75587368 -0.91171443 10 28 4868 26.12400000 3176263396 3176263396 -2.00000000
20.92427063 19.31512451 -0.66262728 17 31 4869 28.48400000 3176263399 3176263399 -1.33300000
4.00001097 3.33741736 -2.42920971 6 0 4876 5.74800000 3176263419 3176263419 -25.00000000
20.92580223 21.24969292 -0.52057040 12 1 4876 29.82800000 3176263419 3176263419 -1.00000000
20.85785866 17.39662361 -0.79044801 11 2 4877 27.17200000 3176263422 3176263422 -1.66700000
6.63160563 6.10448551 -2.52322531 6 3 4877 9.36000000 3176263422 3176263422 -15.63900000
9.03472328 7.53279209 -2.35262299 1 4 4878 11.99600000 3176263424 3176263424 -11.31000000
40.27218628 37.05812836 0.00000000 29 5 4878 54.72800000 3176263424 3176263424 0.00000000
35.00698471 26.39881897 -0.51043820 11 6 4878 43.84800000 3176263426 3176263426 -0.66700000
10.18541050 9.37252903 -2.15341401 2 7 4878 14.00800000 3176263426 3176263426 -8.84300000
12.34477997 10.28893375 -2.04554534 2 8 4879 16.20000000 3176263429 3176263429 -7.25400000
40.34631729 40.92791367 0.33402231 46 9 4879 57.47200000 3176263429 3176263429 0.33300000
39.64583206 33.03166199 -0.29991800 24 10 4880 51.60400000 3176263431 3176263431 -0.33300000
13.02131462 11.97371292 -1.90547073 1 11 4880 17.79200000 3176263431 3176263431 -6.14800000
15.51438141 11.68668079 -1.81315291 2 12 4881 19.50800000 3176263433 3176263433 -5.33300000
40.21297073 36.96477127 1.27100492 26 13 4881 54.63600000 3176263433 3176263433 1.33300000
40.66167831 30.61852455 0.59257770 18 14 4882 50.90400000 3176263435 3176263435 0.66700000
16.80332947 15.44063091 -1.59574914 2 15 4882 22.87600000 3176263435 3176263435 -4.00000000
16.08134460 13.38421249 -1.70800304 2 16 4883 20.99200000 3176263438 3176263438 -4.66700000
40.10005188 40.62133789 1.66118586 23 17 4883 57.10400000 3176263438 3176263438 1.66700000
40.25103378 33.50020981 0.91408724 34 18 4883 52.37600000 3176263440 3176263440 1.00000000
16.79524994 17.01358223 -1.53216684 3 19 4883 23.95600000 3176263440 3176263440 -3.66700000
19.53736305 14.70108509 -1.42394090 3 20 4884 24.49200000 3176263442 3176263442 -3.33300000
40.03689575 36.76425934 3.16555333 37 21 4884 54.44800000 3176263442 3176263442 3.33300000
40.04189301 33.30249023 2.12182617 14 22 4885 52.12400000 3176263445 3176263445 2.33300000
19.73655701 18.11693382 -1.24796474 7 23 4885 26.82000000 3176263445 3176263445 -2.66700000
20.02067757 16.64511108 -1.36450303 9 24 4886 26.07200000 3176263447 3176263447 -3.00000000
43.53070450 39.94448471 7.25415087 27 25 4886 59.52400000 3176263447 3176263447 7.00000000
42.30243301 35.15758896 4.49034262 40 26 4887 55.18800000 3176263449 3176263449 4.66700000
20.37637138 20.61245155 -1.18083680 8 27 4887 29.00800000 3176263449 3176263449 -2.33300000
20.80884361 15.63508320 -0.90892249 10 28 4888 26.04400000 3176263452 3176263452 -2.00000000
20.92081833 19.17711639 -0.66039401 21 31 4889 28.38800000 3176263454 3176263454 -1.33300000
4.00326157 3.31649613 -2.42413831 6 0 4896 5.73600000 3176263475 3176263475 -25.00000000
20.92099762 21.09700394 -0.51861572 12 1 4896 29.71600000 3176263475 3176263475 -1.00000000
20.86610794 17.28035545 -0.78846985 19 2 4897 27.10400000 3176263477 3176263477 -1.66700000
6.65287399 6.08129930 -2.52322531 6 3 4897 9.36000000 3176263477 3176263477 -15.63900000
9.06700516 7.50621176 -2.35419202 1 4 4898 12.00400000 3176263479 3176263479 -11.31000000
40.28908920 36.81479263 0.00000000 44 5 4898 54.57600000 3176263479 3176263479 0.00000000
35.07010269 26.25488663 -0.51001912 11 6 4898 43.81200000 3176263482 3176263482 -0.66700000
10.21222878 9.33158493 -2.15218425 2 7 4898 14.00000000 3176263482 3176263482 -8.84300000
12.36227798 10.23060036 -2.04251480 2 8 4899 16.17600000 3176263484 3176263484 -7.25400000
40.30012894 40.59663391 0.33246472 46 9 4899 57.20400000 3176263484 3176263484 0.33300000
39.52974319 32.70184708 -0.29817441 23 10 4900 51.30400000 3176263486 3176263486 -0.33300000
13.06303215 11.92818737 -1.90547073 1 11 4900 17.79200000 3176263486 3176263486 -6.14800000
15.55508137 11.63245392 -1.81315291 2 12 4901 19.50800000 3176263488 3176263488 -5.33300000
40.22066116 36.71364212 1.26718974 25 13 4901 54.47200000 3176263488 3176263488 1.33300000
40.75549316 30.46682358 0.59239143 18 14 4902 50.88800000 3176263491 3176263491 0.66700000
16.84238625 15.36843491 -1.59435391 2 15 4902 22.85600000 3176263491 3176263491 -4.00000000
16.12182045 13.32291698 -1.70735216 2 16 4903 20.98400000 3176263493 3176263493 -4.66700000
39.92307663 40.16069031 1.64803696 44 17 4903 56.65200000 3176263493 3176263493 1.66700000
40.39239120 33.37988281 0.91464573 34 18 4903 52.40800000 3176263495 3176263495 1.00000000
16.83765221 16.93786621 -1.53063178 3 19 4903 23.93200000 3176263495 3176263495 -3.66700000
19.56936455 14.61845875 -1.42254555 3 20 4904 24.46800000 3176263498 3176263498 -3.33300000
39.96728516 36.44401169 3.14997220 37 21 4904 54.18000000 3176263498 3176263498 3.33300000
40.19795990 33.19559860 2.12394309 29 22 4905 52.17600000 3176263500 3176263500 2.33300000
19.78786469 18.03716278 -1.24722028 7 23 4905 26.80400000 3176263500 3176263500 -2.66700000
20.07865906 16.57512474 -1.36450303 9 24 4906 26.07200000 3176263502 3176263502 -3.00000000
43.34119415 39.49279785 7.19955349 52 25 4906 59.07600000 3176263502 3176263502 7.00000000
42.82156754 35.33704758 4.53232670 42 26 4907 55.70400000 3176263505 3176263505 4.66700000
20.44537735 20.53836823 -1.18067396 8 27 4907 29.00400000 3176263505 3176263505 -2.33300000
20.80561638 15.51932812 -0.90640974 10 28 4908 25.97200000 3176263507 3176263507 -2.00000000
20.92220497 19.05109596 -0.65843993 21 31 4908 28.30400000 3176263509 3176263509 -1.33300000
4.00921440 3.29789591 -2.42075729 6 0 4916 5.72800000 3176263530 3176263530 -25.00000000
20.92103577 20.95026779 -0.51680064 12 1 4916 29.61200000 3176263530 3176263530 -1.00000000
20.85835648 17.15154648 -0.78590989 23 2 4917 27.01600000 3176263532 3176263532 -1.66700000
6.66835642 6.05286169 -2.52106881 6 3 4917 9.35200000 3176263532 3176263532 -15.63900000
9.08406162 7.46704388 -2.35183859 1 4 4918 11.99200000 3176263535 3176263535 -11.31000000
40.27220154 36.54222488 0.00000000 29 5 4918 54.38000000 3176263535 3176263535 0.00000000
35.24636078 26.18580437 -0.51118326 11 6 4919 43.91200000 3176263537 3176263537 -0.66700000
10.25221729 9.29940414 -2.15341401 2 7 4919 14.00800000 3176263537 3176263537 -8.84300000
12.41937447 10.20501995 -2.04605031 2 8 4919 16.20400000 3176263539 3176263539 -7.25400000
40.33130646 40.34538651 0.33155805 45 9 4919 57.04800000 3176263539 3176263539 0.33300000
39.52619934 32.46718597 -0.29729101 23 10 4920 51.15200000 3176263541 3176263541 -0.33300000
13.08985806 11.86915874 -1.90332878 1 11 4920 17.77200000 3176263541 3176263541 -6.14800000
15.60518456 11.58520794 -1.81426823 2 12 4921 19.52000000 3176263544 3176263544 -5.33300000
40.29523849 36.52467728 1.26551485 25 13 4921 54.40000000 3176263544 3176263544 1.33300000
40.69778824 30.20281029 0.59001666 17 14 4922 50.68400000 3176263546 3176263546 0.66700000
16.88114548 15.29615402 -1.59295881 2 15 4922 22.83600000 3176263546 3176263546 -4.00000000
16.16822815 13.26656055 -1.70735216 2 16 4923 20.98400000 3176263548 3176263548 -4.66700000
39.83106613 39.78937531 1.63849521 21 17 4923 56.32400000 3176263548 3176263548 1.66700000
40.35366821 33.09972382 0.91101563 34 18 4924 52.20000000 3176263551 3176263551 1.00000000
16.88549614 16.86193466 -1.52935266 3 19 4924 23.91200000 3176263551 3176263551 -3.66700000
19.62027359 14.55006027 -1.42254555 3 20 4924 24.46800000 3176263553 3176263553 -3.33300000
39.99953461 36.21850967 3.14253044 37 21 4924 54.05200000 3176263553 3176263553 3.33300000
40.10652161 32.88529587 2.11303353 42 22 4925 51.90800000 3176263555 3176263555 2.33300000
19.82108307 17.94116592 -1.24535894 7 23 4925 26.76400000 3176263555 3176263555 -2.66700000
20.12094688 16.49227524 -1.36345637 9 24 4926 26.05200000 3176263558 3176263558 -3.00000000
43.13729095 39.03227234 7.14300585 51 25 4926 58.61200000 3176263558 3176263558 7.00000000
43.06800461 35.28842926 4.54534483 43 26 4927 55.86400000 3176263560 3176263560 4.66700000
20.50562859 20.45558357 -1.18002260 12 27 4927 28.98800000 3176263560 3176263560 -2.33300000
20.81789780 15.41568184 -0.90459496 10 28 4928 25.92000000 3176263562 3176263562 -2.00000000
20.91145706 18.90821457 -0.65602058 24 31 4928 28.20000000 3176263565 3176263565 -1.33300000
4.01732111 3.28228903 -2.41906691 7 0 4935 5.72400000 3176263585 3176263585 -25.00000000
20.91950989 20.81026077 -0.51505542 12 1 4935 29.51200000 3176263585 3176263585 -1.00000000
20.85628128 17.03422737 -0.78369898 11 2 4936 26.94000000 3176263588 3176263588 -1.66700000
6.68553114 6.02813625 -2.51999044 6 3 4936 9.34800000 3176263588 3176263588 -15.63900000
9.12396431 7.44928217 -2.35576081 1 4 4937 12.01200000 3176263590 3176263590 -11.31000000
40.26836777 36.29599762 0.00000000 42 5 4937 54.21200000 3176263590 3176263590 0.00000000
35.55186462 26.23025513 -0.51434964 11 6 4938 44.18400000 3176263592 3176263592 -0.66700000
10.27418995 9.25741768 -2.15156937 2 7 4938 13.99600000 3176263592 3176263592 -8.84300000
12.44699955 10.15876198 -2.04504013 2 8 4938 16.19600000 3176263594 3176263594 -7.25400000
40.39110565 40.13811493 0.33095363 45 9 4938 56.94400000 3176263594 3176263594 0.33300000
39.51897430 32.24237442 -0.29643086 11 10 4939 51.00400000 3176263597 3176263597 -0.33300000
13.12914562 11.82568645 -1.90332878 1 11 4939 17.77200000 3176263597 3176263597 -6.14800000
15.63389969 11.52630520 -1.81315291 2 12 4940 19.50800000 3176263599 3176263599 -5.33300000
40.26160431 36.25171280 1.26067615 37 13 4940 54.19200000 3176263599 3176263599 1.33300000
40.74942398 30.03209114 0.58931822 35 14 4941 50.62400000 3176263601 3176263601 0.66700000
16.93177605 15.24008942 -1.59295881 2 15 4941 22.83600000 3176263601 3176263601 -4.00000000
16.20904160 13.21035290 -1.70702660 2 16 4942 20.98000000 3176263604 3176263604 -4.66700000
39.95711899 39.65143967 1.63826251 43 17 4942 56.31600000 3176263604 3176263604 1.66700000
39.98932648 32.59125900 0.90047437 32 18 4942 51.59600000 3176263606 3176263606 1.00000000
16.88455009 16.75538063 -1.52449191 3 19 4942 23.83600000 3176263606 3176263606 -3.66700000
19.66520119 14.48254871 -1.42231297 3 20 4943 24.46400000 3176263608 3176263608 -3.33300000
39.83736801 35.83197784 3.12043762 24 21 4943 53.67200000 3176263608 3176263608 3.33300000
39.95193863 32.53758621 2.09919310 27 22 4944 51.56800000 3176263611 3176263611 2.33300000
19.86264229 17.85931015 -1.24424219 7 23 4944 26.74000000 3176263611 3176263611 -2.66700000
20.16623497 16.41789627 -1.36282825 9 24 4945 26.04000000 3176263613 3176263613 -3.00000000
41.66019821 37.44523239 6.87781811 21 25 4945 56.43600000 3176263613 3176263613 7.00000000
42.95597076 34.95919418 4.52126122 42 26 4946 55.56800000 3176263615 3176263615 4.66700000
20.47114944 20.28619576 -1.17416084 8 27 4946 28.84400000 3176263615 3176263615 -2.33300000
20.81093407 15.30393314 -0.90208220 10 28 4947 25.84800000 3176263618 3176263618 -2.00000000
20.91156769 18.78264999 -0.65406644 27 31 4947 28.11600000 3176263620 3176263620 -1.33300000
4.02593851 3.26596212 -2.41737652 8 0 4955 5.72000000 3176263640 3176263640 -25.00000000
20.92089272 20.66684532 -0.51331019 12 1 4955 29.41200000 3176263640 3176263640 -1.00000000
20.85971642 16.91599083 -0.78160447 11 2 4956 26.86800000 3176263642 3176263642 -1.66700000
6.70653248 6.00476265 -2.51999044 6 3 4956 9.34800000 3176263642 3176263642 -15.63900000
9.14381790 7.41244841 -2.35419202 1 4 4957 12.00400000 3176263645 3176263645 -11.31000000
40.25771713 36.03250122 0.00000000 28 5 4957 54.02800000 3176263645 3176263645 0.00000000
35.82255554 26.24696159 -0.51700377 11 6 4957 44.41200000 3176263647 3176263647 -0.66700000
10.29894161 9.21802521 -2.15033960 2 7 4957 13.98800000 3176263647 3176263647 -8.84300000
12.46388721 10.10026264 -2.04200983 2 8 4958 16.17200000 3176263649 3176263649 -7.25400000
40.43416595 39.90135193 0.33016318 44 9 4958 56.80800000 3176263649 3176263649 0.33300000
39.56600952 32.05135727 -0.29594263 22 10 4959 50.92000000 3176263652 3176263652 -0.33300000
13.18220234 11.79039001 -1.90504229 1 11 4959 17.78800000 3176263652 3176263652 -6.14800000
15.61618900 11.42932320 -1.80646086 2 12 4960 19.43600000 3176263654 3176263654 -5.33300000
40.19711304 35.94036484 1.25472069 12 13 4960 53.93600000 3176263654 3176263654 1.33300000
40.70874786 29.78338814 0.58722281 35 14 4961 50.44400000 3176263656 3176263656 0.66700000
16.99082184 15.18621254 -1.59351683 2 15 4961 22.84400000 3176263656 3176263656 -4.00000000
16.25505638 13.15369225 -1.70702660 2 16 4962 20.98000000 3176263658 3176263658 -4.66700000
40.05256653 39.46962738 1.63651705 43 17 4962 56.25600000 3176263658 3176263658 1.66700000
40.02201080 32.38606262 0.89865929 32 18 4962 51.49200000 3176263661 3176263661 1.00000000
16.93724823 16.69073677 -1.52398026 3 19 4962 23.82800000 3176263661 3176263661 -3.66700000
19.70918655 14.40910244 -1.42184794 3 20 4963 24.45600000 3176263663 3176263663 -3.33300000
39.91753006 35.65279770 3.11694908 36 21 4963 53.61200000 3176263663 3176263663 3.33300000
40.01554871 32.35772324 2.09658766 26 22 4964 51.50400000 3176263665 3176263665 2.33300000
19.91592026 17.78188324 -1.24368382 7 23 4964 26.72800000 3176263665 3176263665 -2.66700000
20.21720695 16.34238052 -1.36240959 9 24 4965 26.03200000 3176263668 3176263668 -3.00000000
43.36939240 38.70866394 7.13764381 51 25 4965 58.56800000 3176263668 3176263668 7.00000000
42.78315353 34.57099533 4.49034262 61 26 4966 55.18800000 3176263670 3176263670 4.66700000
20.53044128 20.20340157 -1.17350948 12 27 4966 28.82800000 3176263670 3176263670 -2.33300000
20.80611038 15.18877029 -0.89956945 13 28 4967 25.77600000 3176263672 3176263672 -2.00000000
20.91134834 18.65098190 -0.65201932 23 31 4967 28.02800000 3176263675 3176263675 -1.33300000
4.02941084 3.24436378 -2.41230512 8 0 4976 5.70800000 3176263695 3176263695 -25.00000000
20.92796898 20.52282143 -0.51163477 12 1 4976 29.31600000 3176263695 3176263695 -1.00000000
20.85305214 16.78426933 -0.77904451 15 2 4977 26.78000000 3176263698 3176263698 -1.66700000
6.73137522 5.98270035 -2.52106881 6 3 4977 9.35200000 3176263698 3176263698 -15.63900000
9.15870094 7.36904955 -2.35105419 1 4 4978 11.98800000 3176263700 3176263700 -11.31000000
40.21308517 35.72795868 0.00000000 41 5 4978 53.79200000 3176263700 3176263700 0.00000000
35.83763885 26.05668640 -0.51583970 11 6 4978 44.31200000 3176263702 3176263702 -0.66700000
10.32674885 9.17496490 -2.14910984 2 7 4978 13.98000000 3176263702 3176263702 -8.84300000
12.49154663 10.04705143 -2.04049444 2 8 4979 16.16000000 3176263705 3176263705 -7.25400000
40.55156708 39.72489548 0.32993072 44 9 4979 56.76800000 3176263705 3176263705 0.33300000
39.59593582 31.83594894 -0.29529172 21 10 4980 50.80800000 3176263707 3176263707 -0.33300000
13.21640587 11.73407459 -1.90375710 1 11 4980 17.77600000 3176263707 3176263707 -6.14800000
15.65153027 11.36732960 -1.80571735 2 12 4981 19.42800000 3176263709 3176263709 -5.33300000
40.24482727 35.71847153 1.25211525 24 13 4981 53.82400000 3176263709 3176263709 1.33300000
40.50691605 29.40839767 0.58275265 34 14 4982 50.06000000 3176263711 3176263711 0.66700000
17.03741264 15.11589146 -1.59267986 2 15 4982 22.83200000 3176263711 3176263711 -4.00000000
16.29693985 13.08903313 -1.70637572 2 16 4983 20.97200000 3176263714 3176263714 -4.66700000
40.07405853 39.20233536 1.63151348 42 17 4983 56.08400000 3176263714 3176263714 1.66700000
40.09679031 32.20409393 0.89768195 16 18 4983 51.43600000 3176263716 3176263716 1.00000000
16.99260139 16.62296486 -1.52346861 3 19 4983 23.82000000 3176263716 3176263716 -3.66700000
19.65520287 14.25938606 -1.41417360 3 20 4984 24.32400000 3176263718 3176263718 -3.33300000
40.03897095 35.49830627 3.11625147 24 21 4984 53.60000000 3176263718 3176263718 3.33300000
40.04348373 32.13829422 2.09186578 39 22 4985 51.38800000 3176263721 3176263721 2.33300000
19.96600914 17.69551849 -1.24275327 7 23 4985 26.70800000 3176263721 3176263721 -2.66700000
20.26762199 16.26067162 -1.36178160 9 24 4986 26.02000000 3176263723 3176263723 -3.00000000
43.31187439 38.37304688 7.10498285 25 25 4986 58.30000000 3176263723 3176263723 7.00000000
42.79139328 34.31917191 4.47797537 40 26 4987 55.03600000 3176263725 3176263725 4.66700000
20.45854759 19.98558426 -1.16520524 8 27 4987 28.62400000 3176263725 3176263725 -2.33300000
20.81307983 15.07723141 -0.89747548 13 28 4988 25.71600000 3176263728 3176263728 -2.00000000
20.91968536 18.52119637 -0.65015823 23 31 4988 27.94800000 3176263730 3176263730 -1.33300000
4.03221655 3.22348762 -2.40723372 7 0 4996 5.69600000 3176263751 3176263751 -25.00000000
20.92784691 20.37988853 -0.50988948 12 1 4996 29.21600000 3176263751 3176263751 -1.00000000
20.86466217 16.67393494 -0.77729905 15 2 4997 26.72000000 3176263753 3176263753 -1.66700000
6.74644184 5.95406914 -2.51891208 6 3 4997 9.34400000 3176263753 3176263753 -15.63900000
9.19356155 7.34437943 -2.35340738 1 4 4998 12.00000000 3176263755 3176263755 -11.31000000
40.23557281 35.49739838 0.00000000 27 5 4998 53.65600000 3176263755 3176263755 0.00000000
36.19432068 26.12337685 -0.51965797 11 6 4998 44.64000000 3176263758 3176263758 -0.66700000
10.35574913 9.13624668 -2.14849496 2 7 4998 13.97600000 3176263758 3176263758 -8.84300000
12.52344036 10.00091076 -2.03998947 2 8 4999 16.15600000 3176263760 3176263760 -7.25400000
40.54949951 39.44643402 0.32879159 65 9 4999 56.57200000 3176263760 3176263760 0.33300000
39.60991287 31.62018013 -0.29457104 21 10 5000 50.68400000 3176263762 3176263762 -0.33300000
13.25131893 11.68260860 -1.90290034 1 11 5000 17.76800000 3176263762 3176263762 -6.14800000
15.70080566 11.31961346 -1.80683267 2 12 5001 19.44000000 3176263764 3176263764 -5.33300000
40.30025864 35.51696014 1.24997509 24 13 5001 53.73200000 3176263764 3176263764 1.33300000
40.53144455 29.21069908 0.58163506 34 14 5002 49.96400000 3176263767 3176263767 0.66700000
17.08708000 15.05368996 -1.59240079 2 15 5002 22.82800000 3176263767 3176263767 -4.00000000
16.34876442 13.03703785 -1.70702660 2 16 5003 20.98000000 3176263769 3176263769 -4.66700000
40.32537079 39.17364883 1.63616800 43 17 5003 56.24400000 3176263769 3176263769 1.66700000
39.99876785 31.88490295 0.89286512 31 18 5004 51.16000000 3176263771 3176263771 1.00000000
17.04195786 16.54944801 -1.52244532 3 19 5004 23.80400000 3176263771 3176263771 -3.66700000
19.80530930 14.26303196 -1.42138278 3 20 5004 24.44800000 3176263774 3176263774 -3.33300000
39.68008804 34.93350220 3.07880998 23 21 5004 52.95600000 3176263774 3176263774 3.33300000
39.84598541 31.75173950 2.07574558 37 22 5005 50.99200000 3176263776 3176263776 2.33300000
20.00665855 17.60723686 -1.24145043 4 23 5005 26.68000000 3176263776 3176263776 -2.66700000
20.30863762 16.17738152 -1.36073482 9 24 5006 26.00000000 3176263778 3176263778 -3.00000000
42.33668900 37.24608994 6.92364120 45 25 5006 56.81200000 3176263778 3176263778 7.00000000
42.94835281 34.19939423 4.48188066 40 26 5007 55.08400000 3176263781 3176263781 4.66700000
20.55113411 19.93630981 -1.16650784 8 27 5007 28.65600000 3176263781 3176263781 -2.33300000
20.80716133 14.96247864 -0.89496267 10 28 5008 25.64400000 3176263783 3176263783 -2.00000000
20.91213036 18.38469315 -0.64792496 23 31 5008 27.85200000 3176263785 3176263785 -1.33300000
4.03208590 3.20037770 -2.40047169 7 0 5016 5.68000000 3176263806 3176263806 -25.00000000
20.91835976 20.22886658 -0.50793481 12 1 5016 29.10400000 3176263806 3176263806 -1.00000000
20.85383034 16.54632759 -0.77473909 15 2 5017 26.63200000 3176263808 3176263808 -1.66700000
6.76428747 5.92794466 -2.51783395 6 3 5017 9.34000000 3176263808 3176263808 -15.63900000
9.22221470 7.31468058 -2.35419202 1 4 5018 12.00400000 3176263810 3176263810 -11.31000000
40.27499008 35.28292847 0.00000000 40 5 5018 53.54400000 3176263810 3176263810 0.00000000
36.42964935 26.09068489 -0.52166021 11 6 5019 44.81200000 3176263813 3176263813 -0.66700000
10.38916492 9.09823036 -2.14849496 2 7 5019 13.97600000 3176263813 3176263813 -8.84300000
12.56138325 9.95959949 -2.04049444 2 8 5019 16.16000000 3176263815 3176263815 -7.25400000
40.68406677 39.30187225 0.32876834 43 9 5019 56.56800000 3176263815 3176263815 0.33300000
39.64168167 31.41960907 -0.29398984 31 10 5020 50.58400000 3176263817 3176263817 -0.33300000
13.29800224 11.64152145 -1.90375710 2 11 5020 17.77600000 3176263817 3176263817 -6.14800000
15.73050690 11.25778484 -1.80571735 2 12 5021 19.42800000 3176263820 3176263820 -5.33300000
40.09597778 35.08901596 1.23983228 23 13 5021 53.29600000 3176263820 3176263820 1.33300000
40.54858398 29.00853157 0.58042443 33 14 5022 49.86000000 3176263822 3176263822 0.66700000
17.03440857 14.90199757 -1.58263493 2 15 5022 22.68800000 3176263822 3176263822 -4.00000000
16.36291504 12.95514297 -1.70377207 2 16 5023 20.94000000 3176263824 3176263824 -4.66700000
40.31798935 38.89385223 1.63034987 63 17 5023 56.04400000 3176263824 3176263824 1.66700000
40.00707626 31.67512703 0.89070100 46 18 5023 51.03600000 3176263827 3176263827 1.00000000
17.08525276 16.48175812 -1.52142191 3 19 5023 23.78800000 3176263827 3176263827 -3.66700000
19.74452591 14.11485386 -1.41347587 3 20 5024 24.31200000 3176263829 3176263829 -3.33300000
39.59735107 34.61606216 3.06299615 22 21 5024 52.68400000 3176263829 3176263829 3.33300000
39.81552887 31.50086594 2.06841826 24 22 5025 50.81200000 3176263831 3176263831 2.33300000
20.05295372 17.52414703 -1.24051976 4 23 5025 26.66000000 3176263831 3176263831 -2.66700000
20.36185074 16.10391426 -1.36052549 9 24 5026 25.99600000 3176263834 3176263834 -3.00000000
42.40365601 37.04322815 6.91340399 44 25 5026 56.72800000 3176263834 3176263834 7.00000000
43.11750793 34.08882904 4.48708773 40 26 5027 55.14800000 3176263836 3176263836 4.66700000
20.61484337 19.85890770 -1.16618216 8 27 5027 28.64800000 3176263836 3176263836 -2.33300000
20.80395126 14.85027409 -0.89258951 10 28 5028 25.57600000 3176263838 3176263838 -2.00000000
20.91308784 18.25007820 -0.64587784 27 31 5029 27.76400000 3176263840 3176263840 -1.33300000
4.03753805 3.18179607 -2.39709067 5 0 5036 5.67200000 3176263861 3176263861 -25.00000000
20.91961288 20.08924103 -0.50625938 12 1 5036 29.00800000 3176263861 3176263861 -1.00000000
20.84550285 16.42147446 -0.77229548 15 2 5037 26.54800000 3176263863 3176263863 -1.66700000
6.78203249 5.90176821 -2.51675558 6 3 5037 9.33600000 3176263863 3176263863 -15.63900000
9.24460983 7.28001738 -2.35340738 1 4 5038 12.00000000 3176263866 3176263866 -11.31000000
40.28926086 35.04761887 0.00000000 26 5 5038 53.40000000 3176263866 3176263866 0.00000000
36.54331970 25.97958565 -0.52198619 11 6 5039 44.84000000 3176263868 3176263868 -0.66700000
10.41787815 9.05931568 -2.14787984 2 7 5039 13.97200000 3176263868 3176263868 -8.84300000
12.58983707 9.91078281 -2.03948426 2 8 5039 16.15200000 3176263870 3176263870 -7.25400000
40.66513824 39.01008987 0.32751295 43 9 5039 56.35200000 3176263870 3176263870 0.33300000
39.60023117 31.16230965 -0.29287395 30 10 5040 50.39200000 3176263873 3176263873 -0.33300000
13.32955360 11.58720398 -1.90247202 1 11 5040 17.76400000 3176263873 3176263873 -6.14800000
15.77620220 11.20741940 -1.80646086 2 12 5041 19.43600000 3176263875 3176263875 -5.33300000
40.23632812 34.96458054 1.24039066 24 13 5041 53.32000000 3176263875 3176263875 1.33300000
40.60394287 28.83439255 0.57977253 33 14 5042 49.80400000 3176263877 3176263877 0.66700000
17.08632278 14.84244537 -1.58263493 2 15 5042 22.68800000 3176263877 3176263877 -4.00000000
16.42684364 12.91273022 -1.70572484 2 16 5043 20.96400000 3176263880 3176263880 -4.66700000
40.01175690 38.32969666 1.61254644 20 17 5043 55.43200000 3176263880 3176263880 1.66700000
40.09539032 31.51798248 0.89021236 31 18 5043 51.00800000 3176263882 3176263882 1.00000000
17.14556313 16.42477989 -1.52167773 3 19 5043 23.79200000 3176263882 3176263882 -3.66700000
19.78716278 14.04122448 -1.41301072 3 20 5044 24.30400000 3176263884 3176263884 -3.33300000
39.70889664 34.46977615 3.06229854 34 21 5044 52.67200000 3176263884 3176263884 3.33300000
39.79952621 31.26293945 2.06190515 23 22 5045 50.65200000 3176263887 3176263887 2.33300000
20.10494995 17.44618607 -1.23996139 4 23 5045 26.64800000 3176263887 3176263887 -2.66700000
20.37081337 15.99573612 -1.35738540 9 24 5046 25.93600000 3176263889 3176263889 -3.00000000
42.69765091 37.03807068 6.94021559 45 25 5046 56.94800000 3176263889 3176263889 7.00000000
43.12334442 33.84949493 4.47537136 40 26 5047 55.00400000 3176263891 3176263891 4.66700000
20.66382217 19.76748657 -1.16504240 8 27 5047 28.62000000 3176263891 3176263891 -2.33300000
20.80999756 14.74520779 -0.89063513 10 28 5048 25.52000000 3176263893 3176263893 -2.00000000
20.92212296 18.13609886 -0.64429593 27 31 5048 27.69600000 3176263896 3176263896 -1.33300000
4.02006865 3.14534378 -2.38018608 3 0 5056 5.63200000 3176263916 3176263916 -25.00000000
20.91725159 19.94709396 -0.50451416 12 1 5056 28.90800000 3176263916 3176263916 -1.00000000
20.85230827 16.30919838 -0.77043372 18 2 5057 26.48400000 3176263919 3176263919 -1.66700000
6.79967785 5.87554026 -2.51567721 6 3 5057 9.33200000 3176263919 3176263919 -15.63900000
9.26996613 7.24770355 -2.35340738 1 4 5058 12.00000000 3176263921 3176263921 -11.31000000
40.31145859 34.82048035 0.00000000 26 5 5058 53.26800000 3176263921 3176263921 0.00000000
36.79264832 25.97359657 -0.52431440 12 6 5058 45.04000000 3176263923 3176263923 -0.66700000
10.43290710 9.01180077 -2.14480543 2 7 5058 13.95200000 3176263923 3176263923 -8.84300000
12.62435532 9.86677551 -2.03948426 2 8 5059 16.15200000 3176263926 3176263926 -7.25400000
40.67652512 38.74927139 0.32651332 42 9 5059 56.18000000 3176263926 3176263926 0.33300000
39.57007980 30.91553497 -0.29185104 19 10 5060 50.21600000 3176263928 3176263928 -0.33300000
13.37292957 11.54320335 -1.90290034 1 11 5060 17.76800000 3176263928 3176263928 -6.14800000
15.88683319 11.20277596 -1.81464005 2 12 5061 19.52400000 3176263930 3176263930 -5.33300000
40.29152298 34.76644135 1.23834348 23 13 5061 53.23200000 3176263930 3176263930 1.33300000
40.57357788 28.60030556 0.57790995 49 14 5062 49.64400000 3176263933 3176263933 0.66700000
17.11385536 14.76186275 -1.58040261 2 15 5062 22.65600000 3176263933 3176263933 -4.00000000
16.45296097 12.84059429 -1.70377207 2 16 5063 20.94000000 3176263935 3176263935 -4.66700000
40.04391479 38.09334564 1.60847378 59 17 5063 55.29200000 3176263935 3176263935 1.66700000
39.91194916 31.14899254 0.88372004 30 18 5063 50.63600000 3176263937 3176263937 1.00000000
17.19411659 16.35657692 -1.52091026 3 19 5063 23.78000000 3176263937 3176263937 -3.66700000
19.85564423 13.98586655 -1.41440606 3 20 5064 24.32800000 3176263940 3176263940 -3.33300000
39.72613907 34.24231339 3.05439162 33 21 5064 52.53600000 3176263940 3176263940 3.33300000
39.84222794 31.07220650 2.05848575 35 22 5065 50.56800000 3176263942 3176263942 2.33300000
20.15361786 17.36546707 -1.23921692 4 23 5065 26.63200000 3176263942 3176263942 -2.66700000
20.42967606 15.92698669 -1.35759473 9 24 5066 25.94000000 3176263944 3176263944 -3.00000000
42.89586258 36.94839859 6.95142746 45 25 5066 57.04000000 3176263944 3176263944 7.00000000
43.13431931 33.61544037 4.46430588 39 26 5067 54.86800000 3176263946 3176263946 4.66700000
20.72110558 19.68422699 -1.16439104 8 27 5067 28.60400000 3176263946 3176263946 -2.33300000
20.81556320 14.64028072 -0.88868076 10 28 5068 25.46400000 3176263949 3176263949 -2.00000000
20.92176628 18.00191307 -0.64224875 19 31 5069 27.60800000 3176263951 3176263951 -1.33300000
3.96982455 3.08597541 -2.34468603 2 0 5074 5.54800000 3176263972 3176263972 -25.00000000
20.91594887 19.82076073 -0.50297832 12 1 5074 28.82000000 3176263972 3176263972 -1.00000000
20.84029961 16.19454193 -0.76810646 15 2 5075 26.40400000 3176263974 3176263974 -1.66700000
6.81518030 5.85164022 -2.51459908 6 3 5075 9.32800000 3176263974 3176263974 -15.63900000
9.28649426 7.21373320 -2.35183859 1 4 5076 11.99200000 3176263976 3176263976 -11.31000000
40.28103256 34.57382965 0.00000000 39 5 5076 53.08400000 3176263976 3176263976 0.00000000
36.80857086 25.81195259 -0.52338308 12 6 5076 44.96000000 3176263979 3176263979 -0.66700000
10.46116734 8.97898102 -2.14480543 2 7 5076 13.95200000 3176263979 3176263979 -8.84300000
12.64902210 9.82219982 -2.03847432 2 8 5077 16.14400000 3176263981 3176263981 -7.25400000
40.68767548 38.51679993 0.32562989 20 9 5077 56.02800000 3176263981 3176263981 0.33300000
39.61013412 30.74692154 -0.29143259 19 10 5078 50.14400000 3176263983 3176263983 -0.33300000
13.41214657 11.50372314 -1.90332878 1 11 5078 17.77200000 3176263983 3176263983 -6.14800000
15.84366035 11.09797192 -1.80571735 2 12 5079 19.42800000 3176263986 3176263986 -5.33300000
40.25482941 34.51475143 1.23387694 35 13 5079 53.04000000 3176263986 3176263986 1.33300000
40.16194153 28.12169456 0.57078558 32 14 5080 49.03200000 3176263988 3176263988 0.66700000
17.18741417 14.73139572 -1.58291388 2 15 5080 22.69200000 3176263988 3176263988 -4.00000000
16.50582123 12.79861355 -1.70507395 2 16 5081 20.95600000 3176263990 3176263990 -4.66700000
40.11690140 37.92340851 1.60661197 39 17 5081 55.22800000 3176263990 3176263990 1.66700000
40.31302643 31.25872040 0.89042175 15 18 5081 51.02000000 3176263993 3176263993 1.00000000
17.22220993 16.28054237 -1.51886368 3 19 5081 23.74800000 3176263993 3176263993 -3.66700000
19.87658119 13.90739441 -1.41277826 3 20 5082 24.30000000 3176263995 3176263995 -3.33300000
39.63031387 33.94329834 3.03881025 22 21 5082 52.26800000 3176263995 3176263995 3.33300000
39.82275391 30.85631180 2.05246115 34 22 5083 50.42000000 3176263997 3176263997 2.33300000
20.19289780 17.28907394 -1.23828626 4 23 5083 26.61200000 3176263997 3176263997 -2.66700000
20.46697807 15.85294247 -1.35675728 9 24 5084 25.92400000 3176263999 3176263999 -3.00000000
43.36265182 33.57495117 4.47699881 40 26 5085 55.02400000 3176264002 3176264002 4.66700000
20.78284454 19.61903191 -1.16439104 8 27 5085 28.60400000 3176264002 3176264002 -2.33300000
20.79919243 14.53131485 -0.88602841 10 28 5086 25.38800000 3176264004 3176264004 -2.00000000
20.92046928 17.88672066 -0.64048076 19 31 5087 27.53200000 3176264006 3176264006 -1.33300000
3.95580840 3.05078435 -2.32947183 3 0 5096 5.51200000 3176264027 3176264027 -25.00000000
20.91906166 19.67180824 -0.50123310 12 1 5096 28.72000000 3176264027 3176264027 -1.00000000
20.85482979 16.07778358 -0.76636106 18 2 5097 26.34400000 3176264029 3176264029 -1.66700000
6.84346294 5.83042479 -2.51675558 6 3 5097 9.33600000 3176264029 3176264029 -15.63900000
9.31723118 7.18041658 -2.35262299 3 4 5098 11.99600000 3176264032 3176264032 -11.31000000
40.22772598 34.26070023 0.00000000 37 5 5098 52.84000000 3176264032 3176264032 0.00000000
37.27845383 25.92850304 -0.52864486 12 6 5098 45.41200000 3176264034 3176264034 -0.66700000
10.48954868 8.93362141 -2.14357567 2 7 5098 13.94400000 3176264034 3176264034 -8.84300000
12.68664360 9.77355862 -2.03847432 1 8 5099 16.14400000 3176264036 3176264036 -7.25400000
40.81486130 38.34111404 0.32546717 41 9 5099 56.00000000 3176264036 3176264036 0.33300000
39.65501022 30.53846931 -0.29089791 18 10 5100 50.05200000 3176264039 3176264039 -0.33300000
13.45621872 11.45213985 -1.90332878 2 11 5100 17.77200000 3176264039 3176264039 -6.14800000
15.87961578 11.03251076 -1.80497384 2 12 5101 19.42000000 3176264041 3176264041 -5.33300000
40.19212723 34.19408798 1.22792161 23 13 5101 52.78400000 3176264041 3176264041 1.33300000
40.42074203 28.07222748 0.57292753 32 14 5102 49.21600000 3176264043 3176264043 0.66700000
17.23777390 14.66012287 -1.58235586 2 15 5102 22.68400000 3176264043 3176264043 -4.00000000
16.46636581 12.66707897 -1.69596112 2 16 5103 20.84400000 3176264046 3176264046 -4.66700000
40.26513672 37.77182770 1.60672843 59 17 5103 55.23200000 3176264046 3176264046 1.66700000
40.44543076 31.11345291 0.89070100 31 18 5103 51.03600000 3176264048 3176264048 1.00000000
17.29041862 16.21975517 -1.51937532 3 19 5103 23.75600000 3176264048 3176264048 -3.66700000
19.93967628 13.83780098 -1.41347587 3 20 5104 24.31200000 3176264050 3176264050 -3.33300000
39.73601151 33.77019119 3.03694987 33 21 5104 52.23600000 3176264050 3176264050 3.33300000
39.98213196 30.73484230 2.05457783 23 22 5105 50.47200000 3176264052 3176264052 2.33300000
20.25304413 17.20623779 -1.23791397 7 23 5105 26.60400000 3176264052 3176264052 -2.66700000
20.50552750 15.75720024 -1.35529196 9 24 5106 25.89600000 3176264055 3176264055 -3.00000000
43.44327545 36.89474869 6.99822521 47 25 5106 57.42400000 3176264055 3176264055 7.00000000
43.56396866 33.46406174 4.48448420 40 26 5107 55.11600000 3176264057 3176264057 4.66700000
20.84052086 19.52269363 -1.16341412 12 27 5107 28.58000000 3176264057 3176264057 -2.33300000
20.80554771 14.41719151 -0.88393444 10 28 5108 25.32800000 3176264059 3176264059 -2.00000000
20.91885757 17.74675941 -0.63834059 19 31 5109 27.44000000 3176264062 3176264062 -1.33300000
3.95386267 3.02952218 -2.32271004 5 0 5114 5.49600000 3176264082 3176264082 -25.00000000
20.90770721 19.53772545 -0.49948788 11 1 5114 28.62000000 3176264082 3176264082 -1.00000000
20.85444832 15.97328663 -0.76449925 15 2 5115 26.28000000 3176264085 3176264085 -1.66700000
6.85880613 5.80640793 -2.51567721 5 3 5115 9.33200000 3176264085 3176264085 -15.63900000
9.33662891 7.14872551 -2.35183859 1 4 5116 11.99200000 3176264087 3176264087 -11.31000000
40.24356079 34.05663300 0.00000000 25 5 5116 52.72000000 3176264087 3176264087 0.00000000
37.35972595 25.81126022 -0.52864486 12 6 5116 45.41200000 3176264089 3176264089 -0.66700000
10.51756287 8.90062332 -2.14357567 2 7 5116 13.94400000 3176264089 3176264089 -8.84300000
12.77400208 9.77706432 -2.04756546 2 8 5117 16.21600000 3176264092 3176264092 -7.25400000
40.79476547 38.08168793 0.32435128 20 9 5117 55.80800000 3176264092 3176264092 0.33300000
39.66180420 30.34568405 -0.29024696 18 10 5118 49.94000000 3176264094 3176264094 -0.33300000
13.48909378 11.40724087 -1.90290034 2 11 5118 17.76800000 3176264094 3176264094 -6.14800000
15.91091824 10.98030663 -1.80460203 2 12 5119 19.41600000 3176264096 3176264096 -5.33300000
40.24743652 34.02376556 1.22633970 23 13 5119 52.71600000 3176264096 3176264096 1.33300000
40.51202774 27.94737434 0.57297409 32 14 5120 49.22000000 3176264098 3176264098 0.66700000
17.28069687 14.60332012 -1.58207679 2 15 5120 22.68000000 3176264098 3176264098 -4.00000000
16.48707390 12.60076046 -1.69400835 2 16 5121 20.82000000 3176264101 3176264101 -4.66700000
39.95075607 37.24164581 1.58950675 37 17 5121 54.64000000 3176264101 3176264101 1.66700000
40.07587051 30.62923622 0.88043898 14 18 5121 50.44800000 3176264103 3176264103 1.00000000
17.34128952 16.16535568 -1.51937532 3 19 5121 23.75600000 3176264103 3176264103 -3.66700000
19.98962593 13.77962303 -1.41394103 3 20 5122 24.32000000 3176264105 3176264105 -3.33300000
39.86936569 33.66838074 3.03904295 33 21 5122 52.27200000 3176264105 3176264105 3.33300000
40.04673004 30.58482361 2.05294967 23 22 5123 50.43200000 3176264108 3176264108 2.33300000
20.29173279 17.12963867 -1.23698342 7 23 5123 26.58400000 3176264108 3176264108 -2.66700000
20.55492783 15.69270325 -1.35529196 9 24 5124 25.89600000 3176264110 3176264110 -3.00000000
43.37084961 36.59933853 6.96800137 46 25 5124 57.17600000 3176264110 3176264110 7.00000000
43.50408173 33.20126724 4.46756029 39 26 5125 54.90800000 3176264112 3176264112 4.66700000
20.80228806 19.36453629 -1.15787792 12 27 5125 28.44400000 3176264112 3176264112 -2.33300000
20.80134392 14.31775951 -0.88184047 9 28 5126 25.26800000 3176264115 3176264115 -2.00000000
20.91335869 17.62940598 -0.63647950 19 31 5127 27.36000000 3176264117 3176264117 -1.33300000
3.95575762 3.00911784 -2.31763864 5 0 5134 5.48400000 3176264138 3176264138 -25.00000000
20.90248871 19.39661407 -0.49774262 15 1 5134 28.52000000 3176264138 3176264138 -1.00000000
20.83687782 15.84473038 -0.76182288 14 2 5135 26.18800000 3176264140 3176264140 -1.66700000
6.87018681 5.77499533 -2.51244235 6 3 5135 9.32000000 3176264140 3176264140 -15.63900000
9.35840321 7.11371756 -2.35105419 3 4 5136 11.98800000 3176264142 3176264142 -11.31000000
40.15395355 33.74096680 0.00000000 24 5 5136 52.44800000 3176264142 3176264142 0.00000000
37.20219803 25.51104355 -0.52515256 12 6 5136 45.11200000 3176264145 3176264145 -0.66700000
10.54856777 8.86385632 -2.14357567 2 7 5136 13.94400000 3176264145 3176264145 -8.84300000
12.79857445 9.72521305 -2.04605031 2 8 5137 16.20400000 3176264147 3176264147 -7.25400000
40.76317215 37.78677750 0.32304940 20 9 5137 55.58400000 3176264147 3176264147 0.33300000
39.74519348 30.19011688 -0.29008424 18 10 5138 49.91200000 3176264149 3176264149 -0.33300000
13.52578449 11.35752869 -1.90247202 2 11 5138 17.76400000 3176264149 3176264149 -6.14800000
15.94586468 10.92245007 -1.80423021 2 12 5139 19.41200000 3176264151 3176264151 -5.33300000
40.23425293 33.77251434 1.22233844 22 13 5139 52.54400000 3176264151 3176264151 1.33300000
40.58623123 27.78997421 0.57264817 16 14 5140 49.19200000 3176264154 3176264154 0.66700000
17.33767891 14.54804039 -1.58263493 2 15 5140 22.68800000 3176264154 3176264154 -4.00000000
16.53095818 12.54313278 -1.69400835 2 16 5141 20.82000000 3176264156 3176264156 -4.66700000
40.08930969 37.11011505 1.58985591 37 17 5141 54.65200000 3176264156 3176264156 1.66700000
40.20803070 30.50849724 0.88099748 29 18 5141 50.48000000 3176264158 3176264158 1.00000000
17.38296318 16.09116745 -1.51809621 3 19 5141 23.73600000 3176264158 3176264158 -3.66700000
20.03101349 13.70525265 -1.41347587 3 20 5142 24.31200000 3176264161 3176264161 -3.33300000
