# .PCD v0.7 - Point Cloud Data file format
VERSION 0.7
FIELDS x y z intensity laser_id azimuth distance_m adjustedtime timestamp vertical_angle
SIZE 4 4 4 1 1 2 8 8 4 8
TYPE F F F U U U F U U F
COUNT 1 1 1 1 1 1 1 1 1 1
WIDTH 524
HEIGHT 1
VIEWPOINT 0 0 0 1 0 0 0
POINTS 524
DATA ascii
11.09134007 3.18458104 -2.30790830 2 4 7258 11.76800000 3185770024 3185770024 -11.31000000
40.33382416 13.74646568 0.00000000 14 5 7258 42.61200000 3185770024 3185770024 0.00000000
39.70212555 9.31936073 -0.47476995 30 6 7259 40.78400000 3185770026 3185770026 -0.66700000
12.95260429 4.41194868 -2.12881780 1 7 7259 13.84800000 3185770026 3185770026 -8.84300000
15.26013660 4.37865639 -2.02079654 2 8 7259 16.00400000 3185770028 3185770028 -7.25400000
40.29304886 15.96128178 0.25188833 27 9 7259 43.34000000 3185770028 3185770028 0.33300000
40.49919510 11.61295700 -0.24486755 15 10 7260 42.13200000 3185770031 3185770031 -0.33300000
16.38449097 5.57773590 -1.86434543 2 11 7260 17.40800000 3185770031 3185770031 -6.14800000
18.78317642 4.40209579 -1.80088425 6 12 7261 19.37600000 3185770033 3185770033 -5.33300000
40.27709579 13.70359802 0.98998618 20 13 7261 42.55600000 3185770033 3185770033 1.33300000
40.13537979 9.39888954 0.47989202 19 14 7262 41.22400000 3185770035 3185770035 0.66700000
20.60046196 7.00494576 -1.52152824 18 15 7262 21.81200000 3185770035 3185770035 -4.00000000
19.64347458 5.62154627 -1.66797173 5 16 7263 20.50000000 3185770038 3185770038 -4.66700000
40.30267715 15.93255329 1.26124918 17 17 7263 43.35600000 3185770038 3185770038 1.66700000
40.46517944 11.58027744 0.73467648 9 18 7263 42.09600000 3185770040 3185770040 1.00000000
20.60304451 8.14484692 -1.41985738 23 19 7263 22.20000000 3185770040 3185770040 -3.66700000
20.60055161 4.81664515 -1.23208213 13 20 7264 21.19200000 3185770042 3185770042 -3.33300000
40.06442261 13.60783863 2.46416426 19 21 7264 42.38400000 3185770042 3185770042 3.33300000
40.54174805 11.58687973 1.71784723 26 22 7265 42.20000000 3185770045 3185770045 2.33300000
20.66612053 7.01520252 -1.01661193 22 23 7265 21.84800000 3185770045 3185770045 -2.66700000
20.63730621 5.89427137 -1.12480438 29 24 7266 21.49200000 3185770047 3185770047 -3.00000000
43.45096970 14.74115944 5.63377619 28 25 7266 46.22800000 3185770047 3185770047 7.00000000
42.52654648 12.13808250 3.61030436 30 26 7267 44.37200000 3185770049 3185770049 4.66700000
20.68593979 8.16092205 -0.90598124 24 27 7267 22.25600000 3185770049 3185770049 -2.33300000
20.67686081 4.81926489 -0.74140489 14 28 7268 21.24400000 3185770051 3185770051 -2.00000000
37.94564056 12.85865498 -0.93229359 5 31 7268 40.07600000 3185770054 3185770054 -1.33300000
5.63940525 1.60004389 -2.73349500 8 0 7276 6.46800000 3185770074 3185770074 -25.00000000
39.30359650 15.43457222 -0.73705006 26 1 7276 42.23200000 3185770074 3185770074 -1.00000000
36.23950195 10.27524281 -1.09624767 7 2 7277 37.68400000 3185770077 3185770077 -1.66700000
8.40248775 2.83264828 -2.48224998 3 3 7277 9.20800000 3185770077 3185770077 -15.63900000
11.09861469 3.14477634 -2.30712390 2 4 7278 11.76400000 3185770079 3185770079 -11.31000000
40.34744644 13.59409618 0.00000000 14 5 7278 42.57600000 3185770079 3185770079 0.00000000
40.43425369 9.34985065 -0.48315153 30 6 7278 41.50400000 3185770081 3185770081 -0.66700000
12.97840023 4.37275791 -2.13066244 1 7 7278 13.86000000 3185770081 3185770081 -8.84300000
15.27914619 4.32644272 -2.02130175 2 8 7279 16.00800000 3185770084 3185770084 -7.25400000
40.31127930 15.80593395 0.25165588 18 9 7279 43.30000000 3185770084 3185770084 0.33300000
40.49329758 11.45844841 -0.24458857 15 10 7280 42.08400000 3185770086 3185770086 -0.33300000
16.39632225 5.51797199 -1.86348867 2 11 7280 17.40000000 3185770086 3185770086 -6.14800000
18.80230904 4.33739901 -1.80125606 6 12 7281 19.38000000 3185770088 3185770088 -5.33300000
40.27920151 13.54762363 0.98886955 20 13 7281 42.50800000 3185770088 3185770088 1.33300000
40.23030472 9.27310753 0.48063704 28 14 7282 41.28800000 3185770091 3185770091 0.66700000
20.60587692 6.92663717 -1.52013302 16 15 7282 21.79200000 3185770091 3185770091 -4.00000000
19.67448807 5.55619383 -1.66894805 7 16 7283 20.51200000 3185770093 3185770093 -4.66700000
40.27985382 15.76117802 1.25880563 25 17 7283 43.27200000 3185770093 3185770093 1.66700000
40.55923843 11.45417404 0.73565382 28 18 7283 42.15200000 3185770095 3185770095 1.00000000
20.60161209 8.06124210 -1.41781068 23 19 7283 22.16800000 3185770095 3185770095 -3.66700000
20.60945702 4.74291563 -1.23161697 19 20 7284 21.18400000 3185770098 3185770098 -3.33300000
40.19117737 13.49459648 2.46904802 13 21 7284 42.46800000 3185770098 3185770098 3.33300000
40.56655884 11.44095325 1.71719587 17 22 7285 42.18400000 3185770100 3185770100 2.33300000
20.66396523 6.93412352 -1.01530910 22 23 7285 21.82000000 3185770100 3185770100 -2.66700000
20.62699890 5.81352901 -1.12312961 29 24 7286 21.46000000 3185770102 3185770102 -3.00000000
43.47957611 14.58182335 5.63085127 37 25 7286 46.20400000 3185770102 3185770102 7.00000000
42.73750305 12.03711891 3.62462449 30 26 7287 44.54800000 3185770104 3185770104 4.66700000
20.66962433 8.07122040 -0.90402728 24 27 7287 22.20800000 3185770104 3185770104 -2.33300000
20.66238594 4.73990965 -0.74028814 16 28 7288 21.21200000 3185770107 3185770107 -2.00000000
38.14040375 12.76900291 -0.93592268 5 31 7289 40.23200000 3185770109 3185770109 -1.33300000
5.64844704 1.58132625 -2.73518538 7 0 7296 6.47200000 3185770130 3185770130 -25.00000000
39.20812225 15.23932743 -0.73425764 8 1 7296 42.07200000 3185770130 3185770130 -1.00000000
36.43301773 10.19284725 -1.10101855 7 2 7297 37.84800000 3185770132 3185770132 -1.66700000
8.41232491 2.80330086 -2.48224998 3 3 7297 9.20800000 3185770132 3185770132 -15.63900000
11.10574722 3.10495973 -2.30633926 2 4 7298 11.76000000 3185770134 3185770134 -11.31000000
40.33013535 13.43168831 0.00000000 14 5 7298 42.50800000 3185770134 3185770134 0.00000000
40.14294434 9.13498974 -0.47928667 30 6 7298 41.17200000 3185770137 3185770137 -0.66700000
12.98983479 4.32617950 -2.13004756 2 7 7298 13.85600000 3185770137 3185770137 -8.84300000
15.30179787 4.27521801 -2.02231193 4 8 7299 16.01600000 3185770139 3185770139 -7.25400000
40.32145691 15.64775944 0.25137690 18 9 7299 43.25200000 3185770139 3185770139 0.33300000
40.48296356 11.30304718 -0.24428636 15 10 7300 42.03200000 3185770141 3185770141 -0.33300000
16.42680550 5.46447086 -1.86477375 2 11 7300 17.41200000 3185770141 3185770141 -6.14800000
18.81345177 4.27085829 -1.80088425 6 12 7301 19.37600000 3185770144 3185770144 -5.33300000
40.28450394 13.39306259 0.98784596 20 13 7301 42.46400000 3185770144 3185770144 1.33300000
40.12590790 9.10165405 0.47900730 28 14 7302 41.14800000 3185770146 3185770146 0.66700000
20.60342216 6.84585953 -1.51817989 16 15 7302 21.76400000 3185770146 3185770146 -4.00000000
19.69376183 5.48748350 -1.66894805 7 16 7303 20.51200000 3185770148 3185770148 -4.66700000
40.29734039 15.60603905 1.25764191 17 17 7303 43.23200000 3185770148 3185770148 1.66700000
40.47954178 11.27924728 0.73348975 28 18 7303 42.02800000 3185770151 3185770151 1.00000000
20.59240150 7.97486401 -1.41525245 23 19 7303 22.12800000 3185770151 3185770151 -3.66700000
20.60251999 4.66565418 -1.23022163 19 20 7304 21.16000000 3185770153 3185770153 -3.33300000
40.21150589 13.34541607 2.46742010 13 21 7304 42.44000000 3185770153 3185770153 3.33300000
40.45608139 11.25749397 1.71084559 17 22 7305 42.02800000 3185770155 3185770155 2.33300000
20.66908264 6.85566092 -1.01437855 22 23 7305 21.80000000 3185770155 3185770155 -2.66700000
20.61637688 5.73293066 -1.12145483 32 24 7306 21.42800000 3185770157 3185770157 -3.00000000
43.15335846 14.30503845 5.58210325 27 25 7306 45.80400000 3185770157 3185770157 7.00000000
42.85224152 11.90814495 3.63080835 30 26 7307 44.62400000 3185770160 3185770160 4.66700000
20.68276024 7.99325752 -0.90337598 22 27 7307 22.19200000 3185770160 3185770160 -2.33300000
20.66710663 4.66511488 -0.73986936 16 28 7308 21.20000000 3185770162 3185770162 -2.00000000
38.37076950 12.69734859 -0.94048226 5 31 7309 40.42800000 3185770164 3185770164 -1.33300000
5.65393209 1.56159985 -2.73518538 6 0 7316 6.47200000 3185770185 3185770185 -25.00000000
39.47011185 15.18278122 -0.73816699 17 1 7316 42.29600000 3185770185 3185770185 -1.00000000
36.56087494 10.09114170 -1.10381126 7 2 7317 37.94400000 3185770187 3185770187 -1.66700000
8.42937565 2.77632928 -2.48440647 3 3 7317 9.21600000 3185770187 3185770187 -15.63900000
11.11651802 3.06617451 -2.30633926 4 4 7318 11.76000000 3185770190 3185770190 -11.31000000
40.32738113 13.27456856 0.00000000 14 5 7318 42.45600000 3185770190 3185770190 0.00000000
13.00861073 4.28204584 -2.13066244 2 7 7318 13.86000000 3185770192 3185770192 -8.84300000
15.31280231 4.22072411 -2.02180672 2 8 7319 16.01200000 3185770194 3185770194 -7.25400000
40.30862045 15.48110199 0.25095844 27 9 7319 43.18000000 3185770194 3185770194 0.33300000
40.49132156 11.15316868 -0.24410038 7 10 7320 42.00000000 3185770197 3185770197 -0.33300000
16.43822289 5.40461302 -1.86391699 2 11 7320 17.40400000 3185770197 3185770197 -6.14800000
18.83990669 4.20776558 -1.80199957 6 12 7321 19.38800000 3185770199 3185770199 -5.33300000
40.27402496 13.23363686 0.98645020 13 13 7321 42.40400000 3185770199 3185770199 1.33300000
40.07935715 8.94410992 0.47807601 18 14 7322 41.06800000 3185770201 3185770201 0.66700000
20.60444832 6.76642895 -1.51650572 16 15 7322 21.74000000 3185770201 3185770201 -4.00000000
19.72048569 5.42081928 -1.66959894 7 16 7323 20.52000000 3185770204 3185770204 -4.66700000
40.28810120 15.44095516 1.25566375 17 17 7323 43.16400000 3185770204 3185770204 1.66700000
40.44539642 11.11773777 0.73216337 19 18 7323 41.95200000 3185770206 3185770206 1.00000000
20.59029388 7.89150620 -1.41320574 26 19 7323 22.09600000 3185770206 3185770206 -3.66700000
20.59919167 4.58936787 -1.22905886 19 20 7324 21.14000000 3185770208 3185770208 -3.33300000
40.07571793 13.14523029 2.45625734 19 21 7324 42.24800000 3185770208 3185770208 3.33300000
40.47200775 11.10985947 1.70986867 17 22 7325 42.00400000 3185770210 3185770210 2.33300000
20.67390251 6.77724743 -1.01344788 22 23 7325 21.78000000 3185770210 3185770210 -2.66700000
20.62470627 5.65776062 -1.12082684 32 24 7326 21.41600000 3185770213 3185770213 -3.00000000
43.17284775 14.14442921 5.57820368 27 25 7326 45.77200000 3185770213 3185770213 7.00000000
43.93166733 12.04307175 3.71868181 21 26 7327 45.70400000 3185770215 3185770215 4.66700000
20.68440628 7.91101885 -0.90223616 24 27 7327 22.16400000 3185770215 3185770215 -2.33300000
20.67155838 4.59034491 -0.73945051 16 28 7328 21.18800000 3185770217 3185770217 -2.00000000
38.41105652 12.56208992 -0.94038916 5 31 7329 40.42400000 3185770220 3185770220 -1.33300000
5.65235329 1.53994858 -2.73180437 8 0 7336 6.46400000 3185770240 3185770240 -25.00000000
39.51539612 15.04206657 -0.73802733 17 1 7336 42.28800000 3185770240 3185770240 -1.00000000
36.68460846 9.98761654 -1.10648751 7 2 7337 38.03600000 3185770243 3185770243 -1.66700000
8.43535328 2.74569607 -2.48332834 4 3 7337 9.21200000 3185770243 3185770243 -15.63900000
11.12715340 3.02735186 -2.30633926 4 4 7338 11.76000000 3185770245 3185770245 -11.31000000
40.32782745 13.11887074 0.00000000 14 5 7338 42.40800000 3185770245 3185770245 0.00000000
40.06902313 8.82441044 -0.47765693 20 6 7338 41.03200000 3185770247 3185770247 -0.66700000
13.02723789 4.23783398 -2.13127732 2 7 7338 13.86400000 3185770247 3185770247 -8.84300000
15.32361317 4.16620588 -2.02130175 2 8 7339 16.00800000 3185770250 3185770250 -7.25400000
40.28389359 15.31046200 0.25047022 18 9 7339 43.09600000 3185770250 3185770250 0.33300000
16.46077156 5.34842873 -1.86434543 2 11 7340 17.40800000 3185770252 3185770252 -6.14800000
18.86614799 4.14453983 -1.80311489 6 12 7341 19.40000000 3185770254 3185770254 -5.33300000
40.28193665 13.08062267 0.98551965 20 13 7341 42.36400000 3185770254 3185770254 1.33300000
39.99703979 8.77928448 0.47672564 27 14 7342 40.95200000 3185770256 3185770256 0.66700000
20.60516930 6.68707418 -1.51483154 16 15 7342 21.71600000 3185770256 3185770256 -4.00000000
19.73928833 5.35194874 -1.66959894 5 16 7343 20.52000000 3185770259 3185770259 -4.66700000
40.28941727 15.28037930 1.25403476 17 17 7343 43.10800000 3185770259 3185770259 1.66700000
40.34885788 10.93985939 0.72972000 19 18 7343 41.81200000 3185770261 3185770261 1.00000000
20.59905243 7.81250668 -1.41192663 23 19 7343 22.07600000 3185770261 3185770261 -3.66700000
20.59948349 4.51401615 -1.22812867 16 20 7344 21.12400000 3185770263 3185770263 -3.33300000
40.09476852 12.99664116 2.45462942 12 21 7344 42.22000000 3185770263 3185770263 3.33300000
40.38709259 10.93509293 1.70465803 17 22 7345 41.87600000 3185770266 3185770266 2.33300000
20.67082596 6.69642067 -1.01214504 24 23 7345 21.75200000 3185770266 3185770266 -2.66700000
20.62890816 5.58155966 -1.11998951 29 24 7346 21.40000000 3185770268 3185770268 -3.00000000
43.22951126 13.99608803 5.57917833 27 25 7346 45.78000000 3185770268 3185770268 7.00000000
43.29609680 11.70650673 3.66140127 30 26 7347 45.00000000 3185770270 3185770270 4.66700000
20.67825317 7.82603645 -0.90077072 24 27 7347 22.12800000 3185770270 3185770270 -2.33300000
20.66402245 4.51304197 -0.73861295 14 28 7348 21.16400000 3185770273 3185770273 -2.00000000
38.46228409 12.43039322 -0.94057530 10 31 7349 40.43200000 3185770275 3185770275 -1.33300000
5.66092968 1.52213764 -2.73349500 7 0 7355 6.46800000 3185770296 3185770296 -25.00000000
39.38916397 14.84465694 -0.73474634 26 1 7355 42.10000000 3185770296 3185770296 -1.00000000
36.76772308 9.87939930 -1.10800028 7 2 7356 38.08800000 3185770298 3185770298 -1.66700000
8.43341160 2.71416807 -2.48009324 3 3 7356 9.20000000 3185770298 3185770298 -15.63900000
11.14470768 2.99247050 -2.30790830 4 4 7357 11.76800000 3185770300 3185770300 -11.31000000
40.27210617 12.95322227 0.00000000 14 5 7357 42.30400000 3185770300 3185770300 0.00000000
40.12152100 8.69657135 -0.47793630 30 6 7357 41.05600000 3185770303 3185770303 -0.66700000
13.04121876 4.19461107 -2.13127732 2 7 7357 13.86400000 3185770303 3185770303 -8.84300000
15.33734512 4.11536789 -2.02130175 2 8 7358 16.00800000 3185770305 3185770305 -7.25400000
40.28577805 15.15847969 0.25016803 27 9 7358 43.04400000 3185770305 3185770305 0.33300000
40.44653320 10.84518242 -0.24337970 15 10 7359 41.87600000 3185770307 3185770307 -0.33300000
16.47841644 5.29381371 -1.86434543 2 11 7359 17.40800000 3185770307 3185770307 -6.14800000
18.88368225 4.08279657 -1.80348670 6 12 7360 19.40400000 3185770309 3185770309 -5.33300000
40.27178955 12.92985725 0.98421693 13 13 7360 42.30800000 3185770309 3185770309 1.33300000
40.08848572 8.66011429 0.47747067 27 14 7361 41.01600000 3185770312 3185770312 0.66700000
20.60823250 6.61261272 -1.51343644 16 15 7361 21.69600000 3185770312 3185770312 -4.00000000
19.76077843 5.28749228 -1.66992450 7 16 7362 20.52400000 3185770314 3185770314 -4.66700000
40.28746414 15.12701416 1.25240564 25 17 7362 43.05200000 3185770314 3185770314 1.66700000
40.21492004 10.76051140 0.72664839 18 18 7362 41.63600000 3185770316 3185770316 1.00000000
20.59494972 7.73292923 -1.40988004 26 19 7362 22.04400000 3185770316 3185770316 -3.66700000
20.59482193 4.44147205 -1.22696590 16 20 7363 21.10400000 3185770319 3185770319 -3.33300000
40.19468689 12.88189125 2.45811772 12 21 7363 42.28000000 3185770319 3185770319 3.33300000
20.65486526 6.61564922 -1.01028371 24 23 7364 21.71200000 3185770321 3185770321 -2.66700000
20.62800598 5.50796843 -1.11894274 29 24 7365 21.38000000 3185770323 3185770323 -3.00000000
42.73119736 13.67836380 5.50898170 18 25 7365 45.20400000 3185770323 3185770323 7.00000000
43.23452759 11.53614426 3.65293932 10 26 7366 44.89600000 3185770326 3185770326 4.66700000
20.68163681 7.74900818 -0.89979374 24 27 7366 22.10400000 3185770326 3185770326 -2.33300000
20.66714859 4.44197273 -0.73819417 16 28 7367 21.15200000 3185770328 3185770328 -2.00000000
38.51257324 12.31315231 -0.94085443 16 31 7367 40.44400000 3185770330 3185770330 -1.33300000
5.66296625 1.50045049 -2.73180437 8 0 7376 6.46400000 3185770351 3185770351 -25.00000000
39.34587097 14.66387463 -0.73293126 17 1 7376 41.99600000 3185770351 3185770351 -1.00000000
36.99307632 9.79471779 -1.11370206 7 2 7377 38.28400000 3185770353 3185770353 -1.66700000
8.44330311 2.68323994 -2.48009324 2 3 7377 9.20000000 3185770353 3185770353 -15.63900000
11.16318417 2.95360947 -2.30947733 4 4 7378 11.77600000 3185770356 3185770356 -11.31000000
40.25450134 12.78494740 0.00000000 21 5 7378 42.23600000 3185770356 3185770356 0.00000000
40.17417908 8.54661369 -0.47816914 20 6 7379 41.07600000 3185770358 3185770358 -0.66700000
13.06476307 4.14689684 -2.13250709 2 7 7379 13.87200000 3185770358 3185770358 -8.84300000
15.35999775 4.06115437 -2.02231193 4 8 7379 16.01600000 3185770360 3185770360 -7.25400000
40.29982758 14.99537849 0.24991229 27 9 7379 43.00000000 3185770360 3185770360 0.33300000
40.43186951 10.68256092 -0.24305423 15 10 7380 41.82000000 3185770362 3185770362 -0.33300000
16.50149918 5.23458385 -1.86477375 2 11 7380 17.41200000 3185770362 3185770362 -6.14800000
18.89072800 4.01190233 -1.80274320 6 12 7381 19.39600000 3185770365 3185770365 -5.33300000
40.26554108 12.76524734 0.98291421 20 13 7381 42.25200000 3185770365 3185770365 1.33300000
39.70521927 8.42512035 0.47253484 27 14 7382 40.59200000 3185770367 3185770367 0.66700000
20.60190010 6.52739334 -1.51120424 16 15 7382 21.66400000 3185770367 3185770367 -4.00000000
19.78773499 5.21706247 -1.67057538 5 16 7383 20.53200000 3185770369 3185770369 -4.66700000
40.30515289 14.96533394 1.25124204 25 17 7383 43.01200000 3185770369 3185770369 1.66700000
40.03936768 10.54895878 0.72273904 18 18 7384 41.41200000 3185770372 3185770372 1.00000000
20.59829330 7.64407158 -1.40808916 22 19 7384 22.01600000 3185770372 3185770372 -3.66700000
20.59924316 4.36347580 -1.22626817 19 20 7384 21.09200000 3185770374 3185770374 -3.33300000
40.19975281 12.72123146 2.45555973 12 21 7384 42.23600000 3185770374 3185770374 3.33300000
39.85178375 10.49209881 1.67893112 17 22 7385 41.24400000 3185770376 3185770376 2.33300000
20.66373444 6.53508139 -1.00953925 24 23 7385 21.69600000 3185770376 3185770376 -2.66700000
20.63646698 5.42927694 -1.11831474 25 24 7386 21.36800000 3185770379 3185770379 -3.00000000
43.29209900 13.68318176 5.57479143 27 25 7386 45.74400000 3185770379 3185770379 7.00000000
44.32141495 11.65231323 3.74113846 10 26 7387 45.98000000 3185770381 3185770381 4.66700000
20.67991638 7.66204548 -0.89849108 24 27 7387 22.07200000 3185770381 3185770381 -2.33300000
20.66764641 4.36289120 -0.73763579 14 28 7388 21.13600000 3185770383 3185770383 -2.00000000
38.40109253 12.12255669 -0.93703932 15 31 7388 40.28000000 3185770386 3185770386 -1.33300000
5.67141819 1.48258007 -2.73349500 8 0 7395 6.46800000 3185770406 3185770406 -25.00000000
39.33049393 14.50978565 -0.73174447 17 1 7395 41.92800000 3185770406 3185770406 -1.00000000
37.16849136 9.70938015 -1.11800742 7 2 7396 38.43200000 3185770409 3185770409 -1.66700000
8.45582867 2.65638065 -2.48117161 2 3 7396 9.20400000 3185770409 3185770409 -15.63900000
11.16532707 2.91459346 -2.30790830 4 4 7397 11.76800000 3185770411 3185770411 -11.31000000
40.23942947 12.63341522 0.00000000 21 5 7397 42.17600000 3185770411 3185770411 0.00000000
40.16314697 8.40515137 -0.47770348 20 6 7398 41.03600000 3185770413 3185770413 -0.66700000
13.08598518 4.10591650 -2.13373709 2 7 7398 13.88000000 3185770413 3185770413 -8.84300000
15.38489914 4.01320124 -2.02382708 2 8 7398 16.02800000 3185770415 3185770415 -7.25400000
40.29678345 14.84230232 0.24958682 26 9 7398 42.94400000 3185770415 3185770415 0.33300000
40.43610764 10.54035378 -0.24286824 15 10 7399 41.78800000 3185770418 3185770418 -0.33300000
16.53015137 5.18340397 -1.86605895 2 11 7399 17.42400000 3185770418 3185770418 -6.14800000
18.92341995 3.95330834 -1.80460203 6 12 7400 19.41600000 3185770420 3185770420 -5.33300000
40.26567459 12.61849785 0.98189062 20 13 7400 42.20800000 3185770420 3185770420 1.33300000
39.68595505 8.28359985 0.47197607 17 14 7401 40.54400000 3185770422 3185770422 0.66700000
20.59677696 6.45069122 -1.50925112 16 15 7401 21.63600000 3185770422 3185770422 -4.00000000
19.80492592 5.15141535 -1.67057538 5 16 7402 20.53200000 3185770425 3185770425 -4.66700000
40.26448822 14.79849148 1.24844933 25 17 7402 42.91600000 3185770425 3185770425 1.66700000
40.18068695 10.45130920 0.72469372 27 18 7402 41.52400000 3185770427 3185770427 1.00000000
20.59972572 7.57106018 -1.40655422 12 19 7402 21.99200000 3185770427 3185770427 -3.66700000
20.60968971 4.29432774 -1.22603571 19 20 7403 21.08800000 3185770429 3185770429 -3.33300000
40.25696182 12.59262276 2.45648980 12 21 7403 42.25200000 3185770429 3185770429 3.33300000
40.11845779 10.42017269 1.68870080 17 22 7404 41.48400000 3185770432 3185770432 2.33300000
20.66241074 6.45936871 -1.00842249 24 23 7404 21.67200000 3185770432 3185770432 -2.66700000
20.62729263 5.35378933 -1.11684930 29 24 7405 21.34000000 3185770434 3185770434 -3.00000000
43.43197250 13.56914330 5.58697796 27 25 7405 45.84400000 3185770434 3185770434 7.00000000
20.67894554 7.58379364 -0.89735126 24 27 7406 22.04400000 3185770436 3185770436 -2.33300000
20.67417145 4.29270554 -0.73735654 14 28 7407 21.12800000 3185770439 3185770439 -2.00000000
38.42963028 11.99157429 -0.93676013 15 31 7407 40.26800000 3185770441 3185770441 -1.33300000
5.68032503 1.46268737 -2.73518538 7 0 7416 6.47200000 3185770461 3185770461 -25.00000000
39.45479965 14.39157391 -0.73307085 17 1 7416 42.00400000 3185770461 3185770461 -1.00000000
37.27739716 9.59201717 -1.12021828 7 2 7417 38.50800000 3185770463 3185770463 -1.66700000
8.46550846 2.62537074 -2.48117161 2 3 7417 9.20400000 3185770463 3185770463 -15.63900000
11.17973328 2.87462783 -2.30869269 4 4 7418 11.77200000 3185770466 3185770466 -11.31000000
40.30456924 12.49176693 0.00000000 21 5 7418 42.19600000 3185770466 3185770466 0.00000000
39.87882233 8.20045471 -0.47397834 19 6 7418 40.71600000 3185770468 3185770468 -0.66700000
13.08891201 4.05670261 -2.13189220 2 7 7418 13.86800000 3185770468 3185770468 -8.84300000
15.40334797 3.95777345 -2.02433205 2 8 7419 16.03200000 3185770470 3185770470 -7.25400000
40.29453659 14.67397690 0.24923810 26 9 7419 42.88400000 3185770470 3185770470 0.33300000
40.43960190 10.38312435 -0.24265902 23 10 7420 41.75200000 3185770473 3185770473 -0.33300000
16.53764153 5.11925507 -1.86477375 2 11 7420 17.41200000 3185770473 3185770473 -6.14800000
18.92607880 3.88152361 -1.80348670 6 12 7421 19.40400000 3185770475 3185770475 -5.33300000
40.26198959 12.45546818 0.98068094 13 13 7421 42.15600000 3185770475 3185770475 1.33300000
39.72388840 8.13969326 0.47206920 26 14 7422 40.55200000 3185770477 3185770477 0.66700000
20.60122108 6.36926365 -1.50785589 12 15 7422 21.61600000 3185770477 3185770477 -4.00000000
19.82367516 5.07879210 -1.67057538 5 16 7423 20.53200000 3185770479 3185770479 -4.66700000
40.27336121 14.63442898 1.24705303 25 17 7423 42.86800000 3185770479 3185770479 1.66700000
40.28845978 10.32183552 0.72595030 18 18 7423 41.59600000 3185770482 3185770482 1.00000000
20.58981895 7.48187447 -1.40399587 10 19 7423 21.95200000 3185770482 3185770482 -3.66700000
20.60964203 4.21555948 -1.22510540 19 20 7424 21.07200000 3185770484 3185770484 -3.33300000
40.23798370 12.42496014 2.45253634 12 21 7424 42.18400000 3185770484 3185770484 3.33300000
40.06344986 10.24928761 1.68479288 26 22 7425 41.38800000 3185770486 3185770486 2.33300000
20.65922165 6.37534618 -1.00711966 24 23 7425 21.64400000 3185770486 3185770486 -2.66700000
20.62742615 5.27320385 -1.11580265 29 24 7426 21.32000000 3185770489 3185770489 -3.00000000
43.32207489 13.36072445 5.56650400 18 25 7426 45.67600000 3185770489 3185770489 7.00000000
42.93386078 10.96764755 3.61746454 10 26 7427 44.46000000 3185770491 3185770491 4.66700000
20.67654419 7.49705172 -0.89604867 24 27 7427 22.01200000 3185770491 3185770491 -2.33300000
20.67409897 4.21370888 -0.73679817 14 28 7428 21.11200000 3185770493 3185770493 -2.00000000
38.46567917 11.84828758 -0.93657404 10 31 7428 40.26000000 3185770496 3185770496 -1.33300000
5.67836809 1.44106686 -2.73180437 7 0 7436 6.46400000 3185770516 3185770516 -25.00000000
39.54241562 14.26733685 -0.73376900 17 1 7436 42.04400000 3185770516 3185770516 -1.00000000
37.48505783 9.50606441 -1.12545455 7 2 7437 38.68800000 3185770519 3185770519 -1.66700000
8.47462082 2.59580445 -2.48117161 2 3 7437 9.20400000 3185770519 3185770519 -15.63900000
11.18969917 2.83558559 -2.30869269 4 4 7438 11.77200000 3185770521 3185770521 -11.31000000
40.30585480 12.33812237 0.00000000 14 5 7438 42.15200000 3185770521 3185770521 0.00000000
39.89544296 8.05882549 -0.47383866 29 6 7438 40.70400000 3185770523 3185770523 -0.66700000
13.11055183 4.01330280 -2.13312221 2 7 7438 13.87600000 3185770523 3185770523 -8.84300000
15.41322327 3.90300751 -2.02382708 2 8 7439 16.02800000 3185770526 3185770526 -7.25400000
40.28153992 14.51018810 0.24884290 17 9 7439 42.81600000 3185770526 3185770526 0.33300000
40.34375763 10.20853996 -0.24186860 23 10 7440 41.61600000 3185770528 3185770528 -0.33300000
16.55921364 5.06265974 -1.86520219 2 11 7440 17.41600000 3185770528 3185770528 -6.14800000
18.94732094 3.81700873 -1.80423021 6 12 7441 19.41200000 3185770530 3185770530 -5.33300000
40.28992462 12.31017780 0.98030871 13 13 7441 42.14000000 3185770530 3185770530 1.33300000
40.03437805 8.05780506 0.47542185 18 14 7442 40.84000000 3185770532 3185770532 0.66700000
20.60424614 6.29148674 -1.50646079 8 15 7442 21.59600000 3185770532 3185770532 -4.00000000
19.85287857 5.01249170 -1.67155170 5 16 7443 20.54400000 3185770535 3185770535 -4.66700000
40.23013687 14.45994949 1.24414396 16 17 7443 42.76800000 3185770535 3185770535 1.66700000
40.30097580 10.17526531 0.72553146 18 18 7443 41.57200000 3185770537 3185770537 1.00000000
20.58951378 7.40050554 -1.40220511 12 19 7443 21.92400000 3185770537 3185770537 -3.66700000
20.61248589 4.14123344 -1.22440779 22 20 7444 21.06000000 3185770539 3185770539 -3.33300000
40.25055313 12.27510834 2.45067596 12 21 7444 42.15200000 3185770539 3185770539 3.33300000
40.04085159 10.09472179 1.68235052 26 22 7445 41.32800000 3185770542 3185770542 2.33300000
20.65841675 6.29620409 -1.00600290 25 23 7445 21.62000000 3185770542 3185770542 -2.66700000
20.63021278 5.19726562 -1.11496520 29 24 7446 21.30400000 3185770544 3185770544 -3.00000000
42.35440445 12.90055656 5.43634748 17 25 7446 44.60800000 3185770544 3185770544 7.00000000
20.68377686 7.41808510 -0.89523453 27 27 7447 21.99200000 3185770546 3185770546 -2.33300000
20.66516113 4.13680887 -0.73596060 16 28 7448 21.08800000 3185770549 3185770549 -2.00000000
38.51445389 11.71627235 -0.93676013 15 31 7448 40.26800000 3185770551 3185770551 -1.33300000
5.68688107 1.42211640 -2.73349500 7 0 7456 6.46800000 3185770572 3185770572 -25.00000000
37.73523712 9.42944050 -1.13197088 8 2 7457 38.91200000 3185770574 3185770574 -1.66700000
8.48731709 2.56732202 -2.48224998 2 3 7457 9.20800000 3185770574 3185770574 -15.63900000
11.21475124 2.80030990 -2.31183052 4 4 7458 11.78800000 3185770576 3185770576 -11.31000000
40.48651505 12.23902225 0.00000000 14 5 7458 42.29600000 3185770576 3185770576 0.00000000
39.80563354 7.89616823 -0.47244173 29 6 7458 40.58400000 3185770579 3185770579 -0.66700000
13.13204765 3.96980119 -2.13435197 2 7 7458 13.88400000 3185770579 3185770579 -8.84300000
15.43060303 3.85014200 -2.02433205 2 8 7459 16.03200000 3185770581 3185770581 -7.25400000
40.22644043 14.33190250 0.24819197 17 9 7459 42.70400000 3185770581 3185770581 0.33300000
40.42959976 10.08023167 -0.24217083 23 10 7460 41.66800000 3185770583 3185770583 -0.33300000
16.57678413 5.00482655 -1.86520219 2 11 7460 17.41600000 3185770583 3185770583 -6.14800000
19.05820274 3.77016926 -1.81352460 6 12 7461 19.51200000 3185770585 3185770585 -5.33300000
40.45133209 12.20527458 0.98319334 13 13 7461 42.26400000 3185770585 3185770585 1.33300000
40.00340271 7.90637684 0.47472337 18 14 7462 40.78000000 3185770588 3185770588 0.66700000
20.61080170 6.21491814 -1.50534475 15 15 7462 21.58000000 3185770588 3185770588 -4.00000000
19.87412262 4.94412374 -1.67187715 5 16 7463 20.54800000 3185770590 3185770590 -4.66700000
40.25399399 14.31005764 1.24332941 16 17 7463 42.74000000 3185770590 3185770590 1.66700000
40.28366470 10.01397896 0.72455412 18 18 7464 41.51600000 3185770592 3185770592 1.00000000
20.59016991 7.31563663 -1.40041423 22 19 7464 21.89600000 3185770592 3185770592 -3.66700000
20.59547424 4.06307364 -1.22254729 19 20 7464 21.02800000 3185770595 3185770595 -3.33300000
40.33139038 12.14604855 2.45300150 19 21 7464 42.19200000 3185770595 3185770595 3.33300000
39.95560455 9.92502308 1.67730284 17 22 7465 41.20400000 3185770597 3185770597 2.33300000
20.65731239 6.21714497 -1.00488615 25 23 7465 21.59600000 3185770597 3185770597 -2.66700000
20.62496758 5.11944723 -1.11370909 29 24 7466 21.28000000 3185770599 3185770599 -3.00000000
41.19071960 10.21656418 3.46449924 28 26 7467 42.58000000 3185770602 3185770602 4.66700000
20.68694496 7.33782339 -0.89425755 29 27 7467 21.96800000 3185770602 3185770602 -2.33300000
20.67163086 4.06310701 -0.73568141 14 28 7468 21.08000000 3185770604 3185770604 -2.00000000
110.16383362 27.30360603 20.69342613 28 30 7468 115.36800000 3185770606 3185770606 10.33300000
38.63171387 11.60477066 -0.93862116 15 31 7468 40.34800000 3185770606 3185770606 -1.33300000
5.69181061 1.40225685 -2.73349500 7 0 7476 6.46800000 3185770627 3185770627 -25.00000000
39.53545761 13.95366383 -0.73181432 17 1 7476 41.93200000 3185770627 3185770627 -1.00000000
37.95039368 9.34258270 -1.13743985 8 2 7477 39.10000000 3185770629 3185770629 -1.66700000
8.49253654 2.53657770 -2.48117161 2 3 7477 9.20400000 3185770629 3185770629 -15.63900000
11.22445774 2.76114607 -2.31183052 4 4 7478 11.78800000 3185770631 3185770631 -11.31000000
40.51366043 12.09304714 0.00000000 21 5 7478 42.28000000 3185770631 3185770631 0.00000000
39.73615265 7.73112345 -0.47127762 29 6 7479 40.48400000 3185770634 3185770634 -0.66700000
13.13514709 3.91825366 -2.13250709 2 7 7479 13.87200000 3185770634 3185770634 -8.84300000
15.45165539 3.79815006 -2.02534223 2 8 7479 16.04000000 3185770636 3185770636 -7.25400000
40.29131317 14.19671631 0.24828495 26 9 7479 42.72000000 3185770636 3185770636 0.33300000
40.39073563 9.92091560 -0.24172911 23 10 7480 41.59200000 3185770638 3185770638 -0.33300000
16.59796524 4.94806814 -1.86563063 2 11 7480 17.42000000 3185770638 3185770638 -6.14800000
18.97350693 3.68463945 -1.80423021 6 12 7481 19.41200000 3185770641 3185770641 -5.33300000
40.46686172 12.05600548 0.98254198 20 13 7481 42.23600000 3185770641 3185770641 1.33300000
39.91296387 7.74383640 0.47332644 27 14 7482 40.66000000 3185770643 3185770643 0.66700000
20.60177422 6.13382626 -1.50311255 18 15 7482 21.54800000 3185770643 3185770643 -4.00000000
19.90674973 4.87851572 -1.67317903 7 16 7483 20.56400000 3185770645 3185770645 -4.66700000
40.23580551 14.14558792 1.24123490 16 17 7483 42.66800000 3185770645 3185770645 1.66700000
40.31665039 9.88033867 0.72455412 18 18 7483 41.51600000 3185770648 3185770648 1.00000000
20.60678482 7.24466896 -1.39990258 50 19 7483 21.88800000 3185770648 3185770648 -3.66700000
20.59777069 3.98887992 -1.22184968 19 20 7484 21.01600000 3185770650 3185770650 -3.33300000
40.18981934 11.95056057 2.44183898 31 21 7484 42.00000000 3185770650 3185770650 3.33300000
40.01717758 9.79214096 1.67844260 26 22 7485 41.23200000 3185770652 3185770652 2.33300000
20.65973663 6.13930893 -1.00395548 25 23 7485 21.57600000 3185770652 3185770652 -2.66700000
20.62331200 5.04267740 -1.11266243 24 24 7486 21.26000000 3185770655 3185770655 -3.00000000
42.82782745 12.71871090 5.48558283 18 25 7486 45.01200000 3185770655 3185770655 7.00000000
41.20676804 10.06798840 3.46287203 18 26 7487 42.56000000 3185770657 3185770657 4.66700000
20.68980408 7.25763035 -0.89328057 27 27 7487 21.94400000 3185770657 3185770657 -2.33300000
20.66213799 3.98638082 -0.73484379 15 28 7488 21.05600000 3185770659 3185770659 -2.00000000
109.99938202 26.83529854 20.64392090 28 30 7489 115.09200000 3185770661 3185770661 10.33300000
38.69699478 11.46991825 -0.93917948 10 31 7489 40.37200000 3185770661 3185770661 -1.33300000
5.69290638 1.38251889 -2.73180437 6 0 7495 6.46400000 3185770682 3185770682 -25.00000000
39.60039139 13.82907581 -0.73216337 17 1 7495 41.95200000 3185770682 3185770682 -1.00000000
38.10939026 9.24779892 -1.14127982 8 2 7496 39.23200000 3185770684 3185770684 -1.66700000
8.50459576 2.50949168 -2.48224998 2 3 7496 9.20800000 3185770684 3185770684 -15.63900000
11.23355293 2.72390938 -2.31183052 4 4 7497 11.78800000 3185770687 3185770687 -11.31000000
40.51133728 11.94618702 0.00000000 21 5 7497 42.23600000 3185770687 3185770687 0.00000000
39.57299805 7.56327057 -0.46904251 19 6 7498 40.29200000 3185770689 3185770689 -0.66700000
13.17460728 3.88249540 -2.13681149 2 7 7498 13.90000000 3185770689 3185770689 -8.84300000
15.47573471 3.74969292 -2.02685761 2 8 7498 16.05200000 3185770691 3185770691 -7.25400000
40.28529358 14.04459286 0.24795948 26 9 7498 42.66400000 3185770691 3185770691 0.33300000
40.32622147 9.76339054 -0.24114792 23 10 7499 41.49200000 3185770694 3185770694 -0.33300000
16.60665131 4.89075327 -1.86477375 2 11 7499 17.41200000 3185770694 3185770694 -6.14800000
19.08342361 3.64035773 -1.81352460 6 12 7500 19.51200000 3185770696 3185770696 -5.33300000
40.46442032 11.90932655 0.98151839 20 13 7500 42.19200000 3185770696 3185770696 1.33300000
39.86769867 7.59795952 0.47248828 27 14 7501 40.58800000 3185770698 3185770698 0.66700000
20.59520531 6.05759287 -1.50115931 20 15 7501 21.52000000 3185770698 3185770698 -4.00000000
19.92669296 4.81341219 -1.67350447 7 16 7502 20.56800000 3185770701 3185770701 -4.66700000
40.21829224 13.98975182 1.23925674 16 17 7502 42.60000000 3185770701 3185770701 1.66700000
40.28699112 9.73156452 0.72343713 27 18 7502 41.45200000 3185770703 3185770703 1.00000000
20.60053444 7.16580296 -1.39785600 27 19 7502 21.85600000 3185770703 3185770703 -3.66700000
20.59519386 3.91756845 -1.22091949 19 20 7503 21.00000000 3185770705 3185770705 -3.33300000
40.26371002 11.82734966 2.44393182 19 21 7503 42.03600000 3185770705 3185770705 3.33300000
40.04166031 9.65751171 1.67811692 17 22 7504 41.22400000 3185770708 3185770708 2.33300000
20.65697861 6.06401205 -1.00283873 25 23 7504 21.55200000 3185770708 3185770708 -2.66700000
20.61273766 4.96770906 -1.11119699 24 24 7505 21.23200000 3185770710 3185770710 -3.00000000
42.85453033 12.57214832 5.48363304 27 25 7505 44.99600000 3185770710 3185770710 7.00000000
20.68732643 7.17980766 -0.89214075 27 27 7506 21.91600000 3185770712 3185770712 -2.33300000
20.66345978 3.91560793 -0.73442501 13 28 7507 21.04400000 3185770714 3185770714 -2.00000000
110.70294189 26.63873672 20.76015282 28 30 7507 115.74000000 3185770717 3185770717 10.33300000
38.59084702 11.30669022 -0.93573654 15 31 7507 40.22400000 3185770717 3185770717 -1.33300000
5.70827484 1.36516809 -2.73687577 7 0 7515 6.47600000 3185770737 3185770737 -25.00000000
39.53879166 13.65290451 -0.73013890 26 1 7515 41.83600000 3185770737 3185770737 -1.00000000
38.16477203 9.12029171 -1.14197803 8 2 7516 39.25600000 3185770740 3185770740 -1.66700000
8.50960541 2.47871256 -2.48117161 2 3 7516 9.20400000 3185770740 3185770740 -15.63900000
11.24299240 2.68468022 -2.31183052 4 4 7517 11.78800000 3185770742 3185770742 -11.31000000
40.50286102 11.79016972 0.00000000 14 5 7517 42.18400000 3185770742 3185770742 0.00000000
39.57427597 7.42757320 -0.46876314 19 6 7517 40.26800000 3185770744 3185770744 -0.66700000
13.19120407 3.83989000 -2.13742638 1 7 7517 13.90400000 3185770744 3185770744 -8.84300000
15.49258900 3.69657063 -2.02736259 2 8 7518 16.05600000 3185770747 3185770747 -7.25400000
40.27356720 13.88302803 0.24758752 26 9 7518 42.60000000 3185770747 3185770747 0.33300000
40.36783981 9.62442112 -0.24119441 23 10 7519 41.50000000 3185770749 3185770749 -0.33300000
16.63125992 4.83497572 -1.86563063 2 11 7519 17.42000000 3185770749 3185770749 -6.14800000
19.09992981 3.57445455 -1.81389642 6 12 7520 19.51600000 3185770751 3185770751 -5.33300000
40.46350479 11.75573444 0.98049486 20 13 7520 42.14800000 3185770751 3185770751 1.33300000
39.87432098 7.45507336 0.47225547 26 14 7521 40.56800000 3185770754 3185770754 0.66700000
20.59706497 5.98010254 -1.49976420 20 15 7521 21.50000000 3185770754 3185770754 -4.00000000
19.94337273 4.74382544 -1.67350447 5 16 7522 20.56800000 3185770756 3185770756 -4.66700000
40.23285294 13.83757496 1.23820949 16 17 7522 42.56400000 3185770756 3185770756 1.66700000
39.91217804 9.49370003 0.71610713 27 18 7522 41.03200000 3185770758 3185770758 1.00000000
20.59522438 7.08346367 -1.39580929 37 19 7522 21.82400000 3185770758 3185770758 -3.66700000
20.59304237 3.84272385 -1.21998918 19 20 7523 20.98400000 3185770761 3185770761 -3.33300000
40.34310150 11.69785118 2.44625735 12 21 7523 42.07600000 3185770761 3185770761 3.33300000
39.92347336 9.48166466 1.67176664 25 22 7524 41.06800000 3185770763 3185770763 2.33300000
20.64731789 5.98297215 -1.00134981 24 23 7524 21.52000000 3185770763 3185770763 -2.66700000
20.61829185 4.89296007 -1.11056900 28 24 7525 21.22000000 3185770765 3185770765 -3.00000000
42.97442627 12.44456768 5.49338245 27 25 7525 45.07600000 3185770765 3185770765 7.00000000
40.52954483 9.61065865 3.40038395 18 26 7526 41.79200000 3185770767 3185770767 4.66700000
20.67823982 7.09587622 -0.89067531 27 27 7526 21.88000000 3185770767 3185770767 -2.33300000
20.65735054 3.83980250 -0.73372704 15 28 7527 21.02400000 3185770770 3185770770 -2.00000000
99.07462311 23.45676613 18.56324196 28 30 7528 103.49200000 3185770772 3185770772 10.33300000
38.58976746 11.15295887 -0.93471295 15 31 7528 40.18000000 3185770772 3185770772 -1.33300000
5.70265341 1.34174621 -2.73180437 7 0 7536 6.46400000 3185770793 3185770793 -25.00000000
39.55828476 13.49756336 -0.72958040 17 1 7536 41.80400000 3185770793 3185770793 -1.00000000
38.18237305 8.97668934 -1.14151251 16 2 7537 39.24000000 3185770795 3185770795 -1.66700000
8.52233505 2.44857025 -2.48224998 2 3 7537 9.20800000 3185770795 3185770795 -15.63900000
11.26039314 2.64524865 -2.31339955 2 4 7538 11.79600000 3185770797 3185770797 -11.31000000
40.51504517 11.63280869 0.00000000 21 5 7538 42.15200000 3185770797 3185770797 0.00000000
39.66024017 7.29332733 -0.46946159 19 6 7538 40.32800000 3185770800 3185770800 -0.66700000
13.18999386 3.78715301 -2.13496685 1 7 7538 13.88800000 3185770800 3185770800 -8.84300000
15.50217056 3.63885570 -2.02685761 2 8 7539 16.05200000 3185770802 3185770802 -7.25400000
40.27117157 13.71726894 0.24726206 17 9 7539 42.54400000 3185770802 3185770802 0.33300000
40.45346832 9.48827553 -0.24149664 15 10 7540 41.55200000 3185770804 3185770804 -0.33300000
16.65651512 4.77617931 -1.86648738 2 11 7540 17.42800000 3185770804 3185770804 -6.14800000
19.11681938 3.50514412 -1.81426823 6 12 7541 19.52000000 3185770807 3185770807 -5.33300000
40.45634460 11.59302902 0.97928512 20 13 7541 42.09600000 3185770807 3185770807 1.33300000
39.92104721 7.31247997 0.47248828 18 14 7542 40.58800000 3185770809 3185770809 0.66700000
20.59199142 5.89688063 -1.49781096 20 15 7542 21.47200000 3185770809 3185770809 -4.00000000
19.97227097 4.67342281 -1.67448092 7 16 7543 20.58000000 3185770811 3185770811 -4.66700000
40.23787308 13.67458344 1.23681319 24 17 7543 42.51600000 3185770811 3185770811 1.66700000
39.97396469 9.35372925 0.71659583 18 18 7543 41.06000000 3185770814 3185770814 1.00000000
20.58325195 6.99508619 -1.39325106 30 19 7543 21.78400000 3185770814 3185770814 -3.66700000
20.59520340 3.76506639 -1.21929157 19 20 7544 20.97200000 3185770816 3185770816 -3.33300000
40.23981094 11.50818348 2.43742037 12 21 7544 41.92400000 3185770816 3185770816 3.33300000
39.96963501 9.33800220 1.67225504 25 22 7545 41.08000000 3185770818 3185770818 2.33300000
20.64989853 5.90176582 -1.00041914 24 23 7545 21.50000000 3185770818 3185770818 -2.66700000
20.63219833 4.81644917 -1.11035967 28 24 7546 21.21600000 3185770820 3185770820 -3.00000000
43.08082962 12.30442047 5.50118208 18 25 7546 45.14000000 3185770820 3185770820 7.00000000
40.56837845 9.46295166 3.40070963 27 26 7547 41.79600000 3185770823 3185770823 4.66700000
20.67004395 7.00848866 -0.88920981 27 27 7547 21.84400000 3185770823 3185770823 -2.33300000
20.65555382 3.76119900 -0.73316860 15 28 7548 21.00800000 3185770825 3185770825 -2.00000000
96.42347717 22.45618629 18.05096436 28 30 7549 100.63600000 3185770827 3185770827 10.33300000
38.58423996 10.99829006 -0.93359631 10 31 7549 40.13200000 3185770827 3185770827 -1.33300000
5.70377064 1.32101417 -2.73011398 8 0 7556 6.46000000 3185770848 3185770848 -25.00000000
39.62410736 13.36578846 -0.72992945 17 1 7556 41.82400000 3185770848 3185770848 -1.00000000
38.10440445 8.81811237 -1.13825440 16 2 7557 39.12800000 3185770850 3185770850 -1.66700000
8.53453636 2.41985750 -2.48332834 2 3 7557 9.21200000 3185770850 3185770850 -15.63900000
11.26573658 2.60504270 -2.31261516 4 4 7558 11.79200000 3185770853 3185770853 -11.31000000
40.50152588 11.47604752 0.00000000 14 5 7558 42.09600000 3185770853 3185770853 0.00000000
39.63428497 7.14561701 -0.46885628 29 6 7558 40.27600000 3185770855 3185770855 -0.66700000
13.20693588 3.74216580 -2.13558173 2 7 7558 13.89200000 3185770855 3185770855 -8.84300000
15.52637577 3.58740067 -2.02837276 2 8 7559 16.06400000 3185770857 3185770857 -7.25400000
40.28469086 13.56512451 0.24705283 17 9 7559 42.50800000 3185770857 3185770857 0.33300000
40.44347000 9.33711052 -0.24124092 15 10 7560 41.50800000 3185770860 3185770860 -0.33300000
16.66926003 4.71692514 -1.86605895 2 11 7560 17.42400000 3185770860 3185770860 -6.14800000
19.12109947 3.43698359 -1.81352460 6 12 7561 19.51200000 3185770862 3185770862 -5.33300000
40.44654083 11.43759346 0.97807544 13 13 7561 42.04400000 3185770862 3185770862 1.33300000
39.75342941 7.13844585 0.47020662 26 14 7562 40.39200000 3185770864 3185770864 0.66700000
20.58557129 5.81736946 -1.49585783 22 15 7562 21.44400000 3185770864 3185770864 -4.00000000
19.98457909 4.60278320 -1.67415535 7 16 7563 20.57600000 3185770867 3185770867 -4.66700000
40.23229980 13.51621723 1.23518407 16 17 7563 42.46000000 3185770867 3185770867 1.66700000
40.09211349 9.23388577 0.71813160 27 18 7563 41.14800000 3185770869 3185770869 1.00000000
20.58105659 6.91429615 -1.39146018 27 19 7563 21.75600000 3185770869 3185770869 -3.66700000
20.58856773 3.68963099 -1.21812880 19 20 7564 20.95200000 3185770871 3185770871 -3.33300000
40.32585526 11.38066578 2.44021106 18 21 7564 41.97200000 3185770871 3185770871 3.33300000
40.04093552 9.20738125 1.67388332 25 22 7565 41.12000000 3185770873 3185770873 2.33300000
20.64345360 5.82205629 -0.99911630 27 23 7565 21.47200000 3185770873 3185770873 -2.66700000
20.62941933 4.73992777 -1.10931289 31 24 7566 21.19600000 3185770876 3185770876 -3.00000000
43.42922211 12.24012470 5.54018021 36 25 7566 45.46000000 3185770876 3185770876 7.00000000
40.87315750 9.38372898 3.42349148 18 26 7567 42.07600000 3185770878 3185770878 4.66700000
20.67543411 6.92994356 -0.88839567 25 27 7567 21.82400000 3185770878 3185770878 -2.33300000
20.64888000 3.68556285 -0.73247063 15 28 7568 20.98800000 3185770880 3185770880 -2.00000000
96.29031372 22.07111359 18.01150322 28 30 7569 100.41600000 3185770883 3185770883 10.33300000
38.55310440 10.84404945 -0.93192142 15 31 7569 40.06000000 3185770883 3185770883 -1.33300000
5.71541643 1.30270743 -2.73349500 7 0 7576 6.46800000 3185770903 3185770903 -25.00000000
39.87540054 13.29570580 -0.73369914 17 1 7576 42.04000000 3185770903 3185770903 -1.00000000
38.11935806 8.68149757 -1.13778901 16 2 7577 39.11200000 3185770906 3185770906 -1.66700000
8.53180313 2.38693833 -2.48009324 2 3 7577 9.20000000 3185770906 3185770906 -15.63900000
11.27476120 2.56570220 -2.31261516 4 4 7578 11.79200000 3185770908 3185770908 -11.31000000
40.48740387 11.31952286 0.00000000 14 5 7578 42.04000000 3185770908 3185770908 0.00000000
39.61566162 6.99956894 -0.46834406 28 6 7578 40.23200000 3185770910 3185770910 -0.66700000
13.22372437 3.69710636 -2.13619661 2 7 7578 13.89600000 3185770910 3185770910 -8.84300000
15.54654217 3.53494143 -2.02938294 2 8 7579 16.07200000 3185770913 3185770913 -7.25400000
40.27107620 13.40421009 0.24668087 17 9 7579 42.44400000 3185770913 3185770913 0.33300000
40.44461060 9.18879032 -0.24105494 15 10 7580 41.47600000 3185770915 3185770915 -0.33300000
16.69328499 4.66084862 -1.86691570 2 11 7580 17.43200000 3185770915 3185770915 -6.14800000
19.14866829 3.37298107 -1.81501174 6 12 7581 19.52800000 3185770917 3185770917 -5.33300000
40.42459106 11.27914333 0.97658664 13 13 7581 41.98000000 3185770917 3185770917 1.33300000
39.88446426 7.01835299 0.47146386 17 14 7582 40.50000000 3185770919 3185770919 0.66700000
20.58269119 5.73904657 -1.49418366 24 15 7582 21.42000000 3185770919 3185770919 -4.00000000
20.01218796 4.53563976 -1.67513180 7 16 7583 20.58800000 3185770922 3185770922 -4.66700000
40.21852112 13.35553646 1.23332226 16 17 7583 42.39600000 3185770922 3185770922 1.66700000
40.01878738 9.07001305 0.71624678 27 18 7583 41.04000000 3185770924 3185770924 1.00000000
20.58233643 6.83486462 -1.38992524 30 19 7583 21.73200000 3185770924 3185770924 -3.66700000
20.58952141 3.61566877 -1.21743107 19 20 7584 20.94000000 3185770926 3185770926 -3.33300000
40.16144943 11.18306065 2.42788553 25 21 7584 41.76000000 3185770926 3185770926 3.33300000
40.01436234 9.05432510 1.67144096 25 22 7585 41.06000000 3185770929 3185770929 2.33300000
20.64440346 5.74460602 -0.99818569 25 23 7585 21.45200000 3185770929 3185770929 -2.66700000
20.62635803 4.66348410 -1.10826623 31 24 7586 21.17600000 3185770931 3185770931 -3.00000000
43.54818344 12.10972691 5.54993010 18 25 7586 45.54000000 3185770931 3185770931 7.00000000
41.15454483 9.29722309 3.44432092 27 26 7587 42.33200000 3185770933 3185770933 4.66700000
20.68052864 6.85144615 -0.88758153 25 27 7587 21.80400000 3185770933 3185770933 -2.33300000
20.64980698 3.61139631 -0.73205185 15 28 7588 20.97600000 3185770936 3185770936 -2.00000000
96.25160980 21.70889091 17.98997879 28 30 7589 100.29600000 3185770938 3185770938 10.33300000
38.56374741 10.70192242 -0.93127000 15 31 7589 40.03200000 3185770938 3185770938 -1.33300000
5.70931673 1.28036916 -2.72842360 8 0 7596 6.45600000 3185770959 3185770959 -25.00000000
38.19234848 8.55800056 -1.13906896 16 2 7597 39.15600000 3185770961 3185770961 -1.66700000
8.54008293 2.35714221 -2.48009324 2 3 7597 9.20000000 3185770961 3185770961 -15.63900000
11.29130363 2.52804422 -2.31418395 4 4 7598 11.80000000 3185770963 3185770963 -11.31000000
40.49582291 11.16961765 0.00000000 14 5 7598 42.00800000 3185770963 3185770963 0.00000000
39.63985062 6.86124182 -0.46834406 19 6 7598 40.23200000 3185770966 3185770966 -0.66700000
13.23654938 3.65092444 -2.13619661 2 7 7598 13.89600000 3185770966 3185770966 -8.84300000
15.56265926 3.48151851 -2.02988791 2 8 7599 16.07600000 3185770968 3185770968 -7.25400000
40.26442337 13.24605656 0.24635540 17 9 7599 42.38800000 3185770968 3185770968 0.33300000
40.39056015 9.02836037 -0.24054348 15 10 7600 41.38800000 3185770970 3185770970 -0.33300000
16.71712112 4.60466194 -1.86777258 2 11 7600 17.44000000 3185770970 3185770970 -6.14800000
19.15640068 3.30544209 -1.81464005 6 12 7601 19.52400000 3185770972 3185770972 -5.33300000
40.41744995 11.12523174 0.97547001 20 13 7601 41.93200000 3185770972 3185770972 1.33300000
39.60521698 6.82677221 0.46787840 25 14 7602 40.19200000 3185770975 3185770975 0.66700000
20.59105682 5.66398954 -1.49334657 26 15 7602 21.40800000 3185770975 3185770975 -4.00000000
20.03957176 4.46835947 -1.67610812 7 16 7603 20.60000000 3185770977 3185770977 -4.66700000
40.22690582 13.20259762 1.23215866 24 17 7603 42.35600000 3185770977 3185770977 1.66700000
40.03849411 8.92765522 0.71603733 27 18 7603 41.02800000 3185770979 3185770979 1.00000000
20.58331299 6.75550842 -1.38839030 27 19 7603 21.70800000 3185770979 3185770979 -3.66700000
