# .PCD v0.7 - Point Cloud Data file format
VERSION 0.7
FIELDS x y z intensity laser_id azimuth distance_m adjustedtime timestamp vertical_angle
SIZE 4 4 4 1 1 2 8 8 4 8
TYPE F F F U U U F U U F
COUNT 1 1 1 1 1 1 1 1 1 1
WIDTH 527
HEIGHT 1
VIEWPOINT 0 0 0 1 0 0 0
POINTS 527
DATA ascii
1.07469904 18.75257492 -2.02327752 13 11 468 18.89200000 3180751144 3180751144 -6.14800000
3.26817775 20.89400482 -1.97413206 16 12 469 21.24000000 3180751146 3180751146 -5.33300000
1.50082850 26.02910042 -1.82315516 18 15 470 26.13600000 3180751148 3180751148 -4.00000000
2.46837902 23.05911446 -1.89318860 28 16 471 23.26800000 3180751150 3180751150 -4.66700000
1.63026905 183.14720154 5.33031654 28 17 471 183.23200000 3180751150 3180751150 1.66700000
0.25461766 28.60418129 -1.83327889 8 19 471 28.66400000 3180751153 3180751153 -3.66700000
3.84134221 24.47440147 -1.44277799 11 20 472 24.81600000 3180751155 3180751155 -3.33300000
2.00344682 34.43236542 -1.60662663 43 23 473 34.52800000 3180751157 3180751157 -2.66700000
3.62390542 33.68714142 -1.77565432 20 24 474 33.92800000 3180751160 3180751160 -3.00000000
0.34681803 36.12836456 -1.47197521 12 27 475 36.16000000 3180751162 3180751162 -2.33300000
6.49807692 41.21343994 -1.45698416 8 28 476 41.74800000 3180751164 3180751164 -2.00000000
2.97913265 50.74286270 -1.18279111 8 31 476 50.84400000 3180751167 3180751167 -1.33300000
0.60130292 5.49932671 -2.57966185 13 0 484 6.10400000 3180751187 3180751187 -25.00000000
0.67692536 60.59898758 -1.05782521 28 1 484 60.61200000 3180751187 3180751187 -1.00000000
5.43973398 49.66985703 -1.45417762 12 2 485 49.98800000 3180751190 3180751190 -1.66700000
0.50926167 8.44732475 -2.36902833 27 3 485 8.78800000 3180751190 3180751190 -15.63900000
1.31985569 12.03211117 -2.42087173 12 4 486 12.34400000 3180751192 3180751192 -11.31000000
9.52558041 59.73720169 -0.70423895 29 6 486 60.49600000 3180751194 3180751194 -0.66700000
0.84990823 14.05692005 -2.19092369 14 7 486 14.25200000 3180751194 3180751194 -8.84300000
1.85650957 16.89716339 -2.16373229 13 8 487 17.13600000 3180751197 3180751197 -7.25400000
1.28475988 109.86263275 0.63856655 28 9 487 109.87200000 3180751197 3180751197 0.33300000
8.54038239 77.60617065 -0.45377097 28 10 488 78.07600000 3180751199 3180751199 -0.33300000
1.13242638 18.62167931 -2.00956893 13 11 488 18.76400000 3180751199 3180751199 -6.14800000
3.33354092 20.83527756 -1.96967065 19 12 489 21.19200000 3180751201 3180751201 -5.33300000
1.57754910 25.79269981 -1.80697167 9 15 490 25.90400000 3180751203 3180751203 -4.00000000
2.53527188 22.92751694 -1.88309932 15 16 491 23.14400000 3180751206 3180751206 -4.66700000
13.57110500 122.72914124 2.15530229 28 18 491 123.49600000 3180751208 3180751208 1.00000000
0.33700234 27.19411659 -1.74297082 11 19 491 27.25200000 3180751208 3180751208 -3.66700000
3.92991519 24.48055840 -1.44394076 11 20 492 24.83600000 3180751210 3180751210 -3.33300000
3.10274982 27.92560005 -1.47252452 14 24 494 28.13600000 3180751215 3180751215 -3.00000000
0.47245660 36.09096527 -1.47050977 12 27 495 36.12400000 3180751217 3180751217 -2.33300000
6.61326170 41.01290894 -1.45070231 8 28 496 41.56800000 3180751220 3180751220 -2.00000000
3.25854301 52.37652969 -1.22112870 9 31 496 52.49200000 3180751222 3180751222 -1.33300000
0.62090212 5.50079679 -2.58135223 14 0 504 6.10800000 3180751243 3180751243 -25.00000000
0.90609938 61.79994202 -1.07883799 28 1 504 61.81600000 3180751243 3180751243 -1.00000000
5.58208942 49.37643051 -1.44614863 12 2 505 49.71200000 3180751245 3180751245 -1.66700000
0.54266876 8.50700188 -2.38628101 21 3 505 8.85200000 3180751245 3180751245 -15.63900000
1.37199748 12.11707115 -2.43891454 16 4 506 12.43600000 3180751247 3180751247 -11.31000000
9.70186329 59.50620651 -0.70191073 29 6 506 60.29600000 3180751250 3180751250 -0.66700000
0.91814619 14.35364151 -2.23765683 14 7 506 14.55600000 3180751250 3180751250 -8.84300000
1.90922058 16.83538246 -2.15666127 16 8 507 17.08000000 3180751252 3180751252 -7.25400000
1.65852678 109.21755981 0.63484699 28 9 507 109.23200000 3180751252 3180751252 0.33300000
1.21528935 18.89542770 -2.03955626 13 11 508 19.04400000 3180751254 3180751254 -6.14800000
3.40174890 20.79600143 -1.96706831 13 12 509 21.16400000 3180751256 3180751256 -5.33300000
1.69332290 26.18523026 -1.83487427 15 15 510 26.30400000 3180751259 3180751259 -4.00000000
2.62568450 23.00963211 -1.89058495 9 16 511 23.23600000 3180751261 3180751261 -4.66700000
14.01084805 122.59115601 2.15376663 28 18 512 123.40800000 3180751263 3180751263 1.00000000
0.43417183 27.03703880 -1.73299348 11 19 512 27.09600000 3180751263 3180751263 -3.66700000
4.01793098 24.48245239 -1.44487095 23 20 512 24.85200000 3180751266 3180751266 -3.33300000
2.26093531 34.68069458 -1.61891091 26 23 513 34.79200000 3180751268 3180751268 -2.66700000
3.68656492 32.15695190 -1.69631302 18 24 514 32.41200000 3180751270 3180751270 -3.00000000
0.59538656 35.90527344 -1.46301961 12 27 515 35.94000000 3180751273 3180751273 -2.33300000
6.73232794 40.84363556 -1.44553721 8 28 516 41.42000000 3180751275 3180751275 -2.00000000
3.41434097 51.95383453 -1.21154439 18 31 516 52.08000000 3180751277 3180751277 -1.33300000
0.65057939 5.58861876 -2.62361407 14 0 524 6.20800000 3180751298 3180751298 -25.00000000
1.12246931 61.83239365 -1.07946622 28 1 524 61.85200000 3180751298 3180751298 -1.00000000
5.73681688 49.20573044 -1.44172692 12 2 525 49.56000000 3180751300 3180751300 -1.66700000
0.57184315 8.49736881 -2.38412452 16 3 525 8.84400000 3180751300 3180751300 -15.63900000
1.36743081 11.71093559 -2.35811424 16 4 526 12.02400000 3180751302 3180751302 -11.31000000
6.45533037 95.67446899 0.00000000 28 5 526 95.89200000 3180751302 3180751302 0.00000000
9.85409069 59.07572556 -0.69725430 28 6 527 59.89600000 3180751305 3180751305 -0.66700000
0.94540632 13.97555351 -2.17924023 15 7 527 14.17600000 3180751305 3180751305 -8.84300000
1.96613193 16.81285095 -2.15464091 17 8 527 17.06400000 3180751307 3180751307 -7.25400000
2.03975701 109.21110535 0.63484699 28 9 527 109.23200000 3180751307 3180751307 0.33300000
1.29657865 19.11724091 -2.06397438 16 11 528 19.27200000 3180751309 3180751309 -6.14800000
3.48154283 20.82720947 -1.97115779 7 12 529 21.20800000 3180751312 3180751312 -5.33300000
1.77250314 26.00001526 -1.82231808 24 15 530 26.12400000 3180751314 3180751314 -4.00000000
2.75443316 23.41210747 -1.92443252 16 16 531 23.65200000 3180751316 3180751316 -4.66700000
3.33141613 171.93891907 5.00485182 28 17 531 172.04400000 3180751316 3180751316 1.66700000
14.41168976 122.49636078 2.15292883 28 18 531 123.36000000 3180751319 3180751319 1.00000000
0.52204889 26.94365501 -1.72710943 22 19 531 27.00400000 3180751319 3180751319 -3.66700000
4.10402679 24.47221565 -1.44510353 11 20 532 24.85600000 3180751321 3180751321 -3.33300000
2.37485957 34.56894684 -1.61407161 11 23 533 34.68800000 3180751323 3180751323 -2.66700000
3.17433214 26.85996056 -1.41746700 23 24 534 27.08400000 3180751326 3180751326 -3.00000000
0.72328252 36.03084564 -1.46823025 19 27 535 36.06800000 3180751328 3180751328 -2.33300000
6.86157942 40.74104691 -1.44274521 8 28 536 41.34000000 3180751330 3180751330 -2.00000000
3.59698606 51.82926941 -1.20893884 27 31 537 51.96800000 3180751332 3180751332 -1.33300000
0.67310566 5.61150980 -2.63544750 15 0 544 6.23600000 3180751353 3180751353 -25.00000000
1.34695256 62.22794342 -1.08644724 28 1 544 62.25200000 3180751353 3180751353 -1.00000000
5.88660526 49.00279617 -1.43637419 11 2 545 49.37600000 3180751355 3180751355 -1.66700000
0.59687614 8.43000221 -2.36579347 12 3 545 8.77600000 3180751355 3180751355 -15.63900000
1.43219459 11.90469742 -2.39812231 22 4 546 12.22800000 3180751358 3180751358 -11.31000000
10.02665138 58.84382629 -0.69492608 28 6 547 59.69600000 3180751360 3180751360 -0.66700000
1.02251744 14.37035942 -2.24134612 17 7 547 14.58000000 3180751360 3180751360 -8.84300000
1.94032204 16.10465431 -2.06473804 11 8 547 16.35200000 3180751362 3180751362 -7.25400000
2.39888763 108.20758820 0.62905830 28 9 547 108.23600000 3180751362 3180751362 0.33300000
1.34377813 18.83888054 -2.03441548 17 11 548 18.99600000 3180751365 3180751365 -6.14800000
3.54885936 20.78352356 -1.96818364 27 12 549 21.17600000 3180751367 3180751367 -5.33300000
1.83044064 25.53596497 -1.79023015 20 15 550 25.66400000 3180751369 3180751369 -4.00000000
2.78529763 22.98282433 -1.88993394 12 16 551 23.22800000 3180751372 3180751372 -4.66700000
14.81513596 122.24678802 2.14943838 28 18 551 123.16000000 3180751374 3180751374 1.00000000
0.62157226 27.18111420 -1.74245918 46 19 551 27.24400000 3180751374 3180751374 -3.66700000
4.19077396 24.46561432 -1.44556856 3 20 552 24.86400000 3180751376 3180751376 -3.33300000
15.21955013 125.21781921 5.13905001 28 22 553 126.24400000 3180751379 3180751379 2.33300000
2.49723983 34.58435822 -1.61518836 11 23 553 34.71200000 3180751379 3180751379 -2.66700000
3.28496456 26.98749924 -1.42479408 19 24 554 27.22400000 3180751381 3180751381 -3.00000000
0.89142168 37.82611084 -1.54150331 14 27 555 37.86800000 3180751383 3180751383 -2.33300000
6.98138714 40.58683777 -1.43813848 8 28 556 41.20800000 3180751385 3180751385 -2.00000000
3.78769422 52.07630157 -1.21498728 27 31 556 52.22800000 3180751388 3180751388 -1.33300000
0.69268936 5.60912609 -2.63544750 14 0 564 6.23600000 3180751408 3180751408 -25.00000000
1.53340590 60.99943542 -1.06508541 28 1 564 61.02800000 3180751408 3180751408 -1.00000000
6.03357506 48.78751373 -1.43067241 11 2 565 49.18000000 3180751411 3180751411 -1.66700000
0.62144589 8.36256504 -2.34746218 18 3 565 8.70800000 3180751411 3180751411 -15.63900000
1.49977374 12.10982513 -2.44048357 13 4 566 12.44400000 3180751413 3180751413 -11.31000000
7.04881907 94.62983704 0.00000000 28 5 566 94.89200000 3180751413 3180751413 0.00000000
10.18816853 58.61716080 -0.69264448 28 6 566 59.50000000 3180751415 3180751415 -0.66700000
1.07779920 14.46936893 -2.25733399 16 7 566 14.68400000 3180751415 3180751415 -8.84300000
2.12546015 17.13736725 -2.19807720 18 8 567 17.40800000 3180751418 3180751418 -7.25400000
2.71625209 105.84736633 0.61538869 28 9 567 105.88400000 3180751418 3180751418 0.33300000
1.41457558 18.90149498 -2.04169822 17 11 568 19.06400000 3180751420 3180751420 -6.14800000
3.59949613 20.64545631 -1.95628679 15 12 569 21.04800000 3180751422 3180751422 -5.33300000
1.95516956 26.00292206 -1.82343423 27 15 570 26.14000000 3180751425 3180751425 -4.00000000
3.12999868 25.09342194 -2.06437945 7 16 571 25.37200000 3180751427 3180751427 -4.66700000
15.28532887 122.54357147 2.15558171 28 18 571 123.51200000 3180751429 3180751429 1.00000000
0.71750015 27.21868324 -1.74501753 11 19 571 27.28400000 3180751429 3180751429 -3.66700000
5.47520494 31.30698204 -1.85091388 5 20 572 31.83600000 3180751432 3180751432 -3.33300000
2.60497451 34.40410995 -1.60718501 10 23 573 34.54000000 3180751434 3180751434 -2.66700000
3.37319064 26.92830658 -1.42228198 14 24 574 27.17600000 3180751436 3180751436 -3.00000000
0.97372454 35.98496628 -1.46660185 19 27 575 36.02800000 3180751438 3180751438 -2.33300000
7.10504198 40.45985031 -1.43450892 8 28 576 41.10400000 3180751441 3180751441 -2.00000000
3.99255443 52.24548340 -1.21926773 9 31 577 52.41200000 3180751443 3180751443 -1.33300000
0.72277272 5.68938923 -2.67432833 12 0 584 6.32800000 3180751464 3180751464 -25.00000000
1.73648071 60.64990234 -1.05908179 28 1 584 60.68400000 3180751464 3180751464 -1.00000000
0.65093178 8.36418533 -2.34854054 18 3 585 8.71200000 3180751466 3180751466 -15.63900000
1.54054880 12.09284306 -2.43813014 13 4 586 12.43200000 3180751468 3180751468 -11.31000000
10.34381104 58.30556488 -0.68938494 27 6 586 59.22000000 3180751471 3180751471 -0.66700000
1.12891495 14.47340012 -2.25856376 14 7 586 14.69200000 3180751471 3180751471 -8.84300000
2.08132696 16.31507301 -2.09352708 16 8 587 16.58000000 3180751473 3180751473 -7.25400000
3.05517054 104.78970337 0.60929781 28 9 587 104.83600000 3180751473 3180751473 0.33300000
1.48955429 19.01142311 -2.05412149 17 11 588 19.18000000 3180751475 3180751475 -6.14800000
3.57734442 20.10341835 -1.90609694 19 12 589 20.50800000 3180751478 3180751478 -5.33300000
1.98111892 25.17250252 -1.76567590 8 15 590 25.31200000 3180751480 3180751480 -4.00000000
2.95176601 23.01027298 -1.89383948 21 16 591 23.27600000 3180751482 3180751482 -4.66700000
15.70637703 122.43789673 2.15467405 28 18 591 123.46000000 3180751485 3180751485 1.00000000
0.80428755 26.94070053 -1.72736526 11 19 591 27.00800000 3180751485 3180751485 -3.66700000
5.55638695 31.13043594 -1.84161162 5 20 592 31.67600000 3180751487 3180751487 -3.33300000
2.81941032 35.58577728 -1.66283619 27 23 593 35.73600000 3180751489 3180751489 -2.66700000
3.44879556 26.77374268 -1.41474557 14 24 594 27.03200000 3180751491 3180751491 -3.00000000
1.10689688 36.22902679 -1.47669733 13 27 595 36.27600000 3180751494 3180751494 -2.33300000
7.21802378 40.27740479 -1.42892504 8 28 596 40.94400000 3180751496 3180751496 -2.00000000
4.29406548 53.72206879 -1.25406933 19 31 597 53.90800000 3180751498 3180751498 -1.33300000
0.71870780 5.49618673 -2.58473325 16 0 605 6.11600000 3180751519 3180751519 -25.00000000
1.96676695 60.89096451 -1.06341004 28 1 605 60.93200000 3180751519 3180751519 -1.00000000
0.67970604 8.33870792 -2.34207082 27 3 606 8.68800000 3180751521 3180751521 -15.63900000
1.59047008 12.12989521 -2.44675922 12 4 607 12.47600000 3180751524 3180751524 -11.31000000
10.50039482 57.95240784 -0.68565983 27 6 607 58.90000000 3180751526 3180751526 -0.66700000
1.18098962 14.45734692 -2.25671887 14 7 607 14.68000000 3180751526 3180751526 -8.84300000
2.13284588 16.24438858 -2.08544588 12 8 608 16.51600000 3180751528 3180751528 -7.25400000
1.56020021 19.01772690 -2.05540657 14 11 609 19.19200000 3180751531 3180751531 -6.14800000
3.68447256 20.27434158 -1.92357039 45 12 610 20.69600000 3180751533 3180751533 -5.33300000
3.05590963 23.14949226 -1.90620685 12 16 612 23.42800000 3180751538 3180751538 -4.66700000
0.91586399 27.32057190 -1.75192487 11 19 612 27.39200000 3180751540 3180751540 -3.66700000
5.66901636 31.10200310 -1.84114647 5 20 613 31.66800000 3180751542 3180751542 -3.33300000
2.96005535 35.69864655 -1.66860604 11 23 614 35.86000000 3180751544 3180751544 -2.66700000
3.54532862 26.74904251 -1.41411757 14 24 615 27.02000000 3180751547 3180751547 -3.00000000
1.28423762 37.52688217 -1.52977955 20 27 616 37.58000000 3180751549 3180751549 -2.33300000
7.34185314 40.12091446 -1.42431831 7 28 617 40.81200000 3180751551 3180751551 -2.00000000
4.49860191 53.79762650 -1.25620961 9 31 618 54.00000000 3180751554 3180751554 -1.33300000
0.72970033 5.43987751 -2.55937624 14 0 624 6.05600000 3180751574 3180751574 -25.00000000
2.16782379 60.86012650 -1.06299114 28 1 624 60.90800000 3180751574 3180751574 -1.00000000
6.45578146 48.06384659 -1.41135633 11 2 625 48.51600000 3180751577 3180751577 -1.66700000
0.70377207 8.29418850 -2.33020949 16 3 625 8.64400000 3180751577 3180751577 -15.63900000
1.62441170 12.07790661 -2.43734574 13 4 626 12.42800000 3180751579 3180751579 -11.31000000
10.65620613 57.72060394 -0.68333161 27 6 626 58.70000000 3180751581 3180751581 -0.66700000
1.22926021 14.45728970 -2.25733399 16 7 626 14.68400000 3180751581 3180751581 -8.84300000
2.30427289 17.11023712 -2.19757223 55 8 627 17.40400000 3180751584 3180751584 -7.25400000
3.77698016 104.49800110 0.60774016 28 9 627 104.56800000 3180751584 3180751584 0.33300000
1.60160422 18.75884438 -2.02798963 16 11 628 18.93600000 3180751586 3180751586 -6.14800000
3.78721428 20.45390320 -1.94178748 36 12 629 20.89200000 3180751588 3180751588 -5.33300000
2.15987396 25.19384003 -1.76818705 5 15 630 25.34800000 3180751590 3180751590 -4.00000000
3.12035751 23.04836464 -1.89872134 6 16 631 23.33600000 3180751593 3180751593 -4.66700000
0.98147213 26.63923645 -1.70843375 11 19 631 26.71200000 3180751595 3180751595 -3.66700000
5.73858547 30.90243340 -1.83044899 5 20 632 31.48400000 3180751597 3180751597 -3.33300000
3.05781722 35.44978333 -1.65743864 11 23 633 35.62000000 3180751600 3180751600 -2.66700000
3.62432861 26.66589355 -1.41034937 14 24 634 26.94800000 3180751602 3180751602 -3.00000000
1.38963199 37.01519394 -1.50910032 20 27 635 37.07200000 3180751604 3180751604 -2.33300000
7.45434523 39.98631287 -1.42040956 7 28 636 40.70000000 3180751607 3180751607 -2.00000000
4.69222021 53.95770264 -1.26030385 10 31 637 54.17600000 3180751609 3180751609 -1.33300000
0.75309956 5.46230507 -2.57120943 15 0 645 6.08400000 3180751630 3180751630 -25.00000000
2.31676149 58.96551514 -1.03004098 26 1 645 59.02000000 3180751630 3180751630 -1.00000000
6.61167002 47.89331436 -1.40705097 11 2 646 48.36800000 3180751632 3180751632 -1.66700000
0.74300021 8.39131260 -2.35824537 23 3 646 8.74800000 3180751632 3180751632 -15.63900000
1.67296505 12.10295391 -2.44362140 13 4 647 12.46000000 3180751634 3180751634 -11.31000000
10.84103107 57.53966141 -0.68165529 26 6 647 58.55600000 3180751637 3180751637 -0.66700000
1.26477611 14.25583744 -2.22658849 14 7 647 14.48400000 3180751637 3180751637 -8.84300000
2.24293613 16.20551872 -2.08241558 13 8 648 16.49200000 3180751639 3180751639 -7.25400000
4.34550381 109.14368439 0.63484699 28 9 648 109.23200000 3180751639 3180751639 0.33300000
10.25127506 73.97178650 -0.43403372 28 10 649 74.68000000 3180751641 3180751641 -0.33300000
1.67916906 18.85188103 -2.03869939 14 11 649 19.03600000 3180751641 3180751641 -6.14800000
3.86215615 20.43988419 -1.94178748 15 12 650 20.89200000 3180751643 3180751643 -5.33300000
19.59269905 103.59232330 1.22738922 28 14 651 105.43600000 3180751646 3180751646 0.66700000
2.42990184 27.17295265 -1.90770006 22 15 651 27.34800000 3180751646 3180751646 -4.00000000
3.19053030 22.93410683 -1.89025939 37 16 652 23.23200000 3180751648 3180751648 -4.66700000
1.08281982 26.72719574 -1.71431792 15 19 652 26.80400000 3180751650 3180751650 -3.66700000
5.85478401 30.89688492 -1.83137918 5 20 653 31.50000000 3180751653 3180751653 -3.33300000
3.08427310 34.28823090 -1.60364866 10 23 654 34.46400000 3180751655 3180751655 -2.66700000
3.84966183 27.56629562 -1.45870781 34 24 655 27.87200000 3180751657 3180751657 -3.00000000
1.53022730 37.12965393 -1.51398516 20 27 656 37.19200000 3180751660 3180751660 -2.33300000
7.57470703 39.82127380 -1.41552353 7 28 657 40.56000000 3180751662 3180751662 -2.00000000
4.87297201 53.85736084 -1.25834978 9 31 657 54.09200000 3180751664 3180751664 -1.33300000
0.77266961 5.46323252 -2.57290006 15 0 665 6.08800000 3180751685 3180751685 -25.00000000
2.52941394 59.11689758 -1.03283346 26 1 665 59.18000000 3180751685 3180751685 -1.00000000
6.75470257 47.69971466 -1.40204740 11 2 666 48.19600000 3180751687 3180751687 -1.66700000
0.77299309 8.39633942 -2.36040187 23 3 666 8.75600000 3180751687 3180751687 -15.63900000
1.65243065 11.65432453 -2.35419202 13 4 667 12.00400000 3180751690 3180751690 -11.31000000
11.00353432 57.24815750 -0.67867517 26 6 668 58.30000000 3180751692 3180751692 -0.66700000
1.32320106 14.31801224 -2.23704195 18 7 668 14.55200000 3180751692 3180751692 -8.84300000
2.41716981 17.02652359 -2.18898582 24 8 668 17.33600000 3180751694 3180751694 -7.25400000
1.72333086 18.61226082 -2.01342440 13 11 669 18.80000000 3180751696 3180751696 -6.14800000
3.78813148 19.67148781 -1.87003469 12 12 670 20.12000000 3180751699 3180751699 -5.33300000
19.95645523 103.53508759 1.22752893 28 14 671 105.44800000 3180751701 3180751701 0.66700000
2.52953887 27.21595573 -1.91132736 13 15 671 27.40000000 3180751701 3180751701 -4.00000000
3.26775026 22.90309715 -1.88863218 12 16 672 23.21200000 3180751703 3180751703 -4.66700000
1.20086038 27.17767143 -1.74348247 11 19 673 27.26000000 3180751706 3180751706 -3.66700000
5.95351267 30.82921028 -1.82858849 5 20 673 31.45200000 3180751708 3180751708 -3.33300000
3.31066632 35.41903687 -1.65706635 42 23 674 35.61200000 3180751710 3180751710 -2.66700000
3.81731653 26.65509224 -1.41118670 19 24 675 26.96400000 3180751713 3180751713 -3.00000000
7.70073080 39.72787094 -1.41315043 7 28 677 40.49200000 3180751717 3180751717 -2.00000000
5.05158329 53.74048615 -1.25602341 9 31 677 53.99200000 3180751720 3180751720 -1.33300000
0.78766471 5.43911362 -2.56275725 26 0 684 6.06400000 3180751740 3180751740 -25.00000000
2.72599125 59.12017059 -1.03304279 26 1 684 59.19200000 3180751740 3180751740 -1.00000000
3.85028577 26.55495834 -0.78090632 3 2 685 26.84400000 3180751743 3180751743 -1.66700000
0.79680783 8.35155106 -2.34854054 16 3 685 8.71200000 3180751743 3180751743 -15.63900000
1.69783068 11.69536018 -2.36360550 13 4 686 12.05200000 3180751745 3180751745 -11.31000000
11.14032555 56.94050980 -0.67546219 26 6 687 58.02400000 3180751747 3180751747 -0.66700000
1.39403355 14.55748177 -2.27516627 18 7 687 14.80000000 3180751747 3180751747 -8.84300000
2.45934987 16.92024612 -2.17635918 19 8 687 17.23600000 3180751749 3180751749 -7.25400000
1.78428233 18.59852600 -2.01256776 13 11 688 18.79200000 3180751752 3180751752 -6.14800000
3.87326145 19.76043320 -1.87970078 17 12 689 20.22400000 3180751754 3180751754 -5.33300000
2.68211555 27.85483551 -1.95680857 35 15 690 28.05200000 3180751756 3180751756 -4.00000000
3.38228703 23.15644073 -1.91043782 21 16 691 23.48000000 3180751759 3180751759 -4.66700000
1.27151406 26.86275101 -1.72352779 22 19 691 26.94800000 3180751761 3180751761 -3.66700000
6.02567720 30.65648651 -1.81951880 5 20 692 31.29600000 3180751763 3180751763 -3.33300000
3.42271113 35.35218430 -1.65446067 11 23 693 35.55600000 3180751766 3180751766 -2.66700000
3.88888454 26.52767181 -1.40511572 18 24 694 26.84800000 3180751768 3180751768 -3.00000000
1.75626981 36.56347656 -1.49135196 19 27 695 36.63600000 3180751770 3180751770 -2.33300000
7.80457687 39.56092453 -1.40812492 7 28 696 40.34800000 3180751773 3180751773 -2.00000000
5.20613098 53.48065567 -1.25034726 9 31 696 53.74800000 3180751775 3180751775 -1.33300000
0.82526904 5.56184006 -2.62192369 13 0 704 6.20400000 3180751796 3180751796 -25.00000000
2.93432426 59.15024185 -1.03374100 26 1 704 59.23200000 3180751796 3180751796 -1.00000000
0.82860988 8.37555122 -2.35608864 23 3 705 8.74000000 3180751798 3180751798 -15.63900000
1.75537908 11.80187130 -2.38635516 13 4 706 12.16800000 3180751801 3180751801 -11.31000000
8.84627247 89.25870514 0.00000000 28 5 706 89.69600000 3180751801 3180751801 0.00000000
11.26582527 56.58551025 -0.67169052 25 6 706 57.70000000 3180751803 3180751803 -0.66700000
1.44191039 14.54884624 -2.27455139 14 7 706 14.79600000 3180751803 3180751803 -8.84300000
2.53242421 17.00575256 -2.18848085 19 8 707 17.33200000 3180751805 3180751805 -7.25400000
1.83974564 18.49720573 -2.00228643 13 11 708 18.69600000 3180751808 3180751808 -6.14800000
3.75196552 18.79382324 -1.78898740 10 12 709 19.24800000 3180751810 3180751810 -5.33300000
3.48138642 23.26672173 -1.92052698 13 16 711 23.60400000 3180751814 3180751814 -4.66700000
1.38371634 27.22093582 -1.74680829 11 19 711 27.31200000 3180751817 3180751817 -3.66700000
6.12873268 30.61568832 -1.81835604 5 20 712 31.27600000 3180751819 3180751819 -3.33300000
3.39409995 33.82527924 -1.58354723 10 23 713 34.03200000 3180751821 3180751821 -2.66700000
3.98027325 26.50603485 -1.40469706 9 24 714 26.84000000 3180751824 3180751824 -3.00000000
1.92091310 37.27557373 -1.52066112 20 27 715 37.35600000 3180751826 3180751826 -2.33300000
7.90482664 39.34531784 -1.40142417 23 28 716 40.15600000 3180751828 3180751828 -2.00000000
4.05833197 40.23288727 -0.94094747 5 31 716 40.44800000 3180751831 3180751831 -1.33300000
0.84467846 5.55892515 -2.62192369 16 0 724 6.20400000 3180751851 3180751851 -25.00000000
3.17768478 59.83455276 -1.04588783 27 1 724 59.92800000 3180751851 3180751851 -1.00000000
0.85627055 8.35727978 -2.35177541 23 3 725 8.72400000 3180751854 3180751854 -15.63900000
1.80247056 11.83444881 -2.39419985 13 4 726 12.20800000 3180751856 3180751856 -11.31000000
11.42354298 56.34984207 -0.66936231 25 6 726 57.50000000 3180751858 3180751858 -0.66700000
1.48017693 14.42183876 -2.25548911 14 7 726 14.67200000 3180751858 3180751858 -8.84300000
2.59117198 16.99288559 -2.18797588 15 8 727 17.32800000 3180751861 3180751861 -7.25400000
10.99855518 72.04405975 -0.42357227 28 10 728 72.88000000 3180751863 3180751863 -0.33300000
1.91652453 18.60935211 -2.01513815 15 11 728 18.81600000 3180751863 3180751863 -6.14800000
3.81754518 18.78061104 -1.78898740 22 12 729 19.24800000 3180751865 3180751865 -5.33300000
2.76535630 26.75979996 -1.88119256 9 15 730 26.96800000 3180751867 3180751867 -4.00000000
3.53360248 23.06527138 -1.90490508 18 16 731 23.41200000 3180751870 3180751870 -4.66700000
1.48500717 27.33153152 -1.75422740 11 19 731 27.42800000 3180751872 3180751872 -3.66700000
6.20047426 30.42194557 -1.80812359 5 20 732 31.10000000 3180751874 3180751874 -3.33300000
3.52082038 33.89668655 -1.58745587 10 23 733 34.11600000 3180751877 3180751877 -2.66700000
4.07641411 26.51566696 -1.40595317 13 24 734 26.86400000 3180751879 3180751879 -3.00000000
2.04464841 37.15291214 -1.51593912 13 27 735 37.24000000 3180751881 3180751881 -2.33300000
7.99886084 39.10599518 -1.39388585 7 28 736 39.94000000 3180751884 3180751884 -2.00000000
5.53452253 53.01345825 -1.24029756 9 31 736 53.31600000 3180751886 3180751886 -1.33300000
0.84959275 5.46280670 -2.57797146 15 0 744 6.10000000 3180751907 3180751907 -25.00000000
3.37906766 59.69132614 -1.04358411 27 1 744 59.79600000 3180751907 3180751907 -1.00000000
7.28685665 46.80005646 -1.37842584 11 2 745 47.38400000 3180751909 3180751909 -1.66700000
0.88706160 8.36956215 -2.35608864 20 3 745 8.74000000 3180751909 3180751909 -15.63900000
1.77671230 11.39790154 -2.30712390 12 4 746 11.76400000 3180751911 3180751911 -11.31000000
11.54741859 55.95707703 -0.66517150 24 6 746 57.14000000 3180751914 3180751914 -0.66700000
1.51381910 14.25936890 -2.23089266 14 7 746 14.51200000 3180751914 3180751914 -8.84300000
2.65230775 16.99549866 -2.18949103 16 8 747 17.34000000 3180751916 3180751916 -7.25400000
1.98694766 18.65395927 -2.02070713 13 11 748 18.86800000 3180751918 3180751918 -6.14800000
3.88307858 18.76717186 -1.78898740 18 12 749 19.24800000 3180751920 3180751920 -5.33300000
2.86086869 26.76982307 -1.88258767 19 15 750 26.98800000 3180751923 3180751923 -4.00000000
3.61779857 23.07642746 -1.90685785 9 16 751 23.43600000 3180751925 3180751925 -4.66700000
1.56321049 26.94731903 -1.72992349 11 19 752 27.04800000 3180751927 3180751927 -3.66700000
6.30581808 30.39620781 -1.80789101 5 20 752 31.09600000 3180751930 3180751930 -3.33300000
3.64850736 33.97159195 -1.59155059 7 23 753 34.20400000 3180751932 3180751932 -2.66700000
5.40113211 34.33406830 -1.82150066 7 24 754 34.80400000 3180751934 3180751934 -3.00000000
2.17175484 37.10166168 -1.51414800 20 27 755 37.19600000 3180751937 3180751937 -2.33300000
8.17116642 39.25003815 -1.40002823 7 28 756 40.11600000 3180751939 3180751939 -2.00000000
5.70409250 52.85068512 -1.23694766 9 31 756 53.17200000 3180751941 3180751941 -1.33300000
0.88079005 5.54230595 -2.61685228 13 0 763 6.19200000 3180751962 3180751962 -25.00000000
3.56454992 59.47219849 -1.03995395 27 1 763 59.58800000 3180751962 3180751962 -1.00000000
7.42379236 46.66112137 -1.37505138 11 2 764 47.26800000 3180751964 3180751964 -1.66700000
0.91439253 8.36274529 -2.35501027 21 3 764 8.73600000 3180751964 3180751964 -15.63900000
1.83424234 11.51589966 -2.33222675 19 4 765 11.89200000 3180751966 3180751966 -11.31000000
11.73445415 55.87728119 -0.66470587 24 6 766 57.10000000 3180751969 3180751969 -0.66700000
1.56056750 14.22649574 -2.22658849 14 7 766 14.48400000 3180751969 3180751969 -8.84300000
2.71490073 17.02579498 -2.19454169 18 8 766 17.38000000 3180751971 3180751971 -7.25400000
2.02924991 18.46937370 -2.00142956 15 11 767 18.68800000 3180751973 3180751973 -6.14800000
3.94775105 18.76588440 -1.79010272 12 12 768 19.26000000 3180751976 3180751976 -5.33300000
13.63909817 123.93803406 2.90137887 28 13 768 124.72000000 3180751976 3180751976 1.33300000
2.90940475 26.39529610 -1.85691738 12 15 769 26.62000000 3180751978 3180751978 -4.00000000
3.54612732 22.13921165 -1.83037519 15 16 770 22.49600000 3180751980 3180751980 -4.66700000
1.60375154 26.22110558 -1.68361831 10 19 770 26.32400000 3180751983 3180751983 -3.66700000
6.39669132 30.32824135 -1.80510032 5 20 771 31.04800000 3180751985 3180751985 -3.33300000
3.09213209 27.91882896 -1.30845523 10 23 772 28.12000000 3180751987 3180751987 -2.66700000
5.51876116 34.33963394 -1.82275665 7 24 773 34.82800000 3180751990 3180751990 -3.00000000
2.29280233 37.06234360 -1.51284540 20 27 774 37.16400000 3180751992 3180751992 -2.33300000
8.29217434 39.17970276 -1.39849257 7 28 775 40.07200000 3180751994 3180751994 -2.00000000
5.84468603 52.43699646 -1.22773552 9 31 776 52.77600000 3180751996 3180751996 -1.33300000
0.90769017 5.58571577 -2.63882852 14 0 783 6.24400000 3180752017 3180752017 -25.00000000
3.76326251 59.31969452 -1.03751063 27 1 783 59.44800000 3180752017 3180752017 -1.00000000
7.57185841 46.54415512 -1.37237501 11 2 784 47.17600000 3180752019 3180752019 -1.66700000
0.94919491 8.40926170 -2.36902833 19 3 784 8.78800000 3180752019 3180752019 -15.63900000
1.90721428 11.71073532 -2.37301922 16 4 785 12.10000000 3180752022 3180752022 -11.31000000
11.91438866 55.76557541 -0.66386771 24 6 786 57.02800000 3180752024 3180752024 -0.66700000
1.59776652 14.11099625 -2.20937085 18 7 786 14.37200000 3180752024 3180752024 -8.84300000
2.79602456 17.14936829 -2.21171427 12 8 786 17.51600000 3180752026 3180752026 -7.25400000
11.51495457 70.54924011 -0.41545883 28 10 787 71.48400000 3180752029 3180752029 -0.33300000
2.08743382 18.40685463 -1.99543226 16 11 787 18.63200000 3180752029 3180752029 -6.14800000
4.01739979 18.77146149 -1.79196167 8 12 788 19.28000000 3180752031 3180752031 -5.33300000
13.93760204 122.70957184 2.87374234 28 13 788 123.53200000 3180752031 3180752031 1.33300000
2.99926877 26.36515617 -1.85552216 6 15 789 26.60000000 3180752033 3180752033 -4.00000000
3.61243343 22.05981636 -1.82484245 15 16 790 22.42800000 3180752036 3180752036 -4.66700000
1.74421465 26.97221184 -1.73222601 11 19 790 27.08400000 3180752038 3180752038 -3.66700000
6.47319698 30.16907501 -1.79696083 5 20 791 30.90800000 3180752040 3180752040 -3.33300000
3.67685080 32.17145920 -1.50835288 6 23 792 32.41600000 3180752043 3180752043 -2.66700000
5.61722469 34.19008636 -1.81584835 7 24 793 34.69600000 3180752045 3180752045 -3.00000000
2.37236643 36.29237366 -1.48174500 19 27 794 36.40000000 3180752047 3180752047 -2.33300000
8.38934231 38.96684265 -1.39193153 7 28 795 39.88400000 3180752049 3180752049 -2.00000000
5.98889065 52.15909195 -1.22168708 9 31 795 52.51600000 3180752052 3180752052 -1.33300000
0.92777640 5.58608961 -2.64051890 16 0 803 6.24800000 3180752072 3180752072 -25.00000000
4.02613735 60.14020157 -1.05210090 28 1 803 60.28400000 3180752072 3180752072 -1.00000000
7.70673895 46.35178757 -1.36748779 11 2 804 47.00800000 3180752075 3180752075 -1.66700000
0.96918952 8.32554913 -2.34638405 25 3 804 8.70400000 3180752075 3180752075 -15.63900000
1.96933258 11.83168602 -2.39890671 13 4 805 12.23200000 3180752077 3180752077 -11.31000000
12.03390217 55.42479324 -0.66028225 24 6 805 56.72000000 3180752079 3180752079 -0.66700000
1.66102898 14.24695110 -2.23150778 14 7 805 14.51600000 3180752079 3180752079 -8.84300000
2.87673950 17.26475143 -2.22787642 19 8 806 17.64400000 3180752082 3180752082 -7.25400000
11.72824192 70.31134796 -0.41429645 28 10 807 71.28400000 3180752084 3180752084 -0.33300000
2.08099771 17.79509354 -1.92988884 12 11 807 18.02000000 3180752084 3180752084 -6.14800000
4.08713531 18.77678108 -1.79382050 10 12 808 19.30000000 3180752086 3180752086 -5.33300000
14.33375645 122.38612366 2.86732149 28 13 808 123.25600000 3180752086 3180752086 1.33300000
3.11731386 26.57645798 -1.87114763 9 15 809 26.82400000 3180752089 3180752089 -4.00000000
3.59137225 21.46119499 -1.77634919 17 16 810 21.83200000 3180752091 3180752091 -4.66700000
1.83998358 26.98985291 -1.73376095 11 19 810 27.10800000 3180752093 3180752093 -3.66700000
6.57421064 30.12678909 -1.79579806 5 20 811 30.88800000 3180752096 3180752096 -3.33300000
3.15885329 26.80927086 -1.25745714 40 23 812 27.02400000 3180752098 3180752098 -2.66700000
5.72860003 34.12299728 -1.81333625 7 24 813 34.64800000 3180752100 3180752100 -3.00000000
2.53995419 36.87796783 -1.50600660 20 27 814 36.99600000 3180752102 3180752102 -2.33300000
8.48341465 38.74597549 -1.38509119 7 28 815 39.68800000 3180752105 3180752105 -2.00000000
6.16166544 51.98191833 -1.21805799 9 31 816 52.36000000 3180752107 3180752107 -1.33300000
0.95576006 5.63285494 -2.66418552 14 0 823 6.30400000 3180752128 3180752128 -25.00000000
4.28635311 60.83990479 -1.06459677 28 1 823 61.00000000 3180752128 3180752128 -1.00000000
7.83836031 46.14722061 -1.36225152 11 2 824 46.82800000 3180752130 3180752130 -1.66700000
1.00375021 8.36800957 -2.35932350 21 3 824 8.75200000 3180752130 3180752130 -15.63900000
2.01390839 11.84407425 -2.40282893 12 4 825 12.25200000 3180752132 3180752132 -11.31000000
12.13675690 54.97235489 -0.65539300 23 6 825 56.30000000 3180752135 3180752135 -0.66700000
1.69330788 14.09586906 -2.20875597 15 7 825 14.36800000 3180752135 3180752135 -8.84300000
2.92833138 17.20375252 -2.22131062 16 8 826 17.59200000 3180752137 3180752137 -7.25400000
11.99039936 70.36855316 -0.41487765 28 10 827 71.38400000 3180752139 3180752139 -0.33300000
2.16974163 18.00883484 -1.95387852 16 11 827 18.24400000 3180752139 3180752139 -6.14800000
4.15093231 18.75462341 -1.79307699 6 12 828 19.29200000 3180752142 3180752142 -5.33300000
3.21197891 26.58126068 -1.87226379 53 15 829 26.84000000 3180752144 3180752144 -4.00000000
3.53124762 20.65864944 -1.71093214 21 16 830 21.02800000 3180752146 3180752146 -4.66700000
1.94474459 27.13058472 -1.74322665 50 19 830 27.25600000 3180752149 3180752149 -3.66700000
6.66635799 30.04518127 -1.79230976 5 20 831 30.82800000 3180752151 3180752151 -3.33300000
3.24471331 26.73461723 -1.25447905 9 23 832 26.96000000 3180752153 3180752153 -2.66700000
5.82539845 33.97286987 -1.80642784 7 24 833 34.51600000 3180752155 3180752155 -3.00000000
2.68771029 37.13196945 -1.51675332 13 27 834 37.26000000 3180752158 3180752158 -2.33300000
8.62121773 38.72783279 -1.38550997 7 28 835 39.70000000 3180752160 3180752160 -2.00000000
6.29462099 51.56314850 -1.20875275 9 31 836 51.96000000 3180752162 3180752162 -1.33300000
0.95189768 5.49374819 -2.59994745 14 0 843 6.15200000 3180752183 3180752183 -25.00000000
4.49869776 60.82456970 -1.06459677 28 1 843 61.00000000 3180752183 3180752183 -1.00000000
7.97001457 45.95018005 -1.35724795 10 2 844 46.65600000 3180752185 3180752185 -1.66700000
1.03059340 8.34534073 -2.35393214 19 3 844 8.73200000 3180752185 3180752185 -15.63900000
2.09281492 12.05338383 -2.44675922 10 4 845 12.47600000 3180752188 3180752188 -11.31000000
12.29879093 54.79696274 -0.65380979 23 6 845 56.16400000 3180752190 3180752190 -0.66700000
1.78227997 14.41152382 -2.25917864 15 7 845 14.69600000 3180752190 3180752190 -8.84300000
3.00263500 17.27552414 -2.23191714 12 8 846 17.67600000 3180752192 3180752192 -7.25400000
12.09883022 69.53812408 -0.41022810 28 10 847 70.58400000 3180752195 3180752195 -0.33300000
2.22720647 17.95773697 -1.94916630 13 11 847 18.20000000 3180752195 3180752195 -6.14800000
4.18227816 18.58848381 -1.77857769 4 12 848 19.13600000 3180752197 3180752197 -5.33300000
3.30277514 26.55404854 -1.87114763 12 15 849 26.82400000 3180752199 3180752199 -4.00000000
3.58620238 20.54801178 -1.70279574 5 16 850 20.92800000 3180752202 3180752202 -4.66700000
2.05470037 27.32664108 -1.75627398 11 19 850 27.46000000 3180752204 3180752204 -3.66700000
6.74220181 29.89318085 -1.78463542 5 20 851 30.69600000 3180752206 3180752206 -3.33300000
3.35237718 26.83810806 -1.25987673 21 23 852 27.07600000 3180752208 3180752208 -2.66700000
5.93430662 33.89724350 -1.80349708 7 24 853 34.46000000 3180752211 3180752211 -3.00000000
2.83001161 37.28974152 -1.52359211 20 27 854 37.42800000 3180752213 3180752213 -2.33300000
8.71135616 38.49865341 -1.37839055 7 28 855 39.49600000 3180752215 3180752215 -2.00000000
6.47008562 51.50515366 -1.20791531 9 31 856 51.92400000 3180752218 3180752218 -1.33300000
0.97043723 5.48682213 -2.59825706 14 0 863 6.14800000 3180752238 3180752238 -25.00000000
4.71067905 60.80450821 -1.06452703 28 1 863 60.99600000 3180752238 3180752238 -1.00000000
8.09550953 45.72522736 -1.35142982 10 2 864 46.45600000 3180752241 3180752241 -1.66700000
1.04758179 8.24616146 -2.32697463 21 3 864 8.63200000 3180752241 3180752241 -15.63900000
2.12118697 11.96876240 -2.43106985 19 4 865 12.39600000 3180752243 3180752243 -11.31000000
12.47576046 54.69130707 -0.65306479 23 6 865 56.10000000 3180752245 3180752245 -0.66700000
1.80613852 14.19740868 -2.22658849 15 7 865 14.48400000 3180752245 3180752245 -8.84300000
3.10589337 17.50716972 -2.26323175 16 8 866 17.92400000 3180752248 3180752248 -7.25400000
12.28903580 69.20009613 -0.40848455 28 10 867 70.28400000 3180752250 3180752250 -0.33300000
2.34020400 18.34435463 -1.99200511 18 11 867 18.60000000 3180752250 3180752250 -6.14800000
4.20807600 18.40294266 -1.76221955 4 12 868 18.96000000 3180752252 3180752252 -5.33300000
22.04059410 96.31152344 1.15023220 28 14 869 98.80800000 3180752254 3180752254 0.66700000
3.41418004 26.68880272 -1.88147163 16 15 869 26.97200000 3180752254 3180752254 -4.00000000
3.64392352 20.45687103 -1.69628656 7 16 870 20.84800000 3180752257 3180752257 -4.66700000
2.20018673 27.95602226 -1.79720688 12 19 870 28.10000000 3180752259 3180752259 -3.66700000
6.86702728 29.95898628 -1.78998423 5 20 871 30.78800000 3180752261 3180752261 -3.33300000
3.43789363 26.76283264 -1.25689876 19 23 872 27.01200000 3180752264 3180752264 -2.66700000
6.04416323 33.82913208 -1.80098498 7 24 873 34.41200000 3180752266 3180752266 -3.00000000
2.98989749 37.65414429 -1.53889799 21 27 874 37.80400000 3180752268 3180752268 -2.33300000
8.83852100 38.43684387 -1.37727368 7 28 875 39.46400000 3180752271 3180752271 -2.00000000
0.99215931 5.49767160 -2.60501885 14 0 883 6.16400000 3180752294 3180752294 -25.00000000
4.89351988 60.42493820 -1.05817425 28 1 883 60.63200000 3180752294 3180752294 -1.00000000
8.24227715 45.62586594 -1.34933531 10 2 884 46.38400000 3180752296 3180752296 -1.66700000
1.06389046 8.14696789 -2.30001688 24 3 884 8.53200000 3180752296 3180752296 -15.63900000
2.20134020 12.17357063 -2.47421575 13 4 885 12.61600000 3180752298 3180752298 -11.31000000
12.66659260 54.64742279 -0.65306479 23 6 885 56.10000000 3180752301 3180752301 -0.66700000
1.87362254 14.32818604 -2.24811029 17 7 885 14.62400000 3180752301 3180752301 -8.84300000
3.17193317 17.52355385 -2.26676726 16 8 886 17.95200000 3180752303 3180752303 -7.25400000
12.45919991 68.76319122 -0.40615979 28 10 887 69.88400000 3180752305 3180752305 -0.33300000
2.38250804 18.17045784 -1.97401285 13 11 887 18.43200000 3180752305 3180752305 -6.14800000
4.15511608 17.88382530 -1.71388865 2 12 888 18.44000000 3180752307 3180752307 -5.33300000
22.05506706 94.85099792 1.13370180 28 14 889 97.38800000 3180752310 3180752310 0.66700000
3.51668310 26.74793434 -1.88649404 19 15 889 27.04400000 3180752310 3180752310 -4.00000000
3.72956586 20.52247620 -1.70279574 23 16 890 20.92800000 3180752312 3180752312 -4.66700000
2.28500175 27.79301643 -1.78722954 12 19 890 27.94400000 3180752314 3180752314 -3.66700000
6.93804884 29.79093361 -1.78137958 5 20 891 30.64000000 3180752317 3180752317 -3.33300000
3.52606320 26.71105576 -1.25503743 21 23 892 26.97200000 3180752319 3180752319 -2.66700000
6.13284445 33.64670944 -1.79240179 7 24 893 34.24800000 3180752321 3180752321 -3.00000000
3.10546398 37.45229721 -1.53108227 20 27 894 37.61200000 3180752324 3180752324 -2.33300000
8.93989658 38.26561737 -1.37224817 7 28 895 39.32000000 3180752326 3180752326 -2.00000000
1.00346816 5.45139074 -2.58473325 15 0 903 6.11600000 3180752349 3180752349 -25.00000000
5.08589125 60.18830490 -1.05433476 28 1 903 60.41200000 3180752349 3180752349 -1.00000000
8.36961269 45.42380524 -1.34421539 10 2 904 46.20800000 3180752351 3180752351 -1.66700000
1.09283435 8.14702225 -2.30109525 25 3 904 8.53600000 3180752351 3180752351 -15.63900000
2.25662589 12.23524284 -2.48833609 15 4 905 12.68800000 3180752354 3180752354 -11.31000000
12.79799366 54.30865097 -0.64957243 22 6 906 55.80000000 3180752356 3180752356 -0.66700000
1.93034005 14.35256004 -2.25302958 16 7 906 14.65600000 3180752356 3180752356 -8.84300000
3.27486467 17.73869324 -2.29606128 15 8 906 18.18400000 3180752358 3180752358 -7.25400000
12.69915295 68.71928406 -0.40615979 28 10 907 69.88400000 3180752360 3180752360 -0.33300000
2.47086763 18.34727669 -1.99414706 10 11 907 18.62000000 3180752360 3180752360 -6.14800000
5.31718206 22.52838516 -2.16076374 5 12 908 23.24800000 3180752363 3180752363 -5.33300000
22.05502129 93.37209320 1.11693859 28 14 909 95.94800000 3180752365 3180752365 0.66700000
3.41193438 25.26842499 -1.78297544 8 15 909 25.56000000 3180752365 3180752365 -4.00000000
3.83169413 20.67397118 -1.71646488 26 16 910 21.09600000 3180752367 3180752367 -4.66700000
22.37065125 120.58377838 2.14071226 28 18 911 122.66000000 3180752370 3180752370 1.00000000
2.40051937 27.94354057 -1.79746270 8 19 911 28.10400000 3180752370 3180752370 -3.66700000
7.01533604 29.65384102 -1.77463543 4 20 911 30.52400000 3180752372 3180752372 -3.33300000
3.72072577 27.44692230 -1.29021502 12 23 912 27.72800000 3180752374 3180752374 -2.66700000
6.24295568 33.58582306 -1.79030836 7 24 913 34.20800000 3180752377 3180752377 -3.00000000
3.23101568 37.38150024 -1.52863979 20 27 914 37.55200000 3180752379 3180752379 -2.33300000
9.07156849 38.22640228 -1.37196898 7 28 915 39.31200000 3180752381 3180752381 -2.00000000
6.87122202 50.48878479 -1.18567574 8 31 915 50.96800000 3180752384 3180752384 -1.33300000
0.99774790 5.31602335 -2.52218580 11 0 923 5.96800000 3180752404 3180752404 -25.00000000
5.27842379 59.97098541 -1.05084431 28 1 923 60.21200000 3180752404 3180752404 -1.00000000
8.52221394 45.36287689 -1.34328449 10 2 924 46.17600000 3180752407 3180752407 -1.66700000
1.15857160 8.41408730 -2.37765479 15 3 924 8.82000000 3180752407 3180752407 -15.63900000
2.23698139 11.89578247 -2.42087173 15 4 925 12.34400000 3180752409 3180752409 -11.31000000
12.96421337 54.16639709 -0.64840835 22 6 926 55.70000000 3180752411 3180752411 -0.66700000
1.96907735 14.26351261 -2.24011636 17 7 926 14.57200000 3180752411 3180752411 -8.84300000
3.23620629 17.19292068 -2.22686648 18 8 926 17.63600000 3180752413 3180752413 -7.25400000
12.88340569 68.37973022 -0.40441620 28 10 927 69.58400000 3180752416 3180752416 -0.33300000
2.56539154 18.55915451 -2.01813674 18 11 927 18.84400000 3180752416 3180752416 -6.14800000
5.38928986 22.48257828 -2.15816116 5 12 928 23.22000000 3180752418 3180752418 -5.33300000
22.04585457 91.89824677 1.10022211 28 14 929 94.51200000 3180752420 3180752420 0.66700000
3.50176024 25.26821899 -1.78381252 23 15 929 25.57200000 3180752420 3180752420 -4.00000000
3.91049814 20.69572639 -1.71939409 26 16 930 21.13200000 3180752423 3180752423 -4.66700000
2.53042960 28.35290718 -1.82432485 20 19 930 28.52400000 3180752425 3180752425 -3.66700000
7.10947561 29.59034538 -1.77230990 4 20 931 30.48400000 3180752427 3180752427 -3.33300000
3.75319600 26.97864914 -1.26881063 27 23 932 27.26800000 3180752430 3180752430 -2.66700000
6.33635569 33.43823624 -1.78360939 7 24 933 34.08000000 3180752432 3180752432 -3.00000000
3.38582993 37.64067459 -1.53971219 14 27 934 37.82400000 3180752434 3180752434 -2.33300000
9.14968872 37.96520996 -1.36373270 7 28 935 39.07600000 3180752437 3180752437 -2.00000000
7.04741907 50.46449280 -1.18567574 8 31 935 50.96800000 3180752439 3180752439 -1.33300000
1.02242875 5.34455395 -2.53740001 15 0 943 6.00400000 3180752459 3180752459 -25.00000000
5.43304539 59.35478210 -1.04037285 27 1 943 59.61200000 3180752459 3180752459 -1.00000000
8.63764668 45.10901260 -1.33665180 10 2 944 45.94800000 3180752461 3180752461 -1.66700000
1.17823768 8.34133911 -2.35824537 16 3 944 8.74800000 3180752461 3180752461 -15.63900000
2.25781846 11.78003883 -2.39890671 13 4 945 12.23200000 3180752464 3180752464 -11.31000000
13.09751320 53.93265915 -0.64612669 22 6 945 55.50400000 3180752466 3180752466 -0.66700000
1.95492864 13.82250500 -2.17186141 14 7 945 14.12800000 3180752466 3180752466 -8.84300000
3.32535768 17.33349991 -2.24656415 18 8 946 17.79200000 3180752468 3180752468 -7.25400000
13.04658604 67.94152832 -0.40209144 28 10 947 69.18400000 3180752471 3180752471 -0.33300000
2.60950232 18.40439606 -2.00228643 12 11 947 18.69600000 3180752471 3180752471 -6.14800000
5.45737505 22.42106247 -2.15407181 5 12 948 23.17600000 3180752473 3180752473 -5.33300000
23.58559799 166.13676453 3.90467167 11 13 948 167.84800000 3180752473 3180752473 1.33300000
22.03519058 90.46060181 1.08392453 28 14 949 93.11200000 3180752475 3180752475 0.66700000
3.57646441 25.16102791 -1.77711594 28 15 949 25.47600000 3180752475 3180752475 -4.00000000
3.98573136 20.69760895 -1.72069585 28 16 950 21.14800000 3180752477 3180752477 -4.66700000
2.61721635 28.21273422 -1.81588244 8 19 950 28.39200000 3180752480 3180752480 -3.66700000
7.22407913 29.61190224 -1.77510059 5 20 951 30.53200000 3180752482 3180752482 -3.33300000
3.81799865 26.75969124 -1.25913215 23 23 952 27.06000000 3180752484 3180752484 -2.66700000
6.44167757 33.35708618 -1.78046918 7 24 953 34.02000000 3180752487 3180752487 -3.00000000
3.50008988 37.44557571 -1.53222203 20 27 954 37.64000000 3180752489 3180752489 -2.33300000
9.24890041 37.79713440 -1.35884678 7 28 955 38.93600000 3180752491 3180752491 -2.00000000
7.19688559 50.25353622 -1.18130231 8 31 955 50.78000000 3180752494 3180752494 -1.33300000
1.05633748 5.41923428 -2.57459044 15 0 963 6.09200000 3180752514 3180752514 -25.00000000
5.61219311 59.04082870 -1.03520691 26 1 963 59.31600000 3180752514 3180752514 -1.00000000
8.76595974 44.92946243 -1.33223009 10 2 964 45.79600000 3180752517 3180752517 -1.66700000
1.17919242 8.14275551 -2.30325198 18 3 964 8.54400000 3180752517 3180752517 -15.63900000
2.37259865 12.14934731 -2.47578478 13 4 965 12.62400000 3180752519 3180752519 -11.31000000
13.21867180 53.61476898 -0.64286715 22 6 965 55.22400000 3180752521 3180752521 -0.66700000
2.06668687 14.25369072 -2.24073124 25 7 965 14.57600000 3180752521 3180752521 -8.84300000
3.40715647 17.43082619 -2.26070619 15 8 966 17.90400000 3180752524 3180752524 -7.25400000
2.68574262 18.47782326 -2.01128268 16 11 967 18.78000000 3180752526 3180752526 -6.14800000
5.52891779 22.37481117 -2.15146923 5 12 968 23.14800000 3180752528 3180752528 -5.33300000
22.01572418 89.02804565 1.06767356 28 14 969 91.71600000 3180752530 3180752530 0.66700000
3.62399793 24.87199211 -1.75758410 19 15 969 25.19600000 3180752530 3180752530 -4.00000000
4.06025791 20.69530678 -1.72167230 28 16 970 21.16000000 3180752533 3180752533 -4.66700000
22.30373764 113.68309784 2.02217531 28 18 970 115.86800000 3180752535 3180752535 1.00000000
2.80559182 29.13718414 -1.87600255 13 19 970 29.33200000 3180752535 3180752535 -3.66700000
7.26692247 29.34230804 -1.76044953 4 20 971 30.28000000 3180752537 3180752537 -3.33300000
3.87842798 26.52084541 -1.24852312 26 23 972 26.83200000 3180752540 3180752540 -2.66700000
6.53108788 33.19721603 -1.77314222 6 24 973 33.88000000 3180752542 3180752542 -3.00000000
3.57714581 36.88018799 -1.50958884 20 27 974 37.08400000 3180752544 3180752544 -2.33300000
9.38078022 37.76462173 -1.35884678 7 28 975 38.93600000 3180752547 3180752547 -2.00000000
7.33799648 49.99467087 -1.17581213 8 31 975 50.54400000 3180752549 3180752549 -1.33300000
1.07994556 5.44414902 -2.58811426 15 0 982 6.12400000 3180752570 3180752570 -25.00000000
5.79541540 58.89452744 -1.03297305 26 1 982 59.18800000 3180752570 3180752570 -1.00000000
8.90400124 44.84524536 -1.33060098 10 2 983 45.74000000 3180752572 3180752572 -1.66700000
1.19037676 8.03211212 -2.27305937 14 3 983 8.43200000 3180752572 3180752572 -15.63900000
2.40981627 12.12602425 -2.47264671 16 4 984 12.60800000 3180752574 3180752574 -11.31000000
