# .PCD v0.7 - Point Cloud Data file format
VERSION 0.7
FIELDS x y z intensity laser_id azimuth distance_m adjustedtime timestamp vertical_angle
SIZE 4 4 4 1 1 2 8 8 4 8
TYPE F F F U U U F U U F
COUNT 1 1 1 1 1 1 1 1 1 1
WIDTH 522
HEIGHT 1
VIEWPOINT 0 0 0 1 0 0 0
POINTS 522
DATA ascii
35.00802231 26.37085915 -0.51025194 11 6 4881 43.83200000 3183263402 3183263402 -0.66700000
10.19904613 9.37521839 -2.15525889 2 7 4881 14.02000000 3183263402 3183263402 -8.84300000
12.31052303 10.24946308 -2.03897929 2 8 4882 16.14800000 3183263405 3183263405 -7.25400000
40.45764542 40.99788666 0.33476624 47 9 4882 57.60000000 3183263405 3183263405 0.33300000
39.67542267 33.02113342 -0.30001098 24 10 4883 51.62000000 3183263407 3183263407 -0.33300000
13.03344059 11.97227383 -1.90632749 1 11 4883 17.80000000 3183263407 3183263407 -6.14800000
15.53322792 11.68813419 -1.81464005 2 12 4884 19.52400000 3183263409 3183263409 -5.33300000
40.22642899 36.93830109 1.27081883 25 13 4884 54.62800000 3183263409 3183263409 1.33300000
40.67770386 30.59722900 0.59257770 18 14 4885 50.90400000 3183263412 3183263412 0.66700000
16.78495598 15.40754604 -1.59323788 2 15 4885 22.84000000 3183263412 3183263412 -4.00000000
16.09141541 13.37833881 -1.70832849 2 16 4886 20.99600000 3183263414 3183263414 -4.66700000
40.09321213 40.57189560 1.66002226 45 17 4886 57.06400000 3183263414 3183263414 1.66700000
40.25011826 33.46378708 0.91366839 34 18 4886 52.35200000 3183263416 3183263416 1.00000000
16.79854584 16.99910736 -1.53165519 3 19 4886 23.94800000 3183263416 3183263416 -3.66700000
19.53867340 14.68605518 -1.42347574 3 20 4887 24.48400000 3183263419 3183263419 -3.33300000
40.03260040 36.72169876 3.16369295 25 21 4887 54.41600000 3183263419 3183263419 3.33300000
40.02858353 33.25598145 2.12019801 14 22 4888 52.08400000 3183263421 3183263421 2.33300000
19.74604034 18.10659790 -1.24796474 7 23 4888 26.82000000 3183263421 3183263421 -2.66700000
20.14923477 16.73415947 -1.37266743 9 24 4889 26.22800000 3183263423 3183263423 -3.00000000
42.23754120 38.71714020 7.03527355 24 25 4889 57.72800000 3183263423 3183263423 7.00000000
42.42512894 35.22201920 4.50140810 41 26 4890 55.32400000 3183263425 3183263425 4.66700000
20.38997269 20.60462189 -1.18099964 8 27 4890 29.01200000 3183263425 3183263425 -2.33300000
20.80743599 15.61698627 -0.90850371 10 28 4891 26.03200000 3183263428 3183263428 -2.00000000
20.92200851 19.15805817 -0.66011488 17 31 4892 28.37600000 3183263430 3183263430 -1.33300000
4.00499725 3.31439948 -2.42413831 6 0 4899 5.73600000 3183263451 3183263451 -25.00000000
20.91795349 21.07185364 -0.51826668 12 1 4899 29.69600000 3183263451 3183263451 -1.00000000
20.86590958 17.26178169 -0.78812075 23 2 4900 27.09200000 3183263453 3183263453 -1.66700000
6.65605688 6.07781506 -2.52322531 6 3 4900 9.36000000 3183263453 3183263453 -15.63900000
9.07093430 7.50146294 -2.35419202 1 4 4901 12.00400000 3183263455 3183263455 -11.31000000
40.27881622 36.76672745 0.00000000 43 5 4901 54.53600000 3183263455 3183263455 0.00000000
35.20876694 26.32994080 -0.51183516 11 6 4901 43.96800000 3183263458 3183263458 -0.66700000
10.21419430 9.32357216 -2.15156937 2 7 4901 13.99600000 3183263458 3183263458 -8.84300000
12.33399200 10.19631577 -2.03695893 2 8 4902 16.13200000 3183263460 3183263460 -7.25400000
40.44825745 40.70320129 0.33351085 46 9 4902 57.38400000 3183263460 3183263460 0.33300000
13.05752277 11.91062546 -1.90375710 1 11 4903 17.77600000 3183263462 3183263462 -6.14800000
15.56436062 11.62669086 -1.81352460 2 12 4904 19.51200000 3183263465 3183263465 -5.33300000
40.23987961 36.69257736 1.26718974 25 13 4904 54.47200000 3183263465 3183263465 1.33300000
40.75221252 30.43111992 0.59211206 18 14 4905 50.86400000 3183263467 3183263467 0.66700000
16.85632896 15.36499023 -1.59491205 2 15 4905 22.86400000 3183263467 3183263467 -4.00000000
16.13494301 13.31954956 -1.70800304 2 16 4906 20.99200000 3183263469 3183263469 -4.66700000
39.92999649 40.12561035 1.64745510 44 17 4906 56.63200000 3183263469 3183263469 1.66700000
40.40986252 33.35873032 0.91464573 34 18 4906 52.40800000 3183263472 3183263472 1.00000000
16.83806992 16.92055893 -1.52986431 3 19 4906 23.92000000 3183263472 3183263472 -3.66700000
19.59301949 14.62015057 -1.42370832 3 20 4907 24.48800000 3183263474 3183263474 -3.33300000
39.94503403 36.38543320 3.14671636 24 21 4907 54.12400000 3183263474 3183263474 3.33300000
40.14134216 33.11351013 2.12003517 28 22 4908 52.08000000 3183263476 3183263476 2.33300000
19.77958107 18.01065826 -1.24610353 4 23 4908 26.78000000 3183263476 3183263476 -2.66700000
20.21368980 16.66880608 -1.37308609 9 24 4909 26.23600000 3183263478 3183263478 -3.00000000
43.56444931 39.65450287 7.23318911 53 25 4909 59.35200000 3183263478 3183263478 7.00000000
42.82160568 35.29940796 4.53037405 42 26 4910 55.68000000 3183263481 3183263481 4.66700000
20.45330811 20.52482796 -1.18051112 8 27 4910 29.00000000 3183263481 3183263481 -2.33300000
20.80732727 15.50365543 -0.90613055 10 28 4911 25.96400000 3183263483 3183263483 -2.00000000
20.91774750 19.02034187 -0.65788162 21 31 4912 28.28000000 3183263485 3183263485 -1.33300000
4.01316595 3.29879832 -2.42244792 6 0 4918 5.73200000 3183263506 3183263506 -25.00000000
20.91986656 20.93447685 -0.51659125 12 1 4918 29.60000000 3183263506 3183263506 -1.00000000
20.85198593 17.13411140 -0.78544444 23 2 4919 27.00000000 3183263508 3183263508 -1.66700000
6.67332220 6.05312157 -2.52214718 6 3 4919 9.35600000 3183263508 3183263508 -15.63900000
9.08969784 7.46636248 -2.35262299 1 4 4920 11.99600000 3183263511 3183263511 -11.31000000
40.24643326 36.49323654 0.00000000 28 5 4920 54.32800000 3183263511 3183263511 0.00000000
35.25093079 26.17965317 -0.51118326 11 6 4920 43.91200000 3183263513 3183263513 -0.66700000
10.25384045 9.29761410 -2.15341401 2 7 4920 14.00800000 3183263513 3183263513 -8.84300000
12.37080288 10.15787697 -2.03746414 2 8 4921 16.13600000 3183263515 3183263515 -7.25400000
40.46136856 40.44725037 0.33251122 46 9 4921 57.21200000 3183263515 3183263515 0.33300000
39.53134918 32.44831085 -0.29724452 23 10 4922 51.14400000 3183263518 3183263518 -0.33300000
13.10578918 11.87527084 -1.90504229 1 11 4922 17.78800000 3183263518 3183263518 -6.14800000
15.61242676 11.58213234 -1.81464005 2 12 4923 19.52400000 3183263520 3183263520 -5.33300000
40.20129013 36.41396332 1.26216495 37 13 4923 54.25600000 3183263520 3183263520 1.33300000
40.70832825 30.18860245 0.59001666 17 14 4924 50.68400000 3183263522 3183263522 0.66700000
16.89239883 15.29561615 -1.59351683 2 15 4924 22.84400000 3183263522 3183263522 -4.00000000
16.16669083 13.25586033 -1.70670116 2 16 4925 20.97600000 3183263525 3183263525 -4.66700000
39.92984390 39.86021423 1.64198613 21 17 4925 56.44400000 3183263525 3183263525 1.66700000
40.18934631 32.95320892 0.90717608 50 18 4925 51.98000000 3183263527 3183263527 1.00000000
16.89973831 16.87026787 -1.53037596 3 19 4925 23.92800000 3183263527 3183263527 -3.66700000
19.63176918 14.54796505 -1.42301071 3 20 4926 24.47600000 3183263529 3183263529 -3.33300000
39.99144745 36.18579102 3.14090252 24 21 4926 54.02400000 3183263529 3183263529 3.33300000
40.07780838 32.83836365 2.11091685 42 22 4927 51.85600000 3183263531 3183263531 2.33300000
19.82438087 17.93156624 -1.24517286 7 23 4927 26.76000000 3183263531 3183263531 -2.66700000
20.26267433 16.59662056 -1.37266743 9 24 4928 26.22800000 3183263534 3183263534 -3.00000000
42.19383621 38.15181732 6.98457575 23 25 4928 57.31200000 3183263534 3183263534 7.00000000
43.07106781 35.26581573 4.54436874 42 26 4929 55.85200000 3183263536 3183263536 4.66700000
20.50993538 20.44560432 -1.17985988 12 27 4929 28.98400000 3183263536 3183263536 -2.33300000
20.81042290 15.39890289 -0.90403658 10 28 4930 25.90400000 3183263538 3183263538 -2.00000000
20.90948486 18.88654137 -0.65564835 24 31 4931 28.18400000 3183263541 3183263541 -1.33300000
4.01961184 3.27948356 -2.41906691 7 0 4939 5.72400000 3183263561 3183263561 -25.00000000
20.91700935 20.77873993 -0.51463658 12 1 4939 29.48800000 3183263561 3183263561 -1.00000000
20.85887337 17.01208305 -0.78334987 15 2 4940 26.92800000 3183263564 3183263564 -1.66700000
6.69260073 6.02604485 -2.52106881 6 3 4940 9.35200000 3183263564 3183263564 -15.63900000
9.12308311 7.43795395 -2.35419202 1 4 4941 12.00400000 3183263566 3183263566 -11.31000000
40.27585983 36.25181961 0.00000000 42 5 4941 54.18800000 3183263566 3183263566 0.00000000
35.58813095 26.22824669 -0.51467556 11 6 4941 44.21200000 3183263568 3183263568 -0.66700000
10.27609825 9.24939346 -2.15095448 2 7 4941 13.99200000 3183263568 3183263568 -8.84300000
12.40487480 10.10996056 -2.03695893 2 8 4942 16.13200000 3183263571 3183263571 -7.25400000
40.57527542 40.26486969 0.33223224 45 9 4942 57.16400000 3183263571 3183263571 0.33300000
39.52286911 32.19961929 -0.29629135 22 10 4943 50.98000000 3183263573 3183263573 -0.33300000
13.14331245 11.82183647 -1.90418553 1 11 4943 17.78000000 3183263573 3183263573 -6.14800000
15.63552856 11.51066589 -1.81240928 2 12 4944 19.50000000 3183263575 3183263575 -5.33300000
40.13525009 36.08723450 1.25593042 25 13 4944 53.98800000 3183263575 3183263575 1.33300000
40.78004456 30.01074600 0.58945787 35 14 4945 50.63600000 3183263577 3183263577 0.66700000
16.93944359 15.22559834 -1.59267986 2 15 4945 22.83200000 3183263577 3183263577 -4.00000000
16.21207619 13.19400024 -1.70637572 2 16 4946 20.97200000 3183263580 3183263580 -4.66700000
39.97626877 39.61509323 1.63791347 43 17 4946 56.30400000 3183263580 3183263580 1.66700000
40.04308701 32.58858109 0.90117246 49 18 4946 51.63600000 3183263582 3183263582 1.00000000
16.96429253 16.81102371 -1.53063178 3 19 4946 23.93200000 3183263582 3183263582 -3.66700000
19.66243744 14.45935345 -1.42138278 3 20 4947 24.44800000 3183263584 3183263584 -3.33300000
39.82969666 35.77480316 3.11787939 36 21 4947 53.62800000 3183263584 3183263584 3.33300000
39.94363785 32.48447037 2.09756470 26 22 4948 51.52800000 3183263587 3183263587 2.33300000
19.87807846 17.84810829 -1.24442840 7 23 4948 26.74400000 3183263587 3183263587 -2.66700000
20.31406784 16.51468277 -1.37203944 9 24 4949 26.21600000 3183263589 3183263589 -3.00000000
41.79269409 37.51160812 6.89536762 22 25 4949 56.58000000 3183263589 3183263589 7.00000000
42.96489716 34.91662598 4.51963377 41 26 4950 55.54800000 3183263591 3183263591 4.66700000
20.49666977 20.28314400 -1.17481208 12 27 4950 28.86000000 3183263591 3183263591 -2.33300000
20.80550194 15.27757072 -0.90138417 10 28 4951 25.82800000 3183263594 3183263594 -2.00000000
20.91604233 18.75371552 -0.65369421 27 31 4952 28.10000000 3183263596 3183263596 -1.33300000
4.02821779 3.26315069 -2.41737652 7 0 4959 5.72000000 3183263617 3183263617 -25.00000000
20.92677498 20.64380836 -0.51310074 12 1 4959 29.40000000 3183263617 3183263617 -1.00000000
20.85598373 16.88884354 -0.78102267 15 2 4960 26.84800000 3183263619 3183263619 -1.66700000
6.71359444 6.00264645 -2.52106881 6 3 4960 9.35200000 3183263619 3183263619 -15.63900000
9.15203953 7.40853071 -2.35497642 1 4 4961 12.00800000 3183263621 3183263621 -11.31000000
40.26198578 35.98572540 0.00000000 42 5 4961 54.00000000 3183263621 3183263621 0.00000000
35.69883728 26.11803246 -0.51495498 11 6 4961 44.23600000 3183263624 3183263624 -0.66700000
10.30242825 9.20819855 -2.14972472 2 7 4961 13.98400000 3183263624 3183263624 -8.84300000
12.43392086 10.06160545 -2.03594875 2 8 4962 16.12400000 3183263626 3183263626 -7.25400000
40.57027817 39.97980499 0.33104661 67 9 4962 56.96000000 3183263626 3183263626 0.33300000
39.57282639 32.01115036 -0.29582641 22 10 4963 50.90000000 3183263628 3183263628 -0.33300000
13.18449783 11.77588558 -1.90418553 1 11 4963 17.78000000 3183263628 3183263628 -6.14800000
15.63381100 11.42546749 -1.80757630 2 12 4964 19.44800000 3183263630 3183263630 -5.33300000
40.21026230 35.90164185 1.25434852 12 13 4964 53.92000000 3183263630 3183263630 1.33300000
40.72953033 29.75496101 0.58722281 35 14 4965 50.44400000 3183263633 3183263633 0.66700000
16.98653412 15.16106129 -1.59212172 2 15 4965 22.82400000 3183263633 3183263633 -4.00000000
16.24872971 13.12981224 -1.70539939 2 16 4966 20.96000000 3183263635 3183263635 -4.66700000
40.01171494 39.37434769 1.63372445 42 17 4966 56.16000000 3183263635 3183263635 1.66700000
40.12549210 32.42346954 0.90047437 48 18 4966 51.59600000 3183263637 3183263637 1.00000000
16.94889641 16.67890930 -1.52398026 3 19 4966 23.82800000 3183263637 3183263637 -3.66700000
19.72891808 14.40240288 -1.42254555 3 20 4967 24.46800000 3183263640 3183263640 -3.33300000
39.92453003 35.60897446 3.11555386 36 21 4967 53.58800000 3183263640 3183263640 3.33300000
39.96039200 32.26700592 2.09251714 26 22 4968 51.40400000 3183263642 3183263642 2.33300000
19.92236328 17.76265717 -1.24331164 7 23 4968 26.72000000 3183263642 3183263642 -2.66700000
20.37159157 16.44367409 -1.37203944 9 24 4969 26.21600000 3183263644 3183263644 -3.00000000
43.42604446 38.70479202 7.14251852 51 25 4969 58.60800000 3183263644 3183263644 7.00000000
42.80727768 34.54111862 4.49034262 61 26 4970 55.18800000 3183263647 3183263647 4.66700000
20.54739189 20.19186592 -1.17367232 12 27 4970 28.83200000 3183263647 3183263647 -2.33300000
20.80378723 15.16482162 -0.89901102 10 28 4971 25.76000000 3183263649 3183263649 -2.00000000
20.91839218 18.63105965 -0.65183318 20 31 4971 28.02000000 3183263651 3183263651 -1.33300000
4.02828407 3.23998141 -2.41061449 8 0 4979 5.70400000 3183263672 3183263672 -25.00000000
20.92156982 20.49506950 -0.51121587 12 1 4979 29.29200000 3183263672 3183263672 -1.00000000
20.85560608 16.76833725 -0.77881175 11 2 4980 26.77200000 3183263674 3183263674 -1.66700000
6.73162651 5.97661781 -2.51999044 7 3 4980 9.34800000 3183263674 3183263674 -15.63900000
9.17784405 7.37653923 -2.35497642 1 4 4981 12.00800000 3183263677 3183263677 -11.31000000
40.21982193 35.69627762 0.00000000 41 5 4981 53.77600000 3183263677 3183263677 0.00000000
35.85581970 26.03166008 -0.51583970 11 6 4982 44.31200000 3183263679 3183263679 -0.66700000
10.33315182 9.16775322 -2.14910984 2 7 4982 13.98000000 3183263679 3183263679 -8.84300000
12.46896648 10.01814175 -2.03594875 2 8 4982 16.12400000 3183263681 3183263681 -7.25400000
40.51804352 39.65050125 0.32948902 44 9 4982 56.69200000 3183263681 3183263681 0.33300000
39.59076691 31.79767799 -0.29512897 21 10 4983 50.78000000 3183263683 3183263683 -0.33300000
13.22254848 11.72715282 -1.90375710 1 11 4983 17.77600000 3183263683 3183263683 -6.14800000
15.72517776 11.40824509 -1.81352460 2 12 4984 19.51200000 3183263686 3183263686 -5.33300000
40.22761536 35.66555786 1.25099862 24 13 4984 53.77600000 3183263686 3183263686 1.33300000
40.52554321 29.38953209 0.58279920 34 14 4985 50.06400000 3183263688 3183263688 0.66700000
17.03935242 15.10167503 -1.59212172 2 15 4985 22.82400000 3183263688 3183263688 -4.00000000
16.29757309 13.07550907 -1.70572484 2 16 4986 20.96400000 3183263690 3183263690 -4.66700000
40.21182251 39.29592133 1.63628435 43 17 4986 56.24800000 3183263690 3183263690 1.66700000
40.22534180 32.26116943 0.90005553 32 18 4987 51.57200000 3183263693 3183263693 1.00000000
17.00705719 16.61388588 -1.52372444 3 19 4987 23.82400000 3183263693 3183263693 -3.66700000
19.64649963 14.23737621 -1.41301072 3 20 4987 24.30400000 3183263695 3183263695 -3.33300000
40.03363800 35.45615768 3.11439109 24 21 4987 53.56800000 3183263695 3183263695 3.33300000
39.84826660 31.94732475 2.08079338 25 22 4988 51.11600000 3183263697 3183263697 2.33300000
19.97227859 17.68241310 -1.24256718 7 23 4988 26.70400000 3183263697 3183263697 -2.66700000
20.41951561 16.36496925 -1.37141144 9 24 4989 26.20400000 3183263700 3183263700 -3.00000000
42.08328629 37.24524307 6.90024233 22 25 4989 56.62000000 3183263700 3183263700 7.00000000
42.79380035 34.28429794 4.47634792 40 26 4990 55.01600000 3183263702 3183263702 4.66700000
20.46328735 19.96928596 -1.16487956 8 27 4990 28.61600000 3183263702 3183263702 -2.33300000
20.80801582 15.05695820 -0.89691705 10 28 4991 25.70000000 3183263704 3183263704 -2.00000000
20.92338943 18.50494194 -0.64997214 23 31 4991 27.94000000 3183263707 3183263707 -1.33300000
4.03050900 3.21981716 -2.40554309 8 0 4998 5.69200000 3183263727 3183263727 -25.00000000
20.91776276 20.35584641 -0.50947064 12 1 4998 29.19200000 3183263727 3183263727 -1.00000000
20.85485840 16.65417480 -0.77671725 15 2 4999 26.70000000 3183263730 3183263730 -1.66700000
6.74851942 5.95171404 -2.51891208 6 3 4999 9.34400000 3183263730 3183263730 -15.63900000
9.20225525 7.34606361 -2.35497642 1 4 5000 12.00800000 3183263732 3183263732 -11.31000000
40.22995758 35.46747971 0.00000000 40 5 5000 53.63200000 3183263732 3183263732 0.00000000
36.20799255 26.10442162 -0.51965797 11 6 5001 44.64000000 3183263734 3183263734 -0.66700000
10.36349678 9.13343716 -2.14910984 2 7 5001 13.98000000 3183263734 3183263734 -8.84300000
12.49281406 9.96931362 -2.03443360 2 8 5001 16.11200000 3183263736 3183263736 -7.25400000
40.51450729 39.38488007 0.32839638 43 9 5001 56.50400000 3183263736 3183263736 0.33300000
39.58967972 31.58140755 -0.29433855 31 10 5002 50.64400000 3183263739 3183263739 -0.33300000
13.25539589 11.67798233 -1.90290034 1 11 5002 17.76800000 3183263739 3183263739 -6.14800000
15.69506168 11.30714798 -1.80571735 2 12 5003 19.42800000 3183263741 3183263741 -5.33300000
40.23762894 35.43681717 1.24764872 24 13 5003 53.63200000 3183263741 3183263741 1.33300000
40.53839493 29.19421196 0.58158851 34 14 5004 49.96000000 3183263743 3183263743 0.66700000
16.97552872 14.94489193 -1.58151877 2 15 5004 22.67200000 3183263743 3183263743 -4.00000000
16.32525253 13.00896931 -1.70409751 2 16 5005 20.94400000 3183263746 3183263746 -4.66700000
40.33330536 39.15400314 1.63593531 43 17 5005 56.23600000 3183263746 3183263746 1.66700000
39.86983871 31.77074623 0.88986331 46 18 5005 50.98800000 3183263748 3183263748 1.00000000
17.05630302 16.55759430 -1.52346861 3 19 5005 23.82000000 3183263748 3183263748 -3.66700000
19.80704689 14.25378513 -1.42115021 3 20 5006 24.44400000 3183263750 3183263750 -3.33300000
39.67428970 34.90382004 3.07741475 34 21 5006 52.93200000 3183263750 3183263750 3.33300000
39.76639557 31.66562843 2.07102370 36 22 5007 50.87600000 3183263753 3183263753 2.33300000
20.00980377 17.59761429 -1.24126422 4 23 5007 26.67600000 3183263753 3183263753 -2.66700000
20.38616371 16.22750854 -1.36554980 9 24 5008 26.09200000 3183263755 3183263755 -3.00000000
42.33776093 37.22082520 6.92169142 45 25 5008 56.79600000 3183263755 3183263755 7.00000000
43.00396347 34.21915436 4.48643684 40 26 5009 55.14000000 3183263757 3183263757 4.66700000
20.55235291 19.92357254 -1.16618216 8 27 5009 28.64800000 3183263757 3183263757 -2.33300000
20.79939842 14.94588375 -0.89440429 10 28 5010 25.62800000 3183263760 3183263760 -2.00000000
20.90352440 18.36419487 -0.64745975 27 31 5010 27.83200000 3183263762 3183263762 -1.33300000
4.03320312 3.19897008 -2.40047169 6 0 5018 5.68000000 3183263783 3183263783 -25.00000000
20.91966820 20.21600533 -0.50779521 12 1 5018 29.09600000 3183263783 3183263783 -1.00000000
20.84707260 16.52911186 -0.77427363 15 2 5019 26.61600000 3183263785 3183263785 -1.66700000
6.76635599 5.92558336 -2.51783395 6 3 5019 9.34000000 3183263785 3183263785 -15.63900000
9.21554565 7.30415154 -2.35183859 1 4 5020 11.99200000 3183263788 3183263788 -11.31000000
40.26322556 35.24779129 0.00000000 27 5 5020 53.51200000 3183263788 3183263788 0.00000000
36.41143799 26.06802940 -0.52133429 11 6 5020 44.78400000 3183263790 3183263790 -0.66700000
10.38183117 9.08860683 -2.14665008 2 7 5020 13.96400000 3183263790 3183263790 -8.84300000
12.53686810 9.93303680 -2.03594875 2 8 5021 16.12400000 3183263792 3183263792 -7.25400000
40.65749359 39.24877548 0.32844287 21 9 5021 56.51200000 3183263792 3183263792 0.33300000
39.64637375 31.40080261 -0.29394335 20 10 5022 50.57600000 3183263795 3183263795 -0.33300000
13.29308510 11.62902260 -1.90247202 2 11 5022 17.76400000 3183263795 3183263795 -6.14800000
15.72795677 11.24765968 -1.80497384 2 12 5023 19.42000000 3183263797 3183263797 -5.33300000
40.21057129 35.16452026 1.24299610 24 13 5023 53.43200000 3183263797 3183263797 1.33300000
40.56196213 28.99670219 0.58047098 33 14 5024 49.86400000 3183263799 3183263799 0.66700000
17.03960991 14.89605045 -1.58263493 2 15 5024 22.68800000 3183263799 3183263799 -4.00000000
16.38619614 12.96427250 -1.70572484 2 16 5025 20.96400000 3183263801 3183263801 -4.66700000
40.32004929 38.86867523 1.62988448 63 17 5025 56.02800000 3183263801 3183263801 1.66700000
40.01499557 31.65867805 0.89063120 31 18 5025 51.03200000 3183263804 3183263804 1.00000000
17.10250092 16.48687553 -1.52244532 3 19 5025 23.80400000 3183263804 3183263804 -3.66700000
19.75270271 14.11028194 -1.41370845 3 20 5026 24.31600000 3183263806 3183263806 -3.33300000
39.59740448 34.59172821 3.06206584 22 21 5026 52.66800000 3183263806 3183263806 3.33300000
39.78576660 31.45474243 2.06630158 24 22 5027 50.76000000 3183263808 3183263808 2.33300000
20.06208038 17.51977539 -1.24070585 4 23 5027 26.66400000 3183263808 3183263808 -2.66700000
20.41761208 16.13643456 -1.36387503 9 24 5028 26.06000000 3183263811 3183263811 -3.00000000
42.43452835 37.04409027 6.91632891 44 25 5028 56.75200000 3183263811 3183263811 7.00000000
43.13566208 34.07872009 4.48773909 40 26 5029 55.15600000 3183263813 3183263813 4.66700000
20.62177277 19.85170937 -1.16618216 8 27 5029 28.64800000 3183263813 3183263813 -2.33300000
20.80587959 14.84068966 -0.89244992 10 28 5030 25.57200000 3183263815 3183263815 -2.00000000
20.91325951 18.24379921 -0.64578480 27 31 5030 27.76000000 3183263818 3183263818 -1.33300000
4.03864861 3.18038630 -2.39709067 5 0 5038 5.67200000 3183263838 3183263838 -25.00000000
20.92085266 20.07639885 -0.50611979 12 1 5038 29.00000000 3183263838 3183263838 -1.00000000
20.84809303 16.41172409 -0.77217913 18 2 5039 26.54400000 3183263841 3183263841 -1.66700000
6.78409243 5.89940071 -2.51675558 6 3 5039 9.33600000 3183263841 3183263841 -15.63900000
9.24098587 7.27193880 -2.35183859 1 4 5040 11.99200000 3183263843 3183263843 -11.31000000
40.28941727 35.02305603 0.00000000 26 5 5040 53.38400000 3183263843 3183263843 0.00000000
36.52503204 25.95698929 -0.52166021 11 6 5040 44.81200000 3183263845 3183263845 -0.66700000
10.41051006 9.04971886 -2.14603519 2 7 5040 13.96000000 3183263845 3183263845 -8.84300000
12.55587101 9.87694836 -2.03342342 2 8 5041 16.10400000 3183263848 3183263848 -7.25400000
40.74227524 39.05678940 0.32802442 43 9 5041 56.44000000 3183263848 3183263848 0.33300000
39.61110687 31.14848518 -0.29287395 30 10 5042 50.39200000 3183263850 3183263850 -0.33300000
13.33059502 11.57994270 -1.90204358 1 11 5042 17.76000000 3183263850 3183263850 -6.14800000
15.83532238 11.24110317 -1.81278110 2 12 5043 19.50400000 3183263852 3183263852 -5.33300000
40.34817123 35.03705597 1.24346137 36 13 5043 53.45200000 3183263852 3183263852 1.33300000
40.56833649 28.78781128 0.57912058 33 14 5044 49.74800000 3183263854 3183263854 0.66700000
17.08246231 14.82863331 -1.58179784 2 15 5044 22.67600000 3183263854 3183263854 -4.00000000
16.42507935 12.90207005 -1.70507395 2 16 5045 20.95600000 3183263857 3183263857 -4.66700000
40.16954422 38.45397186 1.61836457 61 17 5045 55.63200000 3183263857 3183263857 1.66700000
40.08123016 31.48422050 0.88965386 30 18 5045 50.97600000 3183263859 3183263859 1.00000000
17.14841270 16.41603470 -1.52142191 3 19 5045 23.78800000 3183263859 3183263859 -3.66700000
19.81160736 14.04817581 -1.41440606 3 20 5046 24.32800000 3183263861 3183263861 -3.33300000
39.72092438 34.45591354 3.06229854 34 21 5046 52.67200000 3183263861 3183263861 3.33300000
39.80729294 31.24657631 2.06174231 35 22 5047 50.64800000 3183263864 3183263864 2.33300000
20.11405754 17.44178581 -1.24014747 4 23 5047 26.65200000 3183263864 3183263864 -2.66700000
20.48952866 16.07739449 -1.36492169 9 24 5048 26.08000000 3183263866 3183263866 -3.00000000
42.73757553 37.04656982 6.94460249 45 25 5048 56.98400000 3183263866 3183263866 7.00000000
43.04418564 33.76308823 4.46593332 39 26 5049 54.88800000 3183263868 3183263868 4.66700000
20.67360878 19.76303482 -1.16520524 8 27 5049 28.62400000 3183263868 3183263868 -2.33300000
20.81514359 14.73794270 -0.89063513 10 28 5050 25.52000000 3183263871 3183263871 -2.00000000
20.91333961 18.11570358 -0.64383066 26 31 5050 27.67600000 3183263873 3183263873 -1.33300000
4.01028967 3.13430882 -2.37342405 3 0 5059 5.61600000 3183263894 3183263894 -25.00000000
20.92479706 19.93338013 -0.50444436 12 1 5059 28.90400000 3183263894 3183263894 -1.00000000
20.85139275 16.29089355 -0.77008462 18 2 5060 26.47200000 3183263896 3183263896 -1.66700000
6.80275345 5.87197924 -2.51567721 6 3 5060 9.33200000 3183263896 3183263896 -15.63900000
9.25830364 7.23077726 -2.34948516 1 4 5061 11.98000000 3183263898 3183263898 -11.31000000
40.30242920 34.77585220 0.00000000 26 5 5061 53.23200000 3183263898 3183263898 0.00000000
36.53820419 25.76531792 -0.52049613 11 6 5061 44.71200000 3183263901 3183263901 -0.66700000
10.44061661 9.00891972 -2.14542031 2 7 5061 13.95600000 3183263901 3183263901 -8.84300000
12.59511566 9.83330441 -2.03392863 2 8 5062 16.10800000 3183263903 3183263903 -7.25400000
40.83879089 38.86308289 0.32765245 43 9 5062 56.37600000 3183263903 3183263903 0.33300000
39.61463928 30.91695976 -0.29206029 29 10 5063 50.25200000 3183263905 3183263905 -0.33300000
13.37596035 11.53360271 -1.90247202 1 11 5063 17.76400000 3183263905 3183263905 -6.14800000
15.88618469 11.18986893 -1.81389642 2 12 5064 19.51600000 3183263907 3183263907 -5.33300000
40.43693924 34.85499573 1.24225163 24 13 5064 53.40000000 3183263907 3183263907 1.33300000
40.56892395 28.56524086 0.57763052 33 14 5065 49.62000000 3183263910 3183263910 0.66700000
17.14576530 14.77373695 -1.58263493 2 15 5065 22.68800000 3183263910 3183263910 -4.00000000
16.45653725 12.82952595 -1.70344663 2 16 5066 20.93600000 3183263912 3183263912 -4.66700000
40.19138336 38.19356155 1.61359370 60 17 5066 55.46800000 3183263912 3183263912 1.66700000
40.02832413 31.19487381 0.88581437 30 18 5067 50.75600000 3183263914 3183263914 1.00000000
17.19684792 16.33632088 -1.52014279 3 19 5067 23.76800000 3183263914 3183263914 -3.66700000
19.84990120 13.96627617 -1.41347587 3 20 5067 24.31200000 3183263917 3183263917 -3.33300000
39.70169830 34.18502808 3.05113578 33 21 5067 52.48000000 3183263917 3183263917 3.33300000
39.85533905 31.04888535 2.05832291 34 22 5068 50.56400000 3183263919 3183263919 2.33300000
20.16573524 17.35751915 -1.23940301 4 23 5068 26.63600000 3183263919 3183263919 -2.66700000
20.43801117 15.91628742 -1.35759473 9 24 5069 25.94000000 3183263921 3183263921 -3.00000000
42.93326187 36.94147110 6.95435238 45 25 5069 57.06400000 3183263921 3183263921 7.00000000
43.19595718 33.62713623 4.46886253 40 26 5070 54.92400000 3183263924 3183263924 4.66700000
20.73431015 19.67612457 -1.16455388 8 27 5070 28.60800000 3183263924 3183263924 -2.33300000
20.80360031 14.61559200 -0.88784319 10 28 5071 25.44000000 3183263926 3183263926 -2.00000000
20.91288948 17.98157310 -0.64178354 22 31 5071 27.58800000 3183263928 3183263928 -1.33300000
3.96678782 3.07806516 -2.34130526 2 0 5079 5.54000000 3183263949 3183263949 -25.00000000
20.92452049 19.79425430 -0.50276893 12 1 5079 28.80800000 3183263949 3183263949 -1.00000000
20.84494591 16.16899681 -0.76775736 18 2 5080 26.39200000 3183263951 3183263951 -1.66700000
6.82613373 5.85070419 -2.51675558 6 3 5080 9.33600000 3183263951 3183263951 -15.63900000
9.29898548 7.21043301 -2.35340738 1 4 5081 12.00000000 3183263953 3183263953 -11.31000000
40.28384781 34.51523972 0.00000000 25 5 5081 53.04800000 3183263953 3183263953 0.00000000
36.84540939 25.78027153 -0.52352279 12 6 5082 44.97200000 3183263956 3183263956 -0.66700000
10.46756268 8.96544933 -2.14419055 2 7 5082 13.94800000 3183263956 3183263956 -8.84300000
12.61368179 9.77712440 -2.03140330 2 8 5082 16.08800000 3183263958 3183263958 -7.25400000
40.83465576 38.58842087 0.32653657 21 9 5082 56.18400000 3183263958 3183263958 0.33300000
39.63062668 30.70744324 -0.29138610 19 10 5083 50.13600000 3183263960 3183263960 -0.33300000
13.42822266 11.49718761 -1.90418553 2 11 5083 17.78000000 3183263960 3183263960 -6.14800000
15.84354782 11.07729530 -1.80460203 2 12 5084 19.41600000 3183263963 3183263963 -5.33300000
40.27885818 34.47440720 1.23369086 35 13 5084 53.03200000 3183263963 3183263963 1.33300000
40.21597290 28.10725784 0.57120466 32 14 5085 49.06800000 3183263965 3183263965 0.66700000
17.19116783 14.70860958 -1.58207679 2 15 5085 22.68000000 3183263965 3183263965 -4.00000000
16.50437355 12.77444458 -1.70377207 2 16 5086 20.94000000 3183263967 3183263967 -4.66700000
39.99004364 37.73745728 1.60021210 19 17 5086 55.00800000 3183263967 3183263967 1.66700000
40.36242676 31.24066353 0.89091045 15 18 5086 51.04800000 3183263970 3183263970 1.00000000
17.24221802 16.27098465 -1.51937532 3 19 5086 23.75600000 3183263970 3183263970 -3.66700000
19.89853096 13.89690208 -1.41347587 3 20 5087 24.31200000 3183263972 3183263972 -3.33300000
39.64778137 33.89832306 3.03788018 22 21 5087 52.25200000 3183263972 3183263972 3.33300000
39.85282898 30.82399368 2.05262399 34 22 5088 50.42400000 3183263974 3183263974 2.33300000
20.20797729 17.27144623 -1.23828626 4 23 5088 26.61200000 3183263974 3183263974 -2.66700000
20.48396492 15.83751869 -1.35696661 9 24 5089 25.92800000 3183263977 3183263977 -3.00000000
43.44227982 37.11632919 7.01577425 47 25 5089 57.56800000 3183263977 3183263977 7.00000000
43.44871521 33.58098221 4.48285723 40 26 5090 55.09600000 3183263979 3183263979 4.66700000
20.79123116 19.59266472 -1.16390252 8 27 5090 28.59200000 3183263979 3183263979 -2.33300000
20.80530739 14.50858498 -0.88574922 10 28 5091 25.38000000 3183263981 3183263981 -2.00000000
20.92390251 17.85807419 -0.64010859 19 31 5092 27.51600000 3183263983 3183263983 -1.33300000
3.95400143 3.04719043 -2.32778144 4 0 5098 5.50800000 3183264004 3183264004 -25.00000000
20.91135597 19.65081024 -0.50088406 12 1 5098 28.70000000 3183264004 3183264004 -1.00000000
20.85093880 16.06318283 -0.76601195 15 2 5099 26.33200000 3183264006 3183264006 -1.66700000
6.83669901 5.82054472 -2.51352072 5 3 5099 9.32400000 3183264006 3183264006 -15.63900000
9.31352234 7.17237759 -2.35105419 3 4 5100 11.98800000 3183264009 3183264009 -11.31000000
40.21836090 34.22850800 0.00000000 25 5 5100 52.81200000 3183264009 3183264009 0.00000000
37.10478973 25.77889824 -0.52599072 12 6 5101 45.18400000 3183264011 3183264011 -0.66700000
10.49121475 8.92556667 -2.14296055 2 7 5101 13.94000000 3183264011 3183264011 -8.84300000
12.68062115 9.76186752 -2.03695893 1 8 5101 16.13200000 3183264013 3183264013 -7.25400000
40.81949615 38.31865311 0.32539743 41 9 5101 55.98800000 3183264013 3183264013 0.33300000
39.64347839 30.50754929 -0.29073519 18 10 5102 50.02400000 3183264016 3183264016 -0.33300000
13.45415592 11.44228935 -1.90247202 2 11 5102 17.76400000 3183264016 3183264016 -6.14800000
15.86710739 11.01561069 -1.80311489 2 12 5103 19.40000000 3183264018 3183264018 -5.33300000
40.20710754 34.18264771 1.22801459 23 13 5103 52.78800000 3183264018 3183264018 1.33300000
40.41739655 28.04899597 0.57274127 32 14 5104 49.20000000 3183264020 3183264020 0.66700000
17.23680878 14.64893627 -1.58179784 2 15 5104 22.67600000 3183264020 3183264020 -4.00000000
16.45182037 12.64675140 -1.69400835 2 16 5105 20.82000000 3183264023 3183264023 -4.66700000
40.14997101 37.63745117 1.60160840 38 17 5105 55.05600000 3183264023 3183264023 1.66700000
40.45946121 31.10177040 0.89077085 31 18 5105 51.04000000 3183264025 3183264025 1.00000000
17.29607964 16.21371841 -1.51937532 3 19 5105 23.75600000 3183264025 3183264025 -3.66700000
19.96419334 13.84449387 -1.41487122 3 20 5106 24.33600000 3183264027 3183264027 -3.33300000
39.74475479 33.75373459 3.03671741 33 21 5106 52.23200000 3183264027 3183264027 3.33300000
39.95482635 30.69166756 2.05262399 23 22 5107 50.42400000 3183264030 3183264030 2.33300000
20.26514053 17.20433998 -1.23828626 4 23 5107 26.61200000 3183264030 3183264030 -2.66700000
20.51736259 15.75490761 -1.35571063 9 24 5108 25.90400000 3183264032 3183264032 -3.00000000
43.42285156 36.85132217 6.99286270 47 25 5108 57.38000000 3183264032 3183264032 7.00000000
43.51239777 33.40030289 4.47797537 40 26 5109 55.03600000 3183264034 3183264034 4.66700000
20.82107544 19.49083519 -1.16194856 12 27 5109 28.54400000 3183264034 3183264034 -2.33300000
20.80729294 14.40765285 -0.88379484 10 28 5110 25.32400000 3183264036 3183264036 -2.00000000
20.90670586 17.73017693 -0.63787532 22 31 5110 27.42000000 3183264039 3183264039 -1.33300000
3.95938444 3.02827311 -2.32440042 5 0 5119 5.50000000 3183264059 3183264059 -25.00000000
20.91889954 19.51401711 -0.49934825 11 1 5119 28.61200000 3183264059 3183264059 -1.00000000
20.84614563 15.93808270 -0.76368469 15 2 5120 26.25200000 3183264062 3183264062 -1.66700000
6.85798645 5.79544783 -2.51352072 6 3 5120 9.32400000 3183264062 3183264062 -15.63900000
9.34286404 7.14057541 -2.35183859 1 4 5121 11.99200000 3183264064 3183264064 -11.31000000
40.25798798 34.00859451 0.00000000 25 5 5121 52.70000000 3183264064 3183264064 0.00000000
37.13528061 25.60835075 -0.52515256 12 6 5121 45.11200000 3183264066 3183264066 -0.66700000
10.51928711 8.88634014 -2.14234567 2 7 5121 13.93600000 3183264066 3183264066 -8.84300000
12.77307034 9.75868702 -2.04605031 2 8 5122 16.20400000 3183264069 3183264069 -7.25400000
40.83676147 38.05425262 0.32442102 20 9 5122 55.82000000 3183264069 3183264069 0.33300000
39.68509293 30.30863190 -0.29022372 27 10 5123 49.93600000 3183264071 3183264071 -0.33300000
13.49904251 11.39546585 -1.90290034 2 11 5123 17.76800000 3183264071 3183264071 -6.14800000
15.91721535 10.96415806 -1.80423021 2 12 5124 19.41200000 3183264073 3183264073 -5.33300000
40.27099991 33.98347092 1.22615361 23 13 5124 52.70800000 3183264073 3183264073 1.33300000
40.54628372 27.91881561 0.57311380 32 14 5125 49.23200000 3183264076 3183264076 0.66700000
17.29038429 14.58566189 -1.58179784 2 15 5125 22.67600000 3183264076 3183264076 -4.00000000
16.48221397 12.57427692 -1.69238102 2 16 5126 20.80000000 3183264078 3183264078 -4.66700000
39.98031235 37.20404434 1.58939040 37 17 5126 54.63600000 3183264078 3183264078 1.66700000
40.26156998 30.71554184 0.88392949 15 18 5126 50.64800000 3183264080 3183264080 1.00000000
17.34954453 16.14477730 -1.51886368 3 19 5126 23.74800000 3183264080 3183264080 -3.66700000
19.98519516 13.75085640 -1.41277826 3 20 5127 24.30000000 3183264083 3183264083 -3.33300000
39.90178680 33.63614655 3.03927541 33 21 5127 52.27600000 3183264083 3183264083 3.33300000
40.05115509 30.53290367 2.05180979 22 22 5128 50.40400000 3183264085 3183264085 2.33300000
20.31278419 17.11707497 -1.23735559 7 23 5128 26.59200000 3183264085 3183264085 -2.66700000
20.56225967 15.66991711 -1.35487318 9 24 5129 25.88800000 3183264087 3183264087 -3.00000000
42.55560684 35.84784317 6.83199549 42 25 5129 56.06000000 3183264087 3183264087 7.00000000
43.53621292 33.16570663 4.46788597 39 26 5130 54.91200000 3183264089 3183264089 4.66700000
20.81625175 19.34365463 -1.15771508 12 27 5130 28.44000000 3183264089 3183264089 -2.33300000
20.80724144 14.29507446 -0.88156128 9 28 5131 25.26000000 3183264092 3183264092 -2.00000000
20.91649628 17.60084915 -0.63610733 22 31 5132 27.34400000 3183264094 3183264094 -1.33300000
3.96126914 3.00785685 -2.31932902 5 0 5139 5.48800000 3183264115 3183264115 -25.00000000
20.91060448 19.37021255 -0.49753320 11 1 5139 28.50800000 3183264115 3183264115 -1.00000000
20.84751320 15.82412338 -0.76170653 14 2 5140 26.18400000 3183264117 3183264117 -1.66700000
6.87817430 5.77147341 -2.51352072 6 3 5140 9.32400000 3183264117 3183264117 -15.63900000
9.36460781 7.10554838 -2.35105419 3 4 5141 11.98800000 3183264119 3183264119 -11.31000000
40.14966965 33.67763519 0.00000000 24 5 5141 52.40400000 3183264119 3183264119 0.00000000
37.51160049 25.67511368 -0.52920365 12 6 5141 45.46000000 3183264122 3183264122 -0.66700000
10.55327034 8.85210705 -2.14296055 2 7 5141 13.94000000 3183264122 3183264122 -8.84300000
12.79757214 9.70684719 -2.04453516 2 8 5142 16.19200000 3183264124 3183264124 -7.25400000
40.77558136 37.73217392 0.32288668 20 9 5142 55.55600000 3183264124 3183264124 0.33300000
39.75239944 30.14092064 -0.28994474 27 10 5143 49.88800000 3183264126 3183264126 -0.33300000
13.53569031 11.34572124 -1.90247202 2 11 5143 17.76400000 3183264126 3183264126 -6.14800000
15.95210266 10.90628242 -1.80385852 2 12 5144 19.40800000 3183264129 3183264129 -5.33300000
40.24225235 33.71941376 1.22168708 22 13 5144 52.51600000 3183264129 3183264129 1.33300000
40.54772568 27.71166420 0.57176346 16 14 5145 49.11600000 3183264131 3183264131 0.66700000
17.34119225 14.52521801 -1.58179784 2 15 5145 22.67600000 3183264131 3183264131 -4.00000000
16.54507446 12.53110886 -1.69433379 2 16 5146 20.82400000 3183264133 3183264133 -4.66700000
40.14223480 37.09411240 1.59067035 37 17 5146 54.68000000 3183264133 3183264133 1.66700000
40.24101639 30.47822762 0.88113707 29 18 5146 50.48800000 3183264136 3183264136 1.00000000
17.40872574 16.08682823 -1.51911950 3 19 5146 23.75200000 3183264136 3183264136 -3.66700000
20.02647781 13.67650700 -1.41231310 3 20 5147 24.29200000 3183264138 3183264138 -3.33300000
39.84441376 33.35056305 3.02601981 32 21 5147 52.04800000 3183264138 3183264138 3.33300000
20.35095787 17.02811623 -1.23605275 7 23 5148 26.56400000 3183264140 3183264140 -2.66700000
20.59772110 15.58358574 -1.35361719 9 24 5149 25.86400000 3183264142 3183264142 -3.00000000
43.66107941 36.51927948 6.98896313 46 25 5149 57.34800000 3183264142 3183264142 7.00000000
43.14931488 32.63357162 4.41646338 37 26 5150 54.28000000 3183264145 3183264145 4.66700000
20.82490158 19.21666718 -1.15445852 12 27 5150 28.36000000 3183264145 3183264145 -2.33300000
20.80086708 14.18406963 -0.87918812 9 28 5151 25.19200000 3183264147 3183264147 -2.00000000
20.91029549 17.47132111 -0.63406014 22 31 5152 27.25600000 3183264149 3183264149 -1.33300000
3.96016502 2.98528218 -2.31256723 5 0 5159 5.47200000 3183264170 3183264170 -25.00000000
20.91627884 19.24024391 -0.49606720 11 1 5159 28.42400000 3183264170 3183264170 -1.00000000
20.85153008 15.71275520 -0.75984472 14 2 5160 26.12000000 3183264172 3183264172 -1.66700000
6.89827871 5.74742889 -2.51352072 5 3 5160 9.32400000 3183264172 3183264172 -15.63900000
9.38622093 7.07045650 -2.35026956 3 4 5161 11.98400000 3183264175 3183264175 -11.31000000
40.17477798 33.46048355 0.00000000 24 5 5161 52.28400000 3183264175 3183264175 0.00000000
37.72671509 25.62942505 -0.53097308 12 6 5161 45.61200000 3183264177 3183264177 -0.66700000
10.57195759 8.80509758 -2.14050102 2 7 5161 13.92400000 3183264177 3183264177 -8.84300000
12.83137798 9.66211605 -2.04453516 2 8 5162 16.19200000 3183264179 3183264179 -7.25400000
40.82751846 37.51653671 0.32225898 19 9 5162 55.44800000 3183264179 3183264179 0.33300000
39.84139252 29.98994827 -0.28982851 18 10 5163 49.86800000 3183264182 3183264182 -0.33300000
13.49879169 11.23480034 -1.89176226 2 11 5163 17.66400000 3183264182 3183264182 -6.14800000
15.98348427 10.84605980 -1.80311489 2 12 5164 19.40000000 3183264184 3183264184 -5.33300000
40.31667328 33.54293060 1.22038436 33 13 5164 52.46000000 3183264184 3183264184 1.33300000
40.56808090 27.51831627 0.57069248 16 14 5165 49.02400000 3183264186 3183264186 0.66700000
17.38872147 14.46204662 -1.58151877 2 15 5165 22.67200000 3183264186 3183264186 -4.00000000
16.58234406 12.46848774 -1.69368291 2 16 5166 20.81600000 3183264189 3183264189 -4.66700000
40.23612213 36.92132187 1.58927405 18 17 5166 54.63200000 3183264189 3183264189 1.66700000
40.34716034 30.33757401 0.88113707 14 18 5166 50.48800000 3183264191 3183264191 1.00000000
17.44124413 16.00436974 -1.51707280 3 19 5166 23.72000000 3183264191 3183264191 -3.66700000
20.08070564 13.61099911 -1.41277826 3 20 5167 24.30000000 3183264193 3183264193 -3.33300000
39.88381195 33.14746857 3.02020597 32 21 5167 51.94800000 3183264193 3183264193 3.33300000
39.61150742 29.76278877 2.01859260 10 22 5168 49.58800000 3183264195 3183264195 2.33300000
20.40412712 16.95186806 -1.23568046 4 23 5168 26.55600000 3183264195 3183264195 -2.66700000
20.64879799 15.50919247 -1.35340786 9 24 5169 25.86000000 3183264198 3183264198 -3.00000000
43.80966949 36.38440704 6.99237537 47 25 5169 57.37600000 3183264198 3183264198 7.00000000
42.92502213 32.22901917 4.38196516 36 26 5170 53.85600000 3183264200 3183264200 4.66700000
20.82113457 19.07905388 -1.15055060 12 27 5170 28.26400000 3183264200 3183264200 -2.33300000
20.80390358 14.08000660 -0.87723374 9 28 5171 25.13600000 3183264202 3183264202 -2.00000000
20.91575623 17.35226440 -0.63238519 18 31 5172 27.18400000 3183264205 3183264205 -1.33300000
3.95604920 2.96057987 -2.30411482 4 0 5179 5.45200000 3183264225 3183264225 -25.00000000
20.90949059 19.09968185 -0.49432197 15 1 5179 28.32400000 3183264225 3183264225 -1.00000000
20.84862328 15.59676266 -0.75775021 14 2 5180 26.04800000 3183264228 3183264228 -1.66700000
6.91829872 5.72331476 -2.51352072 4 3 5180 9.32400000 3183264228 3183264228 -15.63900000
9.41712570 7.04234743 -2.35183859 1 4 5181 11.99200000 3183264230 3183264230 -11.31000000
40.22043228 33.26141357 0.00000000 35 5 5181 52.19200000 3183264230 3183264230 0.00000000
38.23048782 25.77708435 -0.53679365 12 6 5181 46.11200000 3183264232 3183264232 -0.66700000
10.60262871 8.76814079 -2.14050102 2 7 5181 13.92400000 3183264232 3183264232 -8.84300000
12.87138271 9.62201881 -2.04554534 2 8 5182 16.20000000 3183264235 3183264235 -7.25400000
40.75435257 37.18775940 0.32065490 38 9 5182 55.17200000 3183264235 3183264235 0.33300000
39.82087326 29.75731277 -0.28892186 18 10 5183 49.71200000 3183264237 3183264237 -0.33300000
13.60537148 11.24334812 -1.90118682 2 11 5183 17.75200000 3183264237 3183264237 -6.14800000
16.02124596 10.79020119 -1.80311489 2 12 5184 19.40000000 3183264239 3183264239 -5.33300000
40.26086807 33.25936890 1.21517336 22 13 5184 52.23600000 3183264239 3183264239 1.33300000
40.45486450 27.23581505 0.56775892 32 14 5185 48.77200000 3183264241 3183264241 0.66700000
17.43294334 14.39617825 -1.58096075 2 15 5185 22.66400000 3183264241 3183264241 -4.00000000
16.61298561 12.40098953 -1.69238102 2 16 5186 20.80000000 3183264244 3183264244 -4.66700000
40.23471832 36.66215515 1.58415413 36 17 5186 54.45600000 3183264244 3183264244 1.66700000
40.57780457 30.28985405 0.88385969 15 18 5186 50.64400000 3183264246 3183264246 1.00000000
17.51175690 15.95683479 -1.51835203 3 19 5186 23.74000000 3183264246 3183264246 -3.66700000
20.12809563 13.54082203 -1.41277826 3 20 5187 24.30000000 3183264248 3183264248 -3.33300000
39.98079300 32.99279785 3.01881051 21 21 5187 51.92400000 3183264248 3183264248 3.33300000
39.69913864 29.61238861 2.01777840 21 22 5188 49.56800000 3183264251 3183264251 2.33300000
20.45084763 16.87037086 -1.23493600 4 23 5188 26.54000000 3183264251 3183264251 -2.66700000
20.69320297 15.42985630 -1.35277975 9 24 5189 25.84800000 3183264253 3183264253 -3.00000000
43.96091080 36.25146866 6.99627542 47 25 5189 57.40800000 3183264253 3183264253 7.00000000
43.11077881 32.13378525 4.38945055 18 26 5190 53.94800000 3183264255 3183264255 4.66700000
20.82552719 18.94977188 -1.14713120 7 27 5190 28.18000000 3183264255 3183264255 -2.33300000
20.79651070 13.96940804 -0.87486058 9 28 5191 25.06800000 3183264258 3183264258 -2.00000000
20.91446877 17.22829819 -0.63052416 25 31 5192 27.10400000 3183264260 3183264260 -1.33300000
3.95129681 2.93663263 -2.29566240 5 0 5198 5.43200000 3183264281 3183264281 -25.00000000
20.90459061 18.96842575 -0.49271634 15 1 5198 28.23200000 3183264281 3183264281 -1.00000000
20.83604050 15.47985172 -0.75542301 18 2 5199 25.96800000 3183264283 3183264283 -1.66700000
6.93128777 5.69545031 -2.51136398 6 3 5199 9.31600000 3183264283 3183264283 -15.63900000
9.43727875 7.00874186 -2.35105419 1 4 5200 11.98800000 3183264285 3183264285 -11.31000000
40.17596436 33.00090790 0.00000000 23 5 5200 51.99200000 3183264285 3183264285 0.00000000
38.87414169 26.02396965 -0.54461646 12 6 5200 46.78400000 3183264288 3183264288 -0.66700000
10.62553787 8.72791576 -2.13927126 2 7 5200 13.91600000 3183264288 3183264288 -8.84300000
12.90640545 9.58164787 -2.04605031 2 8 5201 16.20400000 3183264290 3183264290 -7.25400000
40.74111938 36.92883682 0.31958550 38 9 5201 54.98800000 3183264290 3183264290 0.33300000
39.83903122 29.56550407 -0.28834066 18 10 5202 49.61200000 3183264292 3183264292 -0.33300000
13.65487671 11.20826244 -1.90290034 2 11 5202 17.76800000 3183264292 3183264292 -6.14800000
16.03376579 10.72151661 -1.80051243 2 12 5203 19.37200000 3183264294 3183264294 -5.33300000
40.04324722 32.85679626 1.20530987 21 13 5203 51.81200000 3183264294 3183264294 1.33300000
17.49292755 14.34841156 -1.58207679 2 15 5204 22.68000000 3183264297 3183264297 -4.00000000
16.67003059 12.35770130 -1.69400835 2 16 5205 20.82000000 3183264299 3183264299 -4.66700000
40.22564316 36.41047287 1.57903421 36 17 5205 54.28000000 3183264299 3183264299 1.66700000
40.54629898 30.05747604 0.88099748 14 18 5205 50.48000000 3183264301 3183264301 1.00000000
17.54089928 15.87724590 -1.51630533 3 19 5205 23.70800000 3183264301 3183264301 -3.66700000
20.16956711 13.47178173 -1.41254568 3 20 5206 24.29600000 3183264304 3183264304 -3.33300000
40.08380508 32.85497284 3.01834536 21 21 5206 51.91600000 3183264304 3183264304 3.33300000
39.67508316 29.39017677 2.01159096 21 22 5207 49.41600000 3183264306 3183264306 2.33300000
20.49122429 16.78979874 -1.23400545 4 23 5207 26.52000000 3183264306 3183264306 -2.66700000
20.75067520 15.36590481 -1.35319853 13 24 5208 25.85600000 3183264308 3183264308 -3.00000000
44.01024246 36.04762650 6.98506308 46 25 5208 57.31600000 3183264308 3183264308 7.00000000
43.16262817 31.95032501 4.38391781 36 26 5209 53.88000000 3183264311 3183264311 4.66700000
20.82302284 18.82164764 -1.14354897 11 27 5209 28.09200000 3183264311 3183264311 -2.33300000
20.79283524 13.86709690 -0.87276661 13 28 5210 25.00800000 3183264313 3183264313 -2.00000000
20.89731407 17.10425377 -0.62838393 28 31 5210 27.01200000 3183264315 3183264315 -1.33300000
3.94985485 2.91421294 -2.28890061 5 0 5218 5.41600000 3183264336 3183264336 -25.00000000
20.90530777 18.83644295 -0.49118054 15 1 5218 28.14400000 3183264336 3183264336 -1.00000000
20.83846283 15.36905479 -0.75356120 14 2 5219 25.90400000 3183264338 3183264338 -1.66700000
6.94515753 5.66635084 -2.50920749 6 3 5219 9.30800000 3183264338 3183264338 -15.63900000
9.45221519 6.96877384 -2.34870076 3 4 5220 11.97600000 3183264341 3183264341 -11.31000000
40.24131775 32.82001877 0.00000000 34 5 5220 51.92800000 3183264341 3183264341 0.00000000
38.84598541 25.79944038 -0.54289353 12 6 5221 46.63600000 3183264343 3183264343 -0.66700000
10.65745640 8.68891239 -2.13927126 2 7 5221 13.91600000 3183264343 3183264343 -8.84300000
12.93657875 9.53418446 -2.04554534 1 8 5221 16.20000000 3183264345 3183264345 -7.25400000
40.55166626 36.50007248 0.31709802 36 9 5221 54.56000000 3183264345 3183264345 0.33300000
39.90978622 29.40253448 -0.28810820 18 10 5222 49.57200000 3183264347 3183264347 -0.33300000
13.68158627 11.15047932 -1.90118682 2 11 5222 17.75200000 3183264347 3183264347 -6.14800000
16.07109261 10.66548347 -1.80051243 2 12 5223 19.37200000 3183264350 3183264350 -5.33300000
40.07088470 32.64609528 1.20270431 21 13 5223 51.70000000 3183264350 3183264350 1.33300000
40.38600540 26.79177666 0.56422001 31 14 5224 48.46800000 3183264352 3183264352 0.66700000
17.52434158 14.27214432 -1.58040261 2 15 5224 22.65600000 3183264352 3183264352 -4.00000000
16.68737793 12.28053284 -1.69140470 2 16 5225 20.78800000 3183264354 3183264354 -4.66700000
40.07891846 36.02394104 1.56832886 52 17 5225 53.91200000 3183264354 3183264354 1.66700000
40.51122284 29.80201721 0.87785602 14 18 5226 50.30000000 3183264357 3183264357 1.00000000
17.59600449 15.81018066 -1.51604950 3 19 5226 23.70400000 3183264357 3183264357 -3.66700000
20.20315552 13.39246941 -1.41161537 3 20 5226 24.28000000 3183264359 3183264359 -3.33300000
