# .PCD v0.7 - Point Cloud Data file format
VERSION 0.7
FIELDS x y z intensity laser_id azimuth distance_m adjustedtime timestamp vertical_angle
SIZE 4 4 4 1 1 2 8 8 4 8
TYPE F F F U U U F U U F
COUNT 1 1 1 1 1 1 1 1 1 1
WIDTH 525
HEIGHT 1
VIEWPOINT 0 0 0 1 0 0 0
POINTS 525
DATA ascii
39.92664337 7.73926020 0.70989406 26 18 7763 40.67600000 3186771340 3186771340 1.00000000
20.56878471 6.12009573 -1.37534297 28 19 7763 21.50400000 3186771340 3186771340 -3.66700000
20.59016037 2.95241570 -1.21138465 16 20 7764 20.83600000 3186771342 3186771342 -3.33300000
40.05849457 9.80966187 2.40183926 24 21 7764 41.31200000 3186771342 3186771342 3.33300000
39.80814743 7.70187473 1.65190148 25 22 7765 40.58000000 3186771344 3186771344 2.33300000
20.63224602 5.04867840 -0.98943782 22 23 7765 21.26400000 3186771344 3186771344 -2.66700000
20.60578728 3.98297000 -1.09989250 31 24 7766 21.01600000 3186771347 3186771347 -3.00000000
42.24103165 10.32850170 5.33933973 17 25 7766 43.81200000 3186771347 3186771347 7.00000000
40.72950363 7.86538506 3.38638926 27 26 7767 41.62000000 3186771349 3186771349 4.66700000
20.66330719 6.13252068 -0.87813747 25 27 7767 21.57200000 3186771349 3186771349 -2.33300000
20.65411568 2.94687200 -0.72856188 9 28 7768 20.87600000 3186771351 3186771351 -2.00000000
95.96637726 18.49758148 17.81921959 28 30 7769 99.34400000 3186771354 3186771354 10.33300000
38.70605087 9.44267559 -0.92708266 15 31 7769 39.85200000 3186771354 3186771354 -1.33300000
5.76076651 1.10413599 -2.73518538 7 0 7775 6.47200000 3186771374 3186771374 -25.00000000
31.96275902 9.43746853 -0.58172363 5 1 7775 33.33200000 3186771374 3186771374 -1.00000000
38.47244644 7.36685181 -1.13999987 16 2 7776 39.18800000 3186771377 3186771377 -1.66700000
8.62451744 2.09286475 -2.48440647 2 3 7776 9.21600000 3186771377 3186771377 -15.63900000
11.38787556 2.17853379 -2.31889081 2 4 7777 11.82400000 3186771379 3186771379 -11.31000000
40.45954895 9.81062222 0.00000000 20 5 7777 41.63200000 3186771379 3186771379 0.00000000
39.89423752 5.62807178 -0.46904251 19 6 7777 40.29200000 3186771381 3186771381 -0.66700000
13.36333752 3.24033904 -2.13927126 2 7 7777 13.91600000 3186771381 3186771381 -8.84300000
15.69499397 2.99965858 -2.03392863 2 8 7778 16.10800000 3186771384 3186771384 -7.25400000
32.33268356 9.52829170 0.19590798 5 9 7778 33.70800000 3186771384 3186771384 0.33300000
39.94565201 7.62726641 -0.23635891 22 10 7779 40.66800000 3186771386 3186771386 -0.33300000
16.84893036 4.07929802 -1.86734414 2 11 7779 17.43600000 3186771386 3186771386 -6.14800000
19.30551910 2.71321368 -1.81984484 6 12 7780 19.58000000 3186771388 3186771388 -5.33300000
40.13890076 9.71062183 0.96095377 13 13 7780 41.30800000 3186771388 3186771388 1.33300000
39.49018097 5.54295492 0.46424639 25 14 7781 39.88000000 3186771390 3186771390 0.66700000
20.57951736 4.97490740 -1.48051143 11 15 7781 21.22400000 3186771390 3186771390 -4.00000000
20.23203087 3.85214734 -1.68131542 5 16 7782 20.66400000 3186771393 3186771393 -4.66700000
40.41253281 11.87872791 1.22587514 24 17 7782 42.14000000 3186771393 3186771393 1.66700000
39.97959137 7.61205244 0.71038276 17 18 7782 40.70400000 3186771395 3186771395 1.00000000
20.56981659 6.04622507 -1.37406373 30 19 7782 21.48400000 3186771395 3186771395 -3.66700000
20.58797264 2.88245893 -1.21068692 22 20 7783 20.82400000 3186771397 3186771397 -3.33300000
40.07139587 9.67208481 2.40067649 18 21 7783 41.29200000 3186771397 3186771397 3.33300000
39.76279449 7.55639267 1.64897048 25 22 7784 40.50800000 3186771400 3186771400 2.33300000
20.64110565 4.97835779 -0.98906559 20 23 7784 21.25600000 3186771400 3186771400 -2.66700000
20.60318375 3.91163659 -1.09905505 35 24 7785 21.00000000 3186771402 3186771402 -3.00000000
42.28662872 10.19115925 5.34080219 17 25 7785 43.82400000 3186771402 3186771402 7.00000000
40.71227646 7.72210550 3.38280940 27 26 7786 41.57600000 3186771404 3186771404 4.66700000
20.66051865 6.05721855 -0.87716049 27 27 7786 21.54800000 3186771404 3186771404 -2.33300000
20.66377449 2.87836432 -0.72856188 6 28 7787 20.87600000 3186771407 3186771407 -2.00000000
96.42543030 18.25463676 17.89311981 28 30 7788 99.75600000 3186771409 3186771409 10.33300000
38.75270081 9.31800842 -0.92745489 20 31 7788 39.86800000 3186771409 3186771409 -1.33300000
5.75745964 1.08268046 -2.73180437 6 0 7795 6.46400000 3186771430 3186771430 -25.00000000
32.00318527 9.32807827 -0.58186322 5 1 7795 33.34000000 3186771430 3186771430 -1.00000000
38.46649170 7.22660732 -1.13906896 16 2 7796 39.15600000 3186771432 3186771432 -1.66700000
8.62427711 2.06095624 -2.48224998 2 3 7796 9.20800000 3186771432 3186771432 -15.63900000
11.40312099 2.14021635 -2.32045984 2 4 7797 11.83200000 3186771434 3186771434 -11.31000000
40.45464325 9.66004181 0.00000000 20 5 7797 41.59200000 3186771434 3186771434 0.00000000
39.88986588 5.48551130 -0.46876314 19 6 7797 40.26800000 3186771437 3186771437 -0.66700000
13.37841129 3.19459057 -2.13988614 2 7 7797 13.92000000 3186771437 3186771437 -8.84300000
15.70926952 2.94558597 -2.03443360 2 8 7798 16.11200000 3186771439 3186771439 -7.25400000
40.71547318 11.84435177 0.24644838 17 9 7798 42.40400000 3186771439 3186771439 0.33300000
39.95237732 7.48410130 -0.23624267 22 10 7799 40.64800000 3186771441 3186771441 -0.33300000
16.86693573 4.02138186 -1.86777258 4 11 7799 17.44000000 3186771441 3186771441 -6.14800000
19.29119682 2.64256525 -1.81761420 6 12 7800 19.55600000 3186771443 3186771443 -5.33300000
40.09864044 9.55284405 0.95918578 13 13 7800 41.23200000 3186771443 3186771443 1.33300000
39.90557098 5.45928812 0.46890283 17 14 7801 40.28000000 3186771446 3186771446 0.66700000
20.58899498 4.90119314 -1.47995329 13 15 7801 21.21600000 3186771446 3186771446 -4.00000000
20.24927139 3.78223276 -1.68164098 5 16 7802 20.66800000 3186771448 3186771448 -4.66700000
40.41151047 11.72533321 1.22459507 24 17 7802 42.09600000 3186771448 3186771448 1.66700000
39.95481110 7.46290493 0.70947522 26 18 7802 40.65200000 3186771450 3186771450 1.00000000
20.57162857 5.96882439 -1.37278461 28 19 7802 21.46400000 3186771450 3186771450 -3.66700000
20.58208275 2.80841660 -1.20975673 22 20 7803 20.80800000 3186771453 3186771453 -3.33300000
40.06217957 9.52199268 2.39811826 18 21 7803 41.24800000 3186771453 3186771453 3.33300000
39.75357056 7.41095686 1.64750504 17 22 7804 40.47200000 3186771455 3186771455 2.33300000
20.63891983 4.90166044 -0.98813492 22 23 7804 21.23600000 3186771455 3186771455 -2.66700000
20.61671257 3.83969426 -1.09905505 31 24 7805 21.00000000 3186771457 3186771457 -3.00000000
42.48032379 10.08107376 5.36078882 61 25 7805 43.98800000 3186771457 3186771457 7.00000000
40.75857925 7.58359241 3.38443661 27 26 7806 41.59600000 3186771460 3186771460 4.66700000
20.66617966 5.98061895 -0.87650919 25 27 7806 21.53200000 3186771460 3186771460 -2.33300000
20.67765808 2.80675459 -0.72870147 6 28 7807 20.88000000 3186771462 3186771462 -2.00000000
97.47973633 18.11959839 18.07751083 28 30 7807 100.78400000 3186771464 3186771464 10.33300000
38.76782608 9.18576145 -0.92708266 35 31 7807 39.85200000 3186771464 3186771464 -1.33300000
5.76851988 1.06288493 -2.73518538 6 0 7816 6.47200000 3186771485 3186771485 -25.00000000
39.88213348 11.46615601 -0.72434467 8 1 7816 41.50400000 3186771485 3186771485 -1.00000000
38.72472382 7.12827778 -1.14593434 24 2 7817 39.39200000 3186771487 3186771487 -1.66700000
8.63927269 2.03109598 -2.48440647 2 3 7817 9.21600000 3186771487 3186771487 -15.63900000
11.41474628 2.09911704 -2.32124424 2 4 7818 11.83600000 3186771490 3186771490 -11.31000000
40.46251678 9.50530052 0.00000000 20 5 7818 41.56400000 3186771490 3186771490 0.00000000
40.10092926 5.35772991 -0.47099823 19 6 7819 40.46000000 3186771492 3186771492 -0.66700000
13.39442635 3.14410090 -2.14050102 2 7 7819 13.92400000 3186771492 3186771492 -8.84300000
15.72776508 2.88942266 -2.03544378 2 8 7819 16.12000000 3186771494 3186771494 -7.25400000
39.89298630 7.32173300 -0.23573121 15 10 7820 40.56000000 3186771496 3186771496 -0.33300000
16.89317703 3.96225882 -1.86905766 2 11 7820 17.45200000 3186771496 3186771496 -6.14800000
19.31259537 2.57341981 -1.81872952 6 12 7821 19.56800000 3186771499 3186771499 -5.33300000
39.94260788 9.36109924 0.95462620 19 13 7821 41.03600000 3186771499 3186771499 1.33300000
40.10372925 5.33673239 0.47099823 17 14 7822 40.46000000 3186771501 3186771501 0.66700000
20.58739471 4.82114887 -1.47855818 13 15 7822 21.19600000 3186771501 3186771501 -4.00000000
20.27476311 3.71014309 -1.68261731 5 16 7823 20.68000000 3186771503 3186771503 -4.66700000
40.40424347 11.56283855 1.22308242 24 17 7823 42.04400000 3186771503 3186771503 1.66700000
39.94776154 7.30296183 0.70884693 26 18 7824 40.61600000 3186771506 3186771506 1.00000000
20.57520485 5.88430309 -1.37150550 28 19 7824 21.44400000 3186771506 3186771506 -3.66700000
20.58827972 2.73243523 -1.20952415 22 20 7824 20.80400000 3186771508 3186771508 -3.33300000
40.13180542 9.38327599 2.40021133 18 21 7824 41.28400000 3186771508 3186771508 3.33300000
39.72148895 7.25443220 1.64506257 25 22 7825 40.41200000 3186771510 3186771510 2.33300000
20.64118385 4.82234573 -0.98739046 23 23 7825 21.22000000 3186771510 3186771510 -2.66700000
20.60706902 3.75980258 -1.09779906 38 24 7826 20.97600000 3186771513 3186771513 -3.00000000
41.07101822 9.58775520 5.17847204 16 25 7826 42.49200000 3186771513 3186771513 7.00000000
40.75080490 7.42772007 3.38150740 18 26 7827 41.56000000 3186771515 3186771515 4.66700000
20.66490173 5.89825153 -0.87553221 27 27 7827 21.50800000 3186771515 3186771515 -2.33300000
20.68780518 2.73094821 -0.72870147 6 28 7828 20.88000000 3186771517 3186771517 -2.00000000
101.69570160 18.51791382 18.84664536 28 30 7828 105.07200000 3186771520 3186771520 10.33300000
38.78565216 9.03997707 -0.92671043 25 31 7828 39.83600000 3186771520 3186771520 -1.33300000
5.77201271 1.04374993 -2.73518538 7 0 7835 6.47200000 3186771540 3186771540 -25.00000000
38.81896973 7.01261711 -1.14802885 16 2 7836 39.46400000 3186771543 3186771543 -1.66700000
8.65346527 2.00417423 -2.48656321 2 3 7836 9.22400000 3186771543 3186771543 -15.63900000
11.41392422 2.05985951 -2.31967521 2 4 7837 11.82800000 3186771545 3186771545 -11.31000000
40.45095062 9.36114883 0.00000000 20 5 7837 41.52000000 3186771545 3186771545 0.00000000
40.11054230 5.22368813 -0.47090510 19 6 7838 40.45200000 3186771547 3186771547 -0.66700000
13.41248035 3.10144687 -2.14173079 2 7 7838 13.93200000 3186771547 3186771547 -8.84300000
15.74897575 2.83936381 -2.03695893 2 8 7838 16.13200000 3186771549 3186771549 -7.25400000
40.42387390 11.45404530 0.24419336 17 9 7838 42.01600000 3186771549 3186771549 0.33300000
39.82256699 7.17238617 -0.23517327 22 10 7839 40.46400000 3186771552 3186771552 -0.33300000
16.90622330 3.90621734 -1.86905766 2 11 7839 17.45200000 3186771552 3186771552 -6.14800000
19.31312370 2.50833702 -1.81798601 6 12 7840 19.56000000 3186771554 3186771554 -5.33300000
40.12149429 9.26277637 0.95816219 13 13 7840 41.18800000 3186771554 3186771554 1.33300000
40.07757187 5.19805527 0.47048602 17 14 7841 40.41600000 3186771556 3186771556 0.66700000
20.57216263 4.74567652 -1.47632599 33 15 7841 21.16400000 3186771556 3186771556 -4.00000000
20.28695488 3.64288902 -1.68261731 5 16 7842 20.68000000 3186771559 3186771559 -4.66700000
40.41158295 11.42009068 1.22215152 24 17 7842 42.01200000 3186771559 3186771559 1.66700000
39.84060669 7.15410042 0.70654321 17 18 7842 40.48400000 3186771561 3186771561 1.00000000
20.56285858 5.81095076 -1.36945879 28 19 7842 21.41200000 3186771561 3186771561 -3.66700000
20.57742691 2.66158581 -1.20836139 22 20 7843 20.78400000 3186771563 3186771563 -3.33300000
40.04595947 9.22325516 2.39323473 18 21 7843 41.16400000 3186771563 3186771563 3.33300000
39.75712967 7.12478590 1.64555109 25 22 7844 40.42400000 3186771566 3186771566 2.33300000
20.64148521 4.75028610 -0.98664594 24 23 7844 21.20400000 3186771566 3186771566 -2.66700000
20.61155891 3.69003868 -1.09738028 38 24 7845 20.96800000 3186771568 3186771568 -3.00000000
41.82999802 9.61877441 5.27011776 25 25 7845 43.24400000 3186771568 3186771568 7.00000000
41.06169510 7.34378195 3.40526605 18 26 7846 41.85200000 3186771570 3186771570 4.66700000
20.66126633 5.82318687 -0.87455523 27 27 7846 21.48400000 3186771570 3186771570 -2.33300000
20.71657372 2.66488004 -0.72939950 6 28 7847 20.90000000 3186771573 3186771573 -2.00000000
101.69457245 18.16950417 18.83516502 28 30 7847 105.00800000 3186771575 3186771575 10.33300000
38.81541824 8.91131020 -0.92671043 20 31 7847 39.83600000 3186771575 3186771575 -1.33300000
5.77579927 1.02258742 -2.73518538 6 0 7856 6.47200000 3186771595 3186771595 -25.00000000
39.93040085 11.17882347 -0.72378618 17 1 7856 41.47200000 3186771595 3186771595 -1.00000000
38.89165878 6.87864780 -1.14942515 16 2 7857 39.51200000 3186771597 3186771597 -1.66700000
8.66075325 1.97244418 -2.48656321 2 3 7857 9.22400000 3186771597 3186771597 -15.63900000
11.42912197 2.01937652 -2.32124424 2 4 7858 11.83600000 3186771600 3186771600 -11.31000000
40.43038559 9.20040035 0.00000000 20 5 7858 41.46400000 3186771600 3186771600 0.00000000
40.16027832 5.08766556 -0.47127762 29 6 7858 40.48400000 3186771602 3186771602 -0.66700000
13.42707920 3.05548668 -2.14234567 2 7 7858 13.93600000 3186771602 3186771602 -8.84300000
15.75536919 2.78093219 -2.03645396 2 8 7859 16.12800000 3186771604 3186771604 -7.25400000
40.45787811 11.30365467 0.24414687 17 9 7859 42.00800000 3186771604 3186771604 0.33300000
39.81707382 7.02082443 -0.23498729 15 10 7860 40.43200000 3186771607 3186771607 -0.33300000
16.93206215 3.84686995 -1.87034285 2 11 7860 17.46400000 3186771607 3186771607 -6.14800000
19.34194565 2.44002628 -1.81984484 6 12 7861 19.58000000 3186771609 3186771609 -5.33300000
39.73400497 9.02005196 0.94811255 44 13 7861 40.75600000 3186771609 3186771609 1.33300000
39.95746231 5.03363180 0.46885628 17 14 7862 40.27600000 3186771611 3186771611 0.66700000
20.57774544 4.66759586 -1.47548890 24 15 7862 21.15200000 3186771611 3186771611 -4.00000000
20.31587791 3.57127023 -1.68391919 5 16 7863 20.69600000 3186771613 3186771613 -4.66700000
40.39154434 11.25472736 1.22028971 24 17 7863 41.94800000 3186771613 3186771613 1.66700000
39.62628174 6.96579123 0.70228481 25 18 7863 40.24000000 3186771616 3186771616 1.00000000
20.56479263 5.73018789 -1.36817968 26 19 7863 21.39200000 3186771616 3186771616 -3.66700000
20.57911873 2.58515239 -1.20789635 22 20 7864 20.77600000 3186771618 3186771618 -3.33300000
40.23138428 9.11081505 2.40230441 18 21 7864 41.32000000 3186771618 3186771618 3.33300000
39.80265808 6.98247385 1.64636528 25 22 7865 40.44400000 3186771620 3186771620 2.33300000
20.64316940 4.67107248 -0.98590147 24 23 7865 21.18800000 3186771620 3186771620 -2.66700000
20.61314201 3.61240005 -1.09675229 35 24 7866 20.95600000 3186771623 3186771623 -3.00000000
41.39253235 9.35857964 5.21064568 25 25 7866 42.75600000 3186771623 3186771623 7.00000000
41.14331436 7.20285892 3.40982223 27 26 7867 41.90800000 3186771625 3186771625 4.66700000
20.65551376 5.73992968 -0.87341541 27 27 7867 21.45600000 3186771625 3186771625 -2.33300000
20.73413467 2.58992314 -0.72967869 6 28 7868 20.90800000 3186771627 3186771627 -2.00000000
102.08996582 17.85427475 18.89615059 28 30 7868 105.34800000 3186771630 3186771630 10.33300000
38.87902451 8.77602863 -0.92745489 30 31 7868 39.86800000 3186771630 3186771630 -1.33300000
5.77933359 1.00241995 -2.73518538 7 0 7876 6.47200000 3186771650 3186771650 -25.00000000
40.01929474 11.05321407 -0.72469372 26 1 7876 41.52400000 3186771650 3186771650 -1.00000000
38.92331314 6.74421358 -1.14965796 16 2 7877 39.52000000 3186771653 3186771653 -1.66700000
8.67510319 1.94388497 -2.48871970 2 3 7877 9.23200000 3186771653 3186771653 -15.63900000
11.43610191 1.97946906 -2.32124424 2 4 7878 11.83600000 3186771655 3186771655 -11.31000000
40.41931534 9.04960251 0.00000000 20 5 7878 41.42000000 3186771655 3186771655 0.00000000
40.10236740 4.93816137 -0.47039288 29 6 7878 40.40800000 3186771657 3186771657 -0.66700000
13.43380547 3.00773525 -2.14173079 2 7 7878 13.93200000 3186771657 3186771657 -8.84300000
15.76889038 2.72659469 -2.03695893 2 8 7879 16.13200000 3186771660 3186771660 -7.25400000
40.40839767 11.13791466 0.24361217 26 9 7879 41.91600000 3186771660 3186771660 0.33300000
39.77433395 6.87022018 -0.23459208 15 10 7880 40.36400000 3186771662 3186771662 -0.33300000
16.94926834 3.78861022 -1.87077129 2 11 7880 17.46800000 3186771662 3186771662 -6.14800000
19.35034370 2.37249541 -1.81984484 6 12 7881 19.58000000 3186771664 3186771664 -5.33300000
39.95648575 8.92401123 0.95267212 19 13 7881 40.95200000 3186771664 3186771664 1.33300000
39.98273087 4.89509583 0.46894941 17 14 7882 40.28400000 3186771666 3186771666 0.66700000
20.57833481 4.59226131 -1.47437286 26 15 7882 21.13600000 3186771666 3186771666 -4.00000000
20.34000587 3.50236225 -1.68489552 5 16 7883 20.70800000 3186771669 3186771669 -4.66700000
40.32648849 11.08505249 1.21714795 16 17 7883 41.84000000 3186771669 3186771669 1.66700000
39.71735764 6.83896446 0.70347160 25 18 7883 40.30800000 3186771671 3186771671 1.00000000
20.56157494 5.65202045 -1.36664474 26 19 7883 21.36800000 3186771671 3186771671 -3.66700000
20.56819916 2.51088262 -1.20673347 18 20 7884 20.75600000 3186771673 3186771673 -3.33300000
40.01739120 8.91561794 2.38765335 18 21 7884 41.06800000 3186771673 3186771673 3.33300000
39.74801254 6.82995749 1.64310873 25 22 7885 40.36400000 3186771676 3186771676 2.33300000
20.63984680 4.59464455 -0.98497081 20 23 7885 21.16800000 3186771676 3186771676 -2.66700000
20.60594177 3.53704596 -1.09570563 38 24 7886 20.93600000 3186771678 3186771678 -3.00000000
42.32793427 9.41488457 5.32422781 25 25 7886 43.68800000 3186771678 3186771678 7.00000000
41.21535873 7.06728315 3.41372776 27 26 7887 41.95600000 3186771680 3186771680 4.66700000
20.66386223 5.66462374 -0.87292695 23 27 7887 21.44400000 3186771680 3186771680 -2.33300000
20.76685905 2.52042150 -0.73051625 6 28 7888 20.93200000 3186771683 3186771683 -2.00000000
105.66183472 18.09907150 19.54546547 28 30 7888 108.96800000 3186771685 3186771685 10.33300000
38.97578812 8.65499878 -0.92903680 20 31 7888 39.93600000 3186771685 3186771685 -1.33300000
5.77905226 0.98264176 -2.73349500 7 0 7895 6.46800000 3186771706 3186771706 -25.00000000
40.07888031 10.92675686 -0.72511256 26 1 7895 41.54800000 3186771706 3186771706 -1.00000000
38.94152069 6.61443281 -1.14954150 16 2 7896 39.51600000 3186771708 3186771708 -1.66700000
8.67774010 1.91427684 -2.48764133 2 3 7896 9.22800000 3186771708 3186771708 -15.63900000
11.44647026 1.94219089 -2.32202864 2 4 7897 11.84000000 3186771710 3186771710 -11.31000000
40.40222931 8.90518570 0.00000000 20 5 7897 41.37200000 3186771710 3186771710 0.00000000
40.12646484 4.80610132 -0.47048602 29 6 7897 40.41600000 3186771713 3186771713 -0.66700000
13.44756603 2.96402144 -2.14234567 2 7 7897 13.93600000 3186771713 3186771713 -8.84300000
15.78175735 2.67495131 -2.03746414 2 8 7898 16.13600000 3186771715 3186771715 -7.25400000
40.39493561 10.99020386 0.24330996 26 9 7898 41.86400000 3186771715 3186771715 0.33300000
39.72196579 6.72559881 -0.23415038 15 10 7899 40.28800000 3186771717 3186771717 -0.33300000
16.96950531 3.73409295 -1.87162805 2 11 7899 17.47600000 3186771717 3186771717 -6.14800000
19.36206055 2.30878592 -1.82021666 6 12 7900 19.58400000 3186771719 3186771719 -5.33300000
40.00929260 8.79661369 0.95323044 25 13 7900 40.97600000 3186771719 3186771719 1.33300000
39.90739441 4.75160456 0.46787840 17 14 7901 40.19200000 3186771722 3186771722 0.66700000
20.57785988 4.52057123 -1.47325671 26 15 7901 21.12000000 3186771722 3186771722 -4.00000000
20.35150909 3.43489313 -1.68489552 5 16 7902 20.70800000 3186771724 3186771724 -4.66700000
40.21253586 10.91043186 1.21260977 16 17 7902 41.68400000 3186771724 3186771724 1.66700000
39.87902069 6.72355509 0.70591491 17 18 7903 40.44800000 3186771726 3186771726 1.00000000
20.56191635 5.57498932 -1.36536551 26 19 7903 21.34800000 3186771726 3186771726 -3.66700000
20.56848145 2.44172072 -1.20626843 21 20 7903 20.74800000 3186771729 3186771729 -3.33300000
40.12864685 8.80083084 2.39253688 24 21 7903 41.15200000 3186771729 3186771729 3.33300000
39.83744049 6.70939493 1.64587677 25 22 7904 40.43200000 3186771731 3186771731 2.33300000
20.63155174 4.52104330 -0.98385406 22 23 7904 21.14400000 3186771731 3186771731 -2.66700000
20.61755753 3.46869469 -1.09570563 35 24 7905 20.93600000 3186771733 3186771733 -3.00000000
40.67573547 8.90593529 5.11266279 16 25 7905 41.95200000 3186771733 3186771733 7.00000000
41.41156006 6.95964241 3.42804790 27 26 7906 42.13200000 3186771736 3186771736 4.66700000
20.64780998 5.58667421 -0.87146145 25 27 7906 21.40800000 3186771736 3186771736 -2.33300000
20.79892349 2.45435309 -0.73135388 6 28 7907 20.95600000 3186771738 3186771738 -2.00000000
104.32029724 17.51338768 19.28645706 28 30 7907 107.52400000 3186771740 3186771740 10.33300000
39.03552628 8.53253460 -0.92978120 25 31 7907 39.96800000 3186771740 3186771740 -1.33300000
5.78619099 0.96204841 -2.73518538 6 0 7916 6.47200000 3186771761 3186771761 -25.00000000
39.36935425 10.57845020 -0.71156949 25 1 7916 40.77200000 3186771761 3186771761 -1.00000000
38.94972610 6.46903992 -1.14907610 16 2 7917 39.50000000 3186771763 3186771763 -1.66700000
8.67716885 1.88082659 -2.48548484 2 3 7917 9.22000000 3186771763 3186771763 -15.63900000
11.45351124 1.90022445 -2.32202864 4 4 7918 11.84000000 3186771765 3186771765 -11.31000000
40.27431107 8.72233105 0.00000000 20 5 7918 41.20800000 3186771765 3186771765 0.00000000
40.12078476 4.64922905 -0.47020662 29 6 7919 40.39200000 3186771768 3186771768 -0.66700000
13.46271038 2.91320062 -2.14296055 2 7 7919 13.94000000 3186771768 3186771768 -8.84300000
15.78362656 2.61579275 -2.03645396 2 8 7919 16.12800000 3186771770 3186771770 -7.25400000
40.31131363 10.80892467 0.24256603 25 9 7919 41.73600000 3186771770 3186771770 0.33300000
39.71872330 6.57539225 -0.23398764 15 10 7920 40.26000000 3186771772 3186771772 -0.33300000
16.98307800 3.67187142 -1.87162805 2 11 7920 17.47600000 3186771772 3186771772 -6.14800000
19.37039185 2.23780489 -1.82021666 6 12 7921 19.58400000 3186771775 3186771775 -5.33300000
39.92009354 8.62373734 0.95034581 25 13 7921 40.85200000 3186771775 3186771775 1.33300000
39.85699463 4.59751320 0.46708682 17 14 7922 40.12400000 3186771777 3186771777 0.66700000
20.57868958 4.44175148 -1.47214067 28 15 7922 21.10400000 3186771777 3186771777 -4.00000000
20.31675911 3.35248923 -1.68098998 7 16 7923 20.66000000 3186771779 3186771779 -4.66700000
40.09388733 10.72062683 1.20783901 16 17 7923 41.52000000 3186771779 3186771779 1.66700000
39.89435577 6.58300829 0.70577532 17 18 7923 40.44000000 3186771782 3186771782 1.00000000
20.55811310 5.49699450 -1.36383057 28 19 7923 21.32400000 3186771782 3186771782 -3.66700000
20.56539154 2.36494851 -1.20557070 21 20 7924 20.73600000 3186771784 3186771784 -3.33300000
40.10598373 8.64191628 2.38928127 30 21 7924 41.09600000 3186771784 3186771784 3.33300000
39.68035889 6.53346968 1.63838661 25 22 7925 40.24800000 3186771786 3186771786 2.33300000
20.62845230 4.44118977 -0.98292345 23 23 7925 21.12400000 3186771786 3186771786 -2.66700000
20.61436653 3.39051104 -1.09486818 38 24 7926 20.92000000 3186771789 3186771789 -3.00000000
40.80901718 8.77849960 5.12533712 24 25 7926 42.05600000 3186771789 3186771789 7.00000000
41.55087662 6.82655811 3.43748617 27 26 7927 42.24800000 3186771791 3186771791 4.66700000
20.65270042 5.50683975 -0.87081015 25 27 7927 21.39200000 3186771791 3186771791 -2.33300000
20.83558083 2.38128233 -0.73233104 6 28 7928 20.98400000 3186771793 3186771793 -2.00000000
104.39065552 17.11333466 19.28717422 28 30 7929 107.52800000 3186771795 3186771795 10.33300000
39.07973099 8.38510323 -0.93006033 20 31 7929 39.98000000 3186771795 3186771795 -1.33300000
5.79309225 0.94242710 -2.73687577 7 0 7936 6.47600000 3186771816 3186771816 -25.00000000
39.32872009 10.42047501 -0.71017331 25 1 7936 40.69200000 3186771816 3186771816 -1.00000000
38.96023178 6.33111668 -1.14872706 16 2 7937 39.48800000 3186771818 3186771818 -1.66700000
8.69121552 1.85213184 -2.48764133 2 3 7937 9.22800000 3186771818 3186771818 -15.63900000
11.47169018 1.86211801 -2.32438207 4 4 7938 11.85200000 3186771821 3186771821 -11.31000000
40.12063599 8.54254246 0.00000000 20 5 7938 41.02000000 3186771821 3186771821 0.00000000
40.12881851 4.50826025 -0.47011352 19 6 7939 40.38400000 3186771823 3186771823 -0.66700000
13.47666359 2.86701179 -2.14357567 2 7 7939 13.94400000 3186771823 3186771823 -8.84300000
15.80441189 2.56258702 -2.03796911 2 8 7939 16.14000000 3186771825 3186771825 -7.25400000
40.34106445 10.66610146 0.24251953 25 9 7939 41.72800000 3186771825 3186771825 0.33300000
39.85594177 6.45525360 -0.23466183 22 10 7940 40.37600000 3186771828 3186771828 -0.33300000
17.00746155 3.61504769 -1.87291324 2 11 7940 17.48800000 3186771828 3186771828 -6.14800000
19.37808609 2.17017603 -1.82021666 6 12 7941 19.58400000 3186771830 3186771830 -5.33300000
40.04383469 8.50427532 0.95257908 19 13 7941 40.94800000 3186771830 3186771830 1.33300000
39.78535080 4.44858027 0.46606240 25 14 7942 40.03600000 3186771832 3186771832 0.66700000
20.58235931 4.36740685 -1.47130358 26 15 7942 21.09200000 3186771832 3186771832 -4.00000000
20.32440186 3.28091478 -1.68066454 10 16 7943 20.65600000 3186771835 3186771835 -4.66700000
40.12333298 10.57856941 1.20760620 16 17 7943 41.51200000 3186771835 3186771835 1.66700000
39.84996796 6.43287563 0.70458853 17 18 7943 40.37200000 3186771837 3186771837 1.00000000
20.56173515 5.42112875 -1.36280727 28 19 7943 21.30800000 3186771837 3186771837 -3.66700000
20.56955147 2.29270530 -1.20533824 21 20 7944 20.73200000 3186771839 3186771839 -3.33300000
39.98745346 8.47042274 2.38044405 17 21 7944 40.94400000 3186771839 3186771839 3.33300000
39.61611557 6.38093710 1.63480437 25 22 7945 40.16000000 3186771842 3186771842 2.33300000
20.62428474 4.36501932 -0.98199284 23 23 7945 21.10400000 3186771842 3186771842 -2.66700000
20.59846878 3.31409121 -1.09340274 38 24 7946 20.89200000 3186771844 3186771844 -3.00000000
40.67238998 8.60067654 5.10437536 16 25 7946 41.88400000 3186771844 3186771844 7.00000000
41.23199844 6.62644100 3.40917134 27 26 7947 41.90000000 3186771846 3186771846 4.66700000
20.65247154 5.42963362 -0.86999601 24 27 7947 21.37200000 3186771846 3186771846 -2.33300000
20.87555313 2.31205845 -0.73344785 6 28 7948 21.01600000 3186771848 3186771848 -2.00000000
52.29723740 8.39538479 9.65721989 18 30 7948 53.84000000 3186771851 3186771851 10.33300000
39.07210922 8.24803066 -0.92922288 20 31 7948 39.94400000 3186771851 3186771851 -1.33300000
5.79976559 0.92378157 -2.73856640 6 0 7955 6.48000000 3186771871 3186771871 -25.00000000
39.34371185 10.28494167 -0.70982426 25 1 7955 40.67200000 3186771871 3186771871 -1.00000000
38.94547272 6.19623137 -1.14767981 16 2 7956 39.45200000 3186771874 3186771874 -1.66700000
8.69730949 1.82330048 -2.48764133 2 3 7956 9.22800000 3186771874 3186771874 -15.63900000
11.47780132 1.82406628 -2.32438207 2 4 7957 11.85200000 3186771876 3186771876 -11.31000000
39.78464508 8.33318806 0.00000000 19 5 7957 40.64800000 3186771876 3186771876 0.00000000
40.05928421 4.37305450 -0.46913564 19 6 7957 40.30000000 3186771878 3186771878 -0.66700000
13.48947239 2.82546973 -2.14419055 2 7 7957 13.94800000 3186771878 3186771878 -8.84300000
15.81282234 2.51016355 -2.03796911 2 8 7958 16.14000000 3186771881 3186771881 -7.25400000
40.35686111 10.52721882 0.24240330 25 9 7958 41.70800000 3186771881 3186771881 0.33300000
39.86527634 6.32117224 -0.23459208 22 10 7959 40.36400000 3186771883 3186771883 -0.33300000
17.03103447 3.56107092 -1.87419832 2 11 7959 17.50000000 3186771883 3186771883 -6.14800000
19.40101242 2.10762453 -1.82170379 6 12 7960 19.60000000 3186771885 3186771885 -5.33300000
39.91523743 8.33872795 0.94885695 25 13 7960 40.78800000 3186771885 3186771885 1.33300000
39.92315292 4.32999229 0.46750590 17 14 7961 40.16000000 3186771888 3186771888 0.66700000
20.57329178 4.29423714 -1.46962941 26 15 7961 21.06800000 3186771888 3186771888 -4.00000000
20.33123207 3.21287632 -1.68033910 26 16 7962 20.65200000 3186771890 3186771890 -4.66700000
40.09240723 10.42834663 1.20562804 24 17 7962 41.44400000 3186771890 3186771890 1.66700000
39.54715347 6.24950361 0.69886416 25 18 7962 40.04400000 3186771892 3186771892 1.00000000
20.55642128 5.34688473 -1.36127222 26 19 7962 21.28400000 3186771892 3186771892 -3.66700000
20.56513214 2.22319388 -1.20464051 21 20 7963 20.72000000 3186771895 3186771895 -3.33300000
39.96059418 8.32636929 2.37718821 23 21 7963 40.88800000 3186771895 3186771895 3.33300000
39.66074753 6.25326490 1.63578141 25 22 7964 40.18400000 3186771897 3186771897 2.33300000
20.62691116 4.29415941 -0.98143446 24 23 7964 21.09200000 3186771897 3186771897 -2.66700000
20.59750748 3.24390173 -1.09277475 38 24 7965 20.88000000 3186771899 3186771899 -3.00000000
40.91835785 8.51103020 5.13167429 33 25 7965 42.10800000 3186771899 3186771899 7.00000000
41.02532578 6.45374107 3.39029479 27 26 7966 41.66800000 3186771901 3186771901 4.66700000
20.65102005 5.35610104 -0.86918187 22 27 7966 21.35200000 3186771901 3186771901 -2.33300000
20.88310432 2.24282002 -0.73344785 4 28 7967 21.01600000 3186771904 3186771904 -2.00000000
52.30290222 8.20912170 9.65291500 18 30 7968 53.81600000 3186771906 3186771906 10.33300000
39.11632538 8.11484241 -0.92959505 25 31 7968 39.96000000 3186771906 3186771906 -1.33300000
5.79594803 0.90140396 -2.73518538 7 0 7976 6.47200000 3186771927 3186771927 -25.00000000
39.34241486 10.13069725 -0.70912617 25 1 7976 40.63200000 3186771927 3186771927 -1.00000000
38.92050934 6.04608202 -1.14628339 16 2 7977 39.40400000 3186771929 3186771929 -1.66700000
8.70016098 1.79063451 -2.48656321 2 3 7977 9.22400000 3186771929 3186771929 -15.63900000
11.48441029 1.78198576 -2.32438207 2 4 7978 11.85200000 3186771931 3186771931 -11.31000000
39.92070770 8.20906734 0.00000000 26 5 7978 40.75600000 3186771931 3186771931 0.00000000
40.05117798 4.22368383 -0.46885628 29 6 7978 40.27600000 3186771934 3186771934 -0.66700000
13.49586678 2.77521324 -2.14357567 2 7 7978 13.94400000 3186771934 3186771934 -8.84300000
15.82975864 2.45340538 -2.03897929 2 8 7979 16.14800000 3186771936 3186771936 -7.25400000
40.29832077 10.35434723 0.24182211 17 9 7979 41.60800000 3186771936 3186771936 0.33300000
39.88027191 6.17379236 -0.23454559 22 10 7980 40.35600000 3186771938 3186771938 -0.33300000
17.04007721 3.49782538 -1.87377000 2 11 7980 17.49600000 3186771938 3186771938 -6.14800000
19.40860748 2.03650212 -1.82170379 6 12 7981 19.60000000 3186771941 3186771941 -5.33300000
39.66740036 8.13533306 0.94225025 18 13 7981 40.50400000 3186771941 3186771941 1.33300000
39.93875504 4.18363762 0.46750590 17 14 7982 40.16000000 3186771943 3186771943 0.66700000
20.56543922 4.21399784 -1.46795523 24 15 7982 21.04400000 3186771943 3186771943 -4.00000000
20.34287071 3.13833690 -1.68033910 28 16 7983 20.65200000 3186771945 3186771945 -4.66700000
39.68881607 10.16820717 1.19236279 23 17 7983 40.98800000 3186771945 3186771945 1.66700000
39.78718567 6.13805199 0.70270371 17 18 7983 40.26400000 3186771948 3186771948 1.00000000
20.56041145 5.26754284 -1.36024892 28 19 7983 21.26800000 3186771948 3186771948 -3.66700000
20.56917000 2.14738941 -1.20440793 21 20 7984 20.71600000 3186771950 3186771950 -3.33300000
40.04952621 8.19185352 2.38067675 35 21 7984 40.94800000 3186771950 3186771950 3.33300000
39.59649658 6.09448338 1.63219917 17 22 7985 40.09600000 3186771952 3186771952 2.33300000
20.62685204 4.21532917 -0.98068994 24 23 7985 21.07600000 3186771952 3186771952 -2.66700000
20.59741402 3.16656542 -1.09214675 38 24 7986 20.86800000 3186771954 3186771954 -3.00000000
40.77811813 8.32605362 5.11022520 16 25 7986 41.93200000 3186771954 3186771954 7.00000000
41.05658722 6.30454254 3.39094567 27 26 7987 41.67600000 3186771957 3186771957 4.66700000
20.65889549 5.27740765 -0.86869335 24 27 7987 21.34000000 3186771957 3186771957 -2.33300000
20.89516068 2.16667676 -0.73358744 4 28 7988 21.02000000 3186771959 3186771959 -2.00000000
52.31707764 8.01498318 9.65004444 18 30 7989 53.80000000 3186771961 3186771961 10.33300000
39.09878159 7.96184397 -0.92847848 25 31 7989 39.91200000 3186771961 3186771961 -1.33300000
5.79905939 0.88116682 -2.73518538 7 0 7996 6.47200000 3186771982 3186771982 -25.00000000
39.23022842 9.95592117 -0.70647341 25 1 7996 40.48000000 3186771982 3186771982 -1.00000000
38.91765976 5.90658760 -1.14558518 16 2 7997 39.38000000 3186771984 3186771984 -1.66700000
8.71013451 1.76101768 -2.48764133 2 3 7997 9.22800000 3186771984 3186771984 -15.63900000
11.54097462 1.74952924 -2.33458018 4 4 7998 11.90400000 3186771987 3186771987 -11.31000000
39.97264099 8.07441998 0.00000000 19 5 7998 40.78000000 3186771987 3186771987 0.00000000
40.07363510 4.08466482 -0.46894941 19 6 7998 40.28400000 3186771989 3186771989 -0.66700000
13.51709366 2.73043489 -2.14542031 2 7 7998 13.95600000 3186771989 3186771989 -8.84300000
15.83430290 2.39754009 -2.03847432 2 8 7999 16.14400000 3186771991 3186771991 -7.25400000
40.32258606 10.21067142 0.24175236 25 9 7999 41.59600000 3186771991 3186771991 0.33300000
39.93321991 6.03933144 -0.23473157 22 10 8000 40.38800000 3186771994 3186771994 -0.33300000
17.05998039 3.43989539 -1.87462676 2 11 8000 17.50400000 3186771994 3186771994 -6.14800000
19.52258301 1.97958910 -1.83174169 6 12 8001 19.70800000 3186771996 3186771996 -5.33300000
39.60147095 7.97786474 0.94001698 25 13 8001 40.40800000 3186771996 3186771996 1.33300000
40.00086975 4.04903364 0.46806467 17 14 8002 40.20800000 3186771998 3186771998 0.66700000
20.57219887 4.14061069 -1.46739721 24 15 8002 21.03600000 3186771998 3186771998 -4.00000000
20.36552811 3.06909013 -1.68131542 13 16 8003 20.66400000 3186772001 3186772001 -4.66700000
39.99155426 10.09714222 1.20039177 16 17 8003 41.26400000 3186772001 3186772001 1.66700000
39.85187149 6.00568724 0.70347160 17 18 8003 40.30800000 3186772003 3186772003 1.00000000
20.56706238 5.19281006 -1.35948145 28 19 8003 21.25600000 3186772003 3186772003 -3.66700000
20.56462097 2.07437420 -1.20371032 21 20 8004 20.70400000 3186772005 3186772005 -3.33300000
40.10528183 8.05751038 2.38230443 35 21 8004 40.97600000 3186772005 3186772005 3.33300000
39.56614685 5.94850445 1.63008237 25 22 8005 40.04400000 3186772007 3186772007 2.33300000
20.62185287 4.13937044 -0.97975934 23 23 8005 21.05600000 3186772007 3186772007 -2.66700000
20.60044289 3.09346128 -1.09172809 35 24 8006 20.86000000 3186772010 3186772010 -3.00000000
40.77190018 8.17663479 5.10583782 16 25 8006 41.89600000 3186772010 3186772010 7.00000000
41.02708817 6.15350246 3.38671494 27 26 8007 41.62400000 3186772012 3186772012 4.66700000
20.66168785 5.20135975 -0.86804205 22 27 8007 21.32400000 3186772012 3186772012 -2.33300000
20.92248535 2.09571791 -0.73428541 4 28 8008 21.04000000 3186772014 3186772014 -2.00000000
52.36419678 7.83522511 9.65363216 18 30 8009 53.82000000 3186772017 3186772017 10.33300000
39.13025665 7.82609940 -0.92857152 25 31 8009 39.91600000 3186772017 3186772017 -1.33300000
5.79851389 0.86038685 -2.73349500 8 0 8016 6.46800000 3186772037 3186772037 -25.00000000
39.24146271 9.81309986 -0.70605457 25 1 8016 40.45600000 3186772037 3186772037 -1.00000000
38.93804169 5.77070379 -1.14558518 16 2 8017 39.38000000 3186772040 3186772040 -1.66700000
8.71622849 1.73060298 -2.48764133 2 3 8017 9.22800000 3186772040 3186772040 -15.63900000
11.50821114 1.70348966 -2.32673550 4 4 8018 11.86400000 3186772042 3186772042 -11.31000000
39.74163055 7.88347197 0.00000000 19 5 8018 40.51600000 3186772042 3186772042 0.00000000
40.10755157 3.94671512 -0.46918222 19 6 8018 40.30400000 3186772044 3186772044 -0.66700000
13.52654266 2.68323469 -2.14542031 2 7 8018 13.95600000 3186772044 3186772044 -8.84300000
15.85042667 2.34341407 -2.03948426 2 8 8019 16.15200000 3186772047 3186772047 -7.25400000
40.35021973 10.06792068 0.24170586 25 9 8019 41.58800000 3186772047 3186772047 0.33300000
39.85117340 5.88470936 -0.23412713 22 10 8020 40.28400000 3186772049 3186772049 -0.33300000
17.08748817 3.38341379 -1.87634027 2 11 8020 17.52000000 3186772049 3186772049 -6.14800000
19.53730011 1.91220641 -1.83248520 6 12 8021 19.71600000 3186772051 3186772051 -5.33300000
39.73891830 7.86131048 0.94262242 25 13 8021 40.52000000 3186772051 3186772051 1.33300000
39.95504761 3.90354609 0.46736622 17 14 8022 40.14800000 3186772053 3186772053 0.66700000
20.57086945 4.06568003 -1.46628106 26 15 8022 21.02000000 3186772053 3186772053 -4.00000000
20.30906487 2.98811698 -1.67578268 52 16 8023 20.59600000 3186772056 3186772056 -4.66700000
40.13519669 9.98451042 1.20364988 24 17 8023 41.37600000 3186772056 3186772056 1.66700000
39.76180267 5.85024071 0.70151693 25 18 8023 40.19600000 3186772058 3186772058 1.00000000
20.56956863 5.11713123 -1.35845816 30 19 8023 21.24000000 3186772058 3186772058 -3.66700000
20.56776237 2.00219083 -1.20347774 21 20 8024 20.70000000 3186772060 3186772060 -3.33300000
40.12924576 7.91669512 2.38207197 29 21 8024 40.97200000 3186772060 3186772060 3.33300000
39.59458160 5.81151724 1.63040805 25 22 8025 40.05200000 3186772063 3186772063 2.33300000
20.62049484 4.06427097 -0.97901481 23 23 8025 21.04000000 3186772063 3186772063 -2.66700000
20.59530640 3.01921606 -1.09089065 38 24 8026 20.84400000 3186772065 3186772065 -3.00000000
41.02223206 8.07798672 5.13362408 24 25 8026 42.12400000 3186772065 3186772065 7.00000000
41.19032669 6.03104639 3.39843130 36 26 8027 41.76800000 3186772067 3186772067 4.66700000
20.66808128 5.12631893 -0.86755359 22 27 8027 21.31200000 3186772067 3186772067 -2.33300000
20.92967415 2.02267218 -0.73428541 2 28 8028 21.04000000 3186772070 3186772070 -2.00000000
105.31980133 15.38327026 19.40627670 28 30 8029 108.19200000 3186772072 3186772072 10.33300000
39.14163971 7.68637943 -0.92819929 41 31 8029 39.90000000 3186772072 3186772072 -1.33300000
5.80506992 0.84066063 -2.73518538 8 0 8036 6.47200000 3186772093 3186772093 -25.00000000
39.28324509 9.67797470 -0.70619416 25 1 8036 40.46400000 3186772093 3186772093 -1.00000000
38.96981812 5.63646650 -1.14593434 16 2 8037 39.39200000 3186772095 3186772095 -1.66700000
8.72599697 1.70090401 -2.48871970 2 3 8037 9.23200000 3186772095 3186772095 -15.63900000
11.51796913 1.66386890 -2.32751989 2 4 8038 11.86800000 3186772097 3186772097 -11.31000000
39.81602097 7.75387478 0.00000000 33 5 8038 40.56400000 3186772097 3186772097 0.00000000
40.13302994 3.80782294 -0.46932191 19 6 8038 40.31600000 3186772100 3186772100 -0.66700000
13.54746532 2.63826847 -2.14726496 2 7 8038 13.96800000 3186772100 3186772100 -8.84300000
15.86636448 2.28920484 -2.04049444 2 8 8039 16.16000000 3186772102 3186772102 -7.25400000
40.41230774 9.93369389 0.24186860 25 9 8039 41.61600000 3186772102 3186772102 0.33300000
39.89126587 5.74841928 -0.23424336 15 10 8040 40.30400000 3186772104 3186772104 -0.33300000
17.09529114 3.32298779 -1.87591195 2 11 8040 17.51600000 3186772104 3186772104 -6.14800000
19.55178642 1.84474516 -1.83322883 6 12 8041 19.72400000 3186772106 3186772106 -5.33300000
39.86818314 7.74236870 0.94504184 18 13 8041 40.62400000 3186772106 3186772106 1.33300000
39.95250320 3.76255298 0.46717995 25 14 8042 40.13200000 3186772109 3186772109 0.66700000
20.57318497 3.99156976 -1.46544397 26 15 8042 21.00800000 3186772109 3186772109 -4.00000000
20.40618896 2.92967129 -1.68294275 15 16 8043 20.68400000 3186772111 3186772111 -4.66700000
40.06106949 9.81770420 1.20039177 24 17 8043 41.26400000 3186772111 3186772111 1.66700000
39.78989792 5.71254730 0.70165652 25 18 8043 40.20400000 3186772113 3186772113 1.00000000
20.56792068 5.04054832 -1.35717905 26 19 8043 21.22000000 3186772113 3186772113 -3.66700000
20.56667519 1.92963755 -1.20301259 21 20 8044 20.69200000 3186772116 3186772116 -3.33300000
40.17623901 7.78036547 2.38323474 35 21 8044 40.99200000 3186772116 3186772116 3.33300000
39.59088516 5.66987133 1.62943101 25 22 8045 40.02800000 3186772118 3186772118 2.33300000
20.62278748 3.98999023 -0.97845650 24 23 8045 21.02800000 3186772118 3186772118 -2.66700000
20.59781075 2.94617534 -1.09047198 35 24 8046 20.83600000 3186772120 3186772120 -3.00000000
40.21261978 5.74458647 3.31609058 17 26 8047 40.75600000 3186772123 3186772123 4.66700000
20.65090561 5.04560518 -0.86608809 22 27 8047 21.27600000 3186772123 3186772123 -2.33300000
34.21503067 3.18607903 -1.19998431 5 28 8048 34.38400000 3186772125 3186772125 -2.00000000
114.90295410 16.39403534 21.16193771 28 30 8048 117.98000000 3186772127 3186772127 10.33300000
39.16691589 7.55653858 -0.92819929 35 31 8048 39.90000000 3186772127 3186772127 -1.33300000
5.81155825 0.82089907 -2.73687577 6 0 8056 6.47600000 3186772148 3186772148 -25.00000000
39.27792358 9.53136063 -0.70549607 25 1 8056 40.42400000 3186772148 3186772148 -1.00000000
38.97737885 5.49872637 -1.14558518 16 2 8057 39.38000000 3186772150 3186772150 -1.66700000
8.73566437 1.67115796 -2.48979807 2 3 8057 9.23600000 3186772150 3186772150 -15.63900000
11.51982307 1.62310636 -2.32673550 2 4 8058 11.86400000 3186772153 3186772153 -11.31000000
39.83891678 7.61409283 0.00000000 26 5 8058 40.56000000 3186772153 3186772153 0.00000000
40.12281799 3.65852332 -0.46904251 19 6 8059 40.29200000 3186772155 3186772155 -0.66700000
13.55316162 2.58785558 -2.14665008 2 7 8059 13.96400000 3186772155 3186772155 -8.84300000
15.87425900 2.23380685 -2.04049444 2 8 8059 16.16000000 3186772157 3186772157 -7.25400000
40.37287140 9.77468491 0.24142690 25 9 8059 41.54000000 3186772157 3186772157 0.33300000
39.90712738 5.60858107 -0.23422012 15 10 8060 40.30000000 3186772159 3186772159 -0.33300000
17.10678673 3.26329398 -1.87591195 2 11 8060 17.51600000 3186772159 3186772159 -6.14800000
19.45894814 1.76747870 -1.82393444 6 12 8061 19.62400000 3186772162 3186772162 -5.33300000
39.74569321 7.57470751 0.94150579 43 13 8061 40.47200000 3186772162 3186772162 1.33300000
39.98132706 3.62451434 0.46736622 25 14 8062 40.14800000 3186772164 3186772164 0.66700000
20.57915306 3.91823888 -1.46488595 24 15 8062 21.00000000 3186772164 3186772164 -4.00000000
20.51104927 2.87168908 -1.69075370 10 16 8063 20.78000000 3186772166 3186772166 -4.66700000
40.15728378 9.69281578 1.20225358 24 17 8063 41.32800000 3186772166 3186772166 1.66700000
39.71947098 5.55393314 0.70005095 25 18 8064 40.11200000 3186772169 3186772169 1.00000000
20.55909348 4.95857763 -1.35538816 23 19 8064 21.19200000 3186772169 3186772169 -3.66700000
20.56930923 1.85747564 -1.20278001 21 20 8064 20.68800000 3186772171 3186772171 -3.33300000
39.78339005 7.56030655 2.35835123 28 21 8064 40.56400000 3186772171 3186772171 3.33300000
39.60647964 5.53108597 1.62926817 25 22 8065 40.02400000 3186772173 3186772173 2.33300000
20.62873840 3.91648841 -0.97808421 24 23 8065 21.02000000 3186772173 3186772173 -2.66700000
20.60005760 2.87315392 -1.09005332 35 24 8066 20.82800000 3186772176 3186772176 -3.00000000
40.98011017 7.77290678 5.12143707 16 25 8066 42.02400000 3186772176 3186772176 7.00000000
40.56410980 5.65038538 3.34342885 17 26 8067 41.09200000 3186772178 3186772178 4.66700000
20.65284920 4.96974897 -0.86543679 22 27 8067 21.26000000 3186772178 3186772178 -2.33300000
34.25381470 3.06912398 -1.20096147 5 28 8068 34.41200000 3186772180 3186772180 -2.00000000
107.11362457 14.90135479 19.71766090 28 30 8068 109.92800000 3186772183 3186772183 10.33300000
39.22055817 7.42498159 -0.92885065 15 31 8068 39.92800000 3186772183 3186772183 -1.33300000
5.81065750 0.80112755 -2.73518538 8 0 8075 6.47200000 3186772203 3186772203 -25.00000000
39.28208542 9.39454651 -0.70500743 25 1 8075 40.39600000 3186772203 3186772203 -1.00000000
38.99143600 5.36889696 -1.14546883 16 2 8076 39.37600000 3186772206 3186772206 -1.66700000
8.73737240 1.64146912 -2.48871970 2 3 8076 9.23200000 3186772206 3186772206 -15.63900000
11.54457092 1.58756804 -2.33065796 2 4 8077 11.88400000 3186772208 3186772208 -11.31000000
39.95043564 7.49817371 0.00000000 19 5 8077 40.64800000 3186772208 3186772208 0.00000000
39.99925995 3.51355147 -0.46745932 19 6 8078 40.15600000 3186772210 3186772210 -0.66700000
13.55778408 2.54216886 -2.14603519 2 7 8078 13.96000000 3186772210 3186772210 -8.84300000
15.88551044 2.18169355 -2.04099965 2 8 8078 16.16400000 3186772212 3186772212 -7.25400000
40.40895462 9.64167786 0.24145015 25 9 8078 41.54400000 3186772212 3186772212 0.33300000
39.94532394 5.47893143 -0.23433636 22 10 8079 40.32000000 3186772215 3186772215 -0.33300000
17.11360359 3.20581555 -1.87548351 4 11 8079 17.51200000 3186772215 3186772215 -6.14800000
19.48057175 1.70432925 -1.82542145 4 12 8080 19.64000000 3186772217 3186772217 -5.33300000
39.94354248 7.47523117 0.94560015 18 13 8080 40.64800000 3186772217 3186772217 1.33300000
39.93733978 3.48704100 0.46671429 17 14 8081 40.09200000 3186772219 3186772219 0.66700000
20.57242203 3.84630775 -1.46349084 26 15 8081 20.98000000 3186772219 3186772219 -4.00000000
20.50465965 2.80149746 -1.68945193 13 16 8082 20.76400000 3186772222 3186772222 -4.66700000
40.11529922 9.54201603 1.20004272 23 17 8082 41.25200000 3186772222 3186772222 1.66700000
39.39197922 5.38202190 0.69397748 16 18 8082 39.76400000 3186772224 3186772224 1.00000000
20.55903435 4.89026976 -1.35436487 16 19 8082 21.17600000 3186772224 3186772224 -3.66700000
20.56739807 1.78856325 -1.20231497 21 20 8083 20.68000000 3186772226 3186772226 -3.33300000
40.02021790 7.46789360 2.37090921 17 21 8083 40.78000000 3186772226 3186772226 3.33300000
39.59688187 5.39593840 1.62812841 25 22 8084 39.99600000 3186772229 3186772229 2.33300000
20.62982941 3.84586287 -0.97752583 24 23 8084 21.00800000 3186772229 3186772229 -2.66700000
20.59759712 2.80321002 -1.08942521 35 24 8085 20.81600000 3186772231 3186772231 -3.00000000
42.05168152 7.83178234 5.25208139 34 25 8085 43.09600000 3186772231 3186772231 7.00000000
40.47201538 5.50080490 3.33431602 43 26 8086 40.98000000 3186772233 3186772233 4.66700000
20.65366173 4.89754581 -0.86478549 24 27 8086 21.24400000 3186772233 3186772233 -2.33300000
34.42311478 2.96925926 -1.20654535 5 28 8087 34.57200000 3186772236 3186772236 -2.00000000
105.99263763 14.38728333 19.50241852 28 30 8087 108.72800000 3186772238 3186772238 10.33300000
39.21744156 7.28976488 -0.92819929 15 31 8087 39.90000000 3186772238 3186772238 -1.33300000
5.80996180 0.77934313 -2.73349500 6 0 8096 6.46800000 3186772259 3186772259 -25.00000000
39.33182907 9.25417137 -0.70528662 25 1 8096 40.41200000 3186772259 3186772259 -1.00000000
39.02670670 5.22807407 -1.14593434 16 2 8097 39.39200000 3186772261 3186772261 -1.66700000
8.75090694 1.61082864 -2.49087644 2 3 8097 9.24000000 3186772261 3186772261 -15.63900000
11.54642487 1.54472435 -2.32987332 4 4 8098 11.88000000 3186772264 3186772264 -11.31000000
39.94224167 7.34518623 0.00000000 19 5 8098 40.61200000 3186772264 3186772264 0.00000000
40.05172348 3.37027717 -0.46792498 19 6 8099 40.19600000 3186772266 3186772266 -0.66700000
13.57867241 2.49460268 -2.14787984 2 7 8099 13.97200000 3186772266 3186772266 -8.84300000
15.89377022 2.12068176 -2.04099965 2 8 8100 16.16400000 3186772268 3186772268 -7.25400000
40.40284348 9.47640133 0.24119441 25 9 8100 41.50000000 3186772268 3186772268 0.33300000
39.92548752 5.32719755 -0.23410389 22 10 8100 40.28000000 3186772271 3186772271 -0.33300000
17.14088631 3.14594126 -1.87719703 4 11 8100 17.52800000 3186772271 3186772271 -6.14800000
19.50256348 1.63424826 -1.82690859 4 12 8101 19.65600000 3186772273 3186772273 -5.33300000
39.96280670 7.32733774 0.94541401 25 13 8101 40.64000000 3186772273 3186772273 1.33300000
39.93391037 3.33930659 0.46652806 25 14 8102 40.07600000 3186772275 3186772275 0.66700000
20.57068062 3.76800442 -1.46237469 26 15 8102 20.96400000 3186772275 3186772275 -4.00000000
20.51083755 2.72580028 -1.68912649 13 16 8103 20.76000000 3186772277 3186772277 -4.66700000
39.99817276 9.35939407 1.19550455 23 17 8103 41.09600000 3186772277 3186772277 1.66700000
39.84449768 5.28808165 0.70158672 17 18 8104 40.20000000 3186772280 3186772280 1.00000000
