# .PCD v0.7 - Point Cloud Data file format
VERSION 0.7
FIELDS x y z intensity laser_id azimuth distance_m adjustedtime timestamp vertical_angle
SIZE 4 4 4 1 1 2 8 8 4 8
TYPE F F F U U U F U U F
COUNT 1 1 1 1 1 1 1 1 1 1
WIDTH 521
HEIGHT 1
VIEWPOINT 0 0 0 1 0 0 0
POINTS 521
DATA ascii
39.45169830 53.86444855 0.38804984 56 9 4042 66.76800000 3180861070 3180861070 0.33300000
21.47454834 23.99268150 -0.18714362 5 10 4043 32.20000000 3180861072 3180861072 -0.33300000
11.25236607 13.88064766 -1.92474818 2 11 4043 17.97200000 3180861072 3180861072 -6.14800000
13.93899822 14.11527061 -1.85181761 2 12 4044 19.92400000 3180861074 3180861074 -5.33300000
40.66049194 50.13991547 1.50214744 19 13 4044 64.57200000 3180861074 3180861074 1.33300000
40.80311203 41.30468750 0.67592788 26 14 4045 58.06400000 3180861076 3180861076 0.66700000
14.74124432 18.17147446 -1.63620782 2 15 4045 23.45600000 3180861076 3180861076 -4.00000000
14.26240921 15.91805744 -1.74477971 2 16 4046 21.44400000 3180861079 3180861079 -4.66700000
40.11410904 54.68872070 1.97385097 28 17 4046 67.85200000 3180861079 3180861079 1.66700000
40.80129623 45.53770447 1.06724954 28 18 4046 61.15200000 3180861081 3180861081 1.00000000
14.60960770 19.91769981 -1.58307707 3 19 4046 24.75200000 3180861081 3180861081 -3.66700000
17.68058395 17.88543129 -1.46463823 3 20 4047 25.19200000 3180861083 3180861083 -3.33300000
40.35206604 49.70635986 3.72857165 44 21 4047 64.13200000 3180861083 3180861083 3.33300000
40.16790771 44.79931259 2.45139241 28 22 4048 60.22000000 3180861086 3180861086 2.33300000
17.54657555 21.60646057 -1.29654324 2 23 4048 27.86400000 3180861086 3180861086 -2.66700000
18.01393318 20.08390808 -1.41390824 4 24 4049 27.01600000 3180861088 3180861088 -3.00000000
17.88527298 24.34784889 -1.23082530 4 27 4050 30.23600000 3180861090 3180861090 -2.33300000
20.86771584 21.08003426 -1.03581703 8 28 4051 29.68000000 3180861093 3180861093 -2.00000000
20.99726868 25.81871414 -0.77438343 13 31 4052 33.28800000 3180861095 3180861095 -1.33300000
3.67501593 4.08151865 -2.56106663 13 0 4060 6.06000000 3180861116 3180861116 -25.00000000
21.00382996 28.48890114 -0.61781520 19 1 4060 35.40000000 3180861116 3180861116 -1.00000000
20.91757393 23.22316742 -0.90960282 15 2 4061 31.26800000 3180861118 3180861118 -1.66700000
5.78566790 7.09140253 -2.56204414 6 3 4061 9.50400000 3180861118 3180861118 -15.63900000
7.99746466 8.87585163 -2.38949299 1 4 4062 12.18400000 3180861120 3180861120 -11.31000000
36.63039017 44.88130188 0.00000000 18 5 4062 57.93200000 3180861120 3180861120 0.00000000
20.96458435 21.09672546 -0.34625238 15 6 4062 29.74400000 3180861123 3180861123 -0.66700000
8.92191315 10.93155289 -2.19522810 2 7 4062 14.28000000 3180861123 3180861123 -8.84300000
10.86567211 12.05485153 -2.06574821 2 8 4063 16.36000000 3180861125 3180861125 -7.25400000
39.43745422 53.43306351 0.38598081 28 9 4063 66.41200000 3180861125 3180861125 0.33300000
34.48635483 38.24724579 -0.29931355 12 10 4064 51.50000000 3180861127 3180861127 -0.33300000
11.28807163 13.82083130 -1.92217779 2 11 4064 17.94800000 3180861127 3180861127 -6.14800000
13.98221302 14.05561638 -1.85070229 2 12 4065 19.91200000 3180861129 3180861129 -5.33300000
40.47712326 49.54152298 1.48865485 19 13 4065 63.99200000 3180861129 3180861129 1.33300000
40.66363144 40.86283875 0.67113173 25 14 4066 57.65200000 3180861132 3180861132 0.66700000
14.81532288 18.12659073 -1.63704491 2 15 4066 23.46800000 3180861132 3180861132 -4.00000000
14.30195713 15.84496021 -1.74250150 2 16 4067 21.41600000 3180861134 3180861134 -4.66700000
40.39271164 54.64743423 1.97769082 28 17 4067 67.98400000 3180861134 3180861134 1.66700000
40.66779327 45.05533981 1.05943084 28 18 4067 60.70400000 3180861136 3180861136 1.00000000
14.67776585 19.85759926 -1.58256531 3 19 4067 24.74400000 3180861136 3180861136 -3.66700000
17.63049126 17.70449638 -1.45510340 3 20 4068 25.02800000 3180861139 3180861139 -3.33300000
40.39745712 49.39121246 3.71601367 43 21 4068 63.91600000 3180861139 3180861139 3.33300000
40.09072495 44.38485718 2.43673778 28 22 4069 59.86000000 3180861141 3180861141 2.33300000
17.60540771 21.51726532 -1.29505420 2 23 4069 27.83200000 3180861141 3180861141 -2.66700000
18.09277916 20.02367592 -1.41432691 4 24 4070 27.02400000 3180861143 3180861143 -3.00000000
17.95299149 24.25322151 -1.22935987 4 27 4071 30.20000000 3180861146 3180861146 -2.33300000
20.86580086 20.92415237 -1.03190827 13 28 4072 29.56800000 3180861148 3180861148 -2.00000000
21.00111198 25.64007950 -0.77121961 13 31 4072 33.15200000 3180861150 3180861150 -1.33300000
3.64540815 4.02032518 -2.53063822 10 0 4080 5.98800000 3180861171 3180861171 -25.00000000
21.01491737 28.29661179 -0.61523223 19 1 4080 35.25200000 3180861171 3180861171 -1.00000000
20.91254997 23.05524254 -0.90587926 15 2 4081 31.14000000 3180861173 3180861173 -1.66700000
5.80549574 7.06521130 -2.55988765 7 3 4081 9.49600000 3180861173 3180861173 -15.63900000
8.03366947 8.85369015 -2.39106202 1 4 4082 12.19200000 3180861176 3180861176 -11.31000000
36.98241043 44.99109650 0.00000000 19 5 4082 58.24000000 3180861176 3180861176 0.00000000
20.96253586 20.94059563 -0.34494859 15 6 4083 29.63200000 3180861178 3180861178 -0.66700000
8.96191883 10.89877892 -2.19522810 2 7 4083 14.28000000 3180861178 3180861178 -8.84300000
10.89968395 12.00803566 -2.06423283 2 8 4083 16.34800000 3180861180 3180861180 -7.25400000
39.48769379 53.11210632 0.38465568 28 9 4083 66.18400000 3180861180 3180861180 0.33300000
34.95576477 38.49679565 -0.30221951 13 10 4084 52.00000000 3180861182 3180861182 -0.33300000
11.33119297 13.77520180 -1.92132103 2 11 4084 17.94000000 3180861182 3180861182 -6.14800000
13.98045635 13.95607662 -1.84401035 2 12 4085 19.84000000 3180861185 3180861185 -5.33300000
40.57612228 49.31038284 1.48595631 19 13 4085 63.87600000 3180861185 3180861185 1.33300000
40.67578888 40.59068680 0.66898978 25 14 4086 57.46800000 3180861187 3180861187 0.66700000
14.87850571 18.07476616 -1.63704491 2 15 4086 23.46800000 3180861187 3180861187 -4.00000000
14.35986137 15.79789066 -1.74282706 2 16 4087 21.42000000 3180861189 3180861189 -4.66700000
40.38503265 54.23992157 1.96803284 28 17 4087 67.65200000 3180861189 3180861189 1.66700000
40.72772217 44.79058075 1.05670834 28 18 4088 60.54800000 3180861192 3180861192 1.00000000
14.73137283 19.77805710 -1.58051872 3 19 4088 24.71200000 3180861192 3180861192 -3.66700000
17.68370247 17.63438797 -1.45440578 3 20 4088 25.01600000 3180861194 3180861194 -3.33300000
40.39950943 49.04339218 3.70043230 43 21 4088 63.64800000 3180861194 3180861194 3.33300000
40.11632919 44.10272980 2.42892194 55 22 4089 59.66800000 3180861196 3180861196 2.33300000
17.67278671 21.44642830 -1.29449582 2 23 4089 27.82000000 3180861196 3180861196 -2.66700000
18.15449905 19.95153427 -1.41369879 4 24 4090 27.01200000 3180861199 3180861199 -3.00000000
17.94675636 24.06865311 -1.22317231 4 27 4091 30.04800000 3180861201 3180861201 -2.33300000
20.87639618 20.78913116 -1.02883720 12 28 4092 29.48000000 3180861203 3180861203 -2.00000000
49.77553177 60.33962250 20.95916557 28 29 4092 80.98000000 3180861203 3180861203 15.00000000
20.99124146 25.44630814 -0.76759058 12 31 4092 32.99600000 3180861206 3180861206 -1.33300000
3.70586514 4.05844021 -2.56275725 9 0 4100 6.06400000 3180861226 3180861226 -25.00000000
21.00815201 28.08217621 -0.61216062 19 1 4100 35.07600000 3180861226 3180861226 -1.00000000
20.90930748 22.89058876 -0.90227199 15 2 4101 31.01600000 3180861229 3180861229 -1.66700000
5.82766676 7.04193592 -2.55880928 6 3 4101 9.49200000 3180861229 3180861229 -15.63900000
8.06452560 8.82559395 -2.39106202 1 4 4102 12.19200000 3180861231 3180861231 -11.31000000
37.07036591 44.77853775 0.00000000 18 5 4102 58.13200000 3180861231 3180861231 0.00000000
20.96735382 20.79969025 -0.34383103 15 6 4103 29.53600000 3180861233 3180861233 -0.66700000
8.99486637 10.86134148 -2.19399810 2 7 4103 14.27200000 3180861233 3180861233 -8.84300000
10.94153404 11.96991539 -2.06423283 2 8 4103 16.34800000 3180861235 3180861235 -7.25400000
39.43787384 52.66018677 0.38237742 28 9 4103 65.79200000 3180861235 3180861235 0.33300000
35.04944229 38.33026123 -0.30187079 13 10 4104 51.94000000 3180861238 3180861238 -0.33300000
11.37159729 13.72637749 -1.92003584 1 11 4104 17.92800000 3180861238 3180861238 -6.14800000
14.03191471 13.90999508 -1.84438205 2 12 4105 19.84400000 3180861240 3180861240 -5.33300000
40.47241592 48.83591080 1.47590661 19 13 4105 63.44400000 3180861240 3180861240 1.33300000
40.68370056 40.31613159 0.66680127 50 14 4106 57.28000000 3180861242 3180861242 0.66700000
14.92877483 18.00736046 -1.63564980 4 15 4106 23.44800000 3180861242 3180861242 -4.00000000
14.41222668 15.74472809 -1.74250150 2 16 4107 21.41600000 3180861245 3180861245 -4.66700000
40.34861374 53.79795074 1.95709479 28 17 4107 67.27600000 3180861245 3180861245 1.66700000
40.85442734 44.63167572 1.05614984 28 18 4107 60.51600000 3180861247 3180861247 1.00000000
14.78969288 19.71951675 -1.57975125 3 19 4107 24.70000000 3180861247 3180861247 -3.66700000
17.76217461 17.58941269 -1.45580113 3 20 4108 25.04000000 3180861249 3180861249 -3.33300000
40.31039047 48.58860016 3.67671180 42 21 4108 63.24000000 3180861249 3180861249 3.33300000
39.61402512 43.24627686 2.38935447 26 22 4109 58.69600000 3180861252 3180861252 2.33300000
17.74498940 21.38153458 -1.29430974 2 23 4109 27.81600000 3180861252 3180861252 -2.66700000
18.14846992 19.80558014 -1.40783727 4 24 4110 26.90000000 3180861254 3180861254 -3.00000000
50.55060959 60.88850403 9.71688652 28 25 4110 79.73200000 3180861254 3180861254 7.00000000
18.02826309 24.00266457 -1.22300959 4 27 4111 30.04400000 3180861256 3180861256 -2.33300000
20.87493324 20.64304924 -1.02520764 12 28 4112 29.37600000 3180861259 3180861259 -2.00000000
50.07967758 60.27843857 20.99850655 28 29 4112 81.13200000 3180861259 3180861259 15.00000000
20.99560738 25.27137756 -0.76451981 12 31 4112 32.86400000 3180861261 3180861261 -1.33300000
3.65130186 3.97076082 -2.51542377 11 0 4120 5.95200000 3180861282 3180861282 -25.00000000
21.00255203 27.87132835 -0.60915881 19 1 4120 34.90400000 3180861282 3180861282 -1.00000000
20.91329002 22.73506737 -0.89901388 15 2 4121 30.90400000 3180861284 3180861284 -1.66700000
5.84974575 7.01859188 -2.55773115 6 3 4121 9.48800000 3180861284 3180861284 -15.63900000
8.08997154 8.79161739 -2.38949299 1 4 4122 12.18400000 3180861287 3180861287 -11.31000000
37.35451889 44.80247879 0.00000000 19 5 4122 58.33200000 3180861287 3180861287 0.00000000
20.95929337 20.65424538 -0.34257379 15 6 4122 29.42800000 3180861289 3180861289 -0.66700000
9.02577209 10.82538223 -2.19276834 1 7 4122 14.26400000 3180861289 3180861289 -8.84300000
10.97518826 11.92289162 -2.06271768 2 8 4123 16.33600000 3180861291 3180861291 -7.25400000
39.62145233 52.52220154 0.38237742 56 9 4123 65.79200000 3180861291 3180861291 0.33300000
35.08548355 38.10175705 -0.30103388 12 10 4124 51.79600000 3180861294 3180861294 -0.33300000
11.47804260 13.75683403 -1.92988884 3 11 4124 18.02000000 3180861294 3180861294 -6.14800000
14.07470798 13.85534191 -1.84363854 2 12 4125 19.83600000 3180861296 3180861296 -5.33300000
40.61957550 48.66670990 1.47506917 19 13 4125 63.40800000 3180861296 3180861296 1.33300000
40.67878723 40.03079605 0.66442645 25 14 4126 57.07600000 3180861298 3180861298 0.66700000
14.98386860 17.94595146 -1.63481271 4 15 4126 23.43600000 3180861298 3180861298 -4.00000000
14.45628929 15.68259907 -1.74119973 2 16 4127 21.40000000 3180861300 3180861300 -4.66700000
40.28068161 53.31861115 1.94476032 28 17 4127 66.85200000 3180861300 3180861300 1.66700000
40.98286438 44.45938873 1.05545175 28 18 4127 60.47600000 3180861303 3180861303 1.00000000
14.79587555 19.58495903 -1.57309961 3 19 4127 24.59600000 3180861303 3180861303 -3.66700000
17.82631111 17.53010368 -1.45603359 3 20 4128 25.04400000 3180861305 3180861305 -3.33300000
40.34404755 48.28518295 3.66438627 41 21 4128 63.02800000 3180861305 3180861305 3.33300000
39.72680283 43.06660461 2.38707495 52 22 4129 58.64000000 3180861307 3180861307 2.33300000
17.77082825 21.26121140 -1.29077339 2 23 4129 27.74000000 3180861307 3180861307 -2.66700000
18.21478462 19.73917389 -1.40762782 4 24 4130 26.89600000 3180861310 3180861310 -3.00000000
50.79849625 60.75431824 9.72371101 28 25 4130 79.78800000 3180861310 3180861310 7.00000000
112.88769531 122.29239655 13.58656502 28 26 4131 166.98400000 3180861312 3180861312 4.66700000
18.09264565 23.91409111 -1.22170687 4 27 4131 30.01200000 3180861312 3180861312 -2.33300000
20.86700058 20.49163055 -1.02129889 12 28 4132 29.26400000 3180861314 3180861314 -2.00000000
20.99131012 25.08752441 -0.76116997 17 31 4132 32.72000000 3180861317 3180861317 -1.33300000
3.65459847 3.94798946 -2.50866199 17 0 4139 5.93600000 3180861337 3180861337 -25.00000000
21.00541496 27.68364334 -0.60657585 18 1 4139 34.75600000 3180861337 3180861337 -1.00000000
20.90163612 22.57171440 -0.89529026 15 2 4140 30.77600000 3180861340 3180861340 -1.66700000
5.87298822 6.99915457 -2.55773115 6 3 4140 9.48800000 3180861340 3180861340 -15.63900000
8.11641598 8.76186371 -2.38870859 1 4 4141 12.18000000 3180861342 3180861342 -11.31000000
37.63146973 44.83154678 0.00000000 19 5 4141 58.53200000 3180861342 3180861342 0.00000000
20.95621490 20.51467896 -0.34140968 15 6 4141 29.32800000 3180861344 3180861344 -0.66700000
9.06162071 10.79539204 -2.19276834 1 7 4141 14.26400000 3180861344 3180861344 -8.84300000
11.00657463 11.87769985 -2.06120253 2 8 4142 16.32400000 3180861347 3180861347 -7.25400000
39.77846527 52.36822510 0.38221470 28 9 4142 65.76400000 3180861347 3180861347 0.33300000
35.11646652 37.88252640 -0.30022022 12 10 4143 51.65600000 3180861349 3180861349 -0.33300000
11.52359867 13.71869564 -1.92988884 3 11 4143 18.02000000 3180861349 3180861349 -6.14800000
14.12342453 13.81137657 -1.84401035 2 12 4144 19.84000000 3180861351 3180861351 -5.33300000
40.64181900 48.36641693 1.47004437 18 13 4144 63.19200000 3180861351 3180861351 1.33300000
40.81988907 39.90406799 0.66456616 25 14 4145 57.08800000 3180861353 3180861353 0.66700000
15.03816223 17.89005470 -1.63425469 4 15 4145 23.42800000 3180861353 3180861353 -4.00000000
14.49465656 15.61996269 -1.73957241 2 16 4146 21.38000000 3180861356 3180861356 -4.66700000
40.07963943 52.68831635 1.92660785 28 17 4146 66.22800000 3180861356 3180861356 1.66700000
40.97500610 44.15613937 1.05147254 28 18 4146 60.24800000 3180861358 3180861358 1.00000000
14.86073971 19.53578758 -1.57309961 3 19 4146 24.59600000 3180861358 3180861358 -3.66700000
17.88434601 17.47089195 -1.45603359 3 20 4147 25.04400000 3180861360 3180861360 -3.33300000
40.30087280 47.90971756 3.64601421 40 21 4147 62.71200000 3180861360 3180861360 3.33300000
39.50225449 42.53925705 2.36509299 25 22 4148 58.10000000 3180861363 3180861363 2.33300000
17.81550980 21.17159271 -1.28891218 2 23 4148 27.70000000 3180861363 3180861363 -2.66700000
18.26926804 19.66695595 -1.40679049 4 24 4149 26.88000000 3180861365 3180861365 -3.00000000
50.97667313 60.55819321 9.71932411 28 25 4149 79.75200000 3180861365 3180861365 7.00000000
113.20848083 121.82683563 13.57647610 28 26 4150 166.86000000 3180861367 3180861367 4.66700000
18.18153763 23.86667824 -1.22235823 4 27 4150 30.02800000 3180861367 3180861367 -2.33300000
20.85757828 20.34695053 -1.01752973 12 28 4151 29.15600000 3180861370 3180861370 -2.00000000
20.98421669 24.91073227 -0.75791311 12 31 4151 32.58000000 3180861372 3180861372 -1.33300000
3.63195801 3.89479828 -2.48330498 12 0 4160 5.87600000 3180861393 3180861393 -25.00000000
21.00714493 27.47620583 -0.60371363 18 1 4160 34.59200000 3180861393 3180861393 -1.00000000
20.90513229 22.41016579 -0.89191580 14 2 4161 30.66000000 3180861395 3180861395 -1.66700000
5.89611530 6.97464037 -2.55665278 6 3 4161 9.48400000 3180861395 3180861395 -15.63900000
8.15115166 8.73492432 -2.38949299 3 4 4162 12.18400000 3180861397 3180861397 -11.31000000
37.92467880 44.84603119 0.00000000 19 5 4162 58.73200000 3180861397 3180861397 0.00000000
20.95955467 20.36804581 -0.34024557 15 6 4162 29.22800000 3180861400 3180861400 -0.66700000
9.08070946 10.73796368 -2.18784904 1 7 4162 14.23200000 3180861400 3180861400 -8.84300000
11.03920364 11.82567596 -2.05918217 4 8 4163 16.30800000 3180861402 3180861402 -7.25400000
39.77807999 51.97114944 0.38037813 28 9 4163 65.44800000 3180861402 3180861402 0.33300000
35.13496017 37.62493134 -0.29919732 12 10 4164 51.48000000 3180861404 3180861404 -0.33300000
11.57123375 13.67333126 -1.92946041 3 11 4164 18.01600000 3180861404 3180861404 -6.14800000
14.15108967 13.73732567 -1.84103608 2 12 4165 19.80800000 3180861406 3180861406 -5.33300000
40.43899918 47.76847458 1.45636559 18 13 4165 62.60400000 3180861406 3180861406 1.33300000
40.94004059 39.72911835 0.66414708 25 14 4166 57.05200000 3180861409 3180861409 0.66700000
15.10105324 17.83177185 -1.63397563 2 15 4166 23.42400000 3180861409 3180861409 -4.00000000
14.57358932 15.59003067 -1.74217606 2 16 4167 21.41200000 3180861411 3180861411 -4.66700000
40.20194626 52.44903564 1.92323339 28 17 4167 66.11200000 3180861411 3180861411 1.66700000
40.99947357 43.84365845 1.04777265 28 18 4168 60.03600000 3180861413 3180861413 1.00000000
14.92349720 19.46274376 -1.57182050 3 19 4168 24.57600000 3180861413 3180861413 -3.66700000
17.92819214 17.38576698 -1.45440578 3 20 4168 25.01600000 3180861416 3180861416 -3.33300000
40.44263840 47.72208405 3.64299107 40 21 4168 62.66000000 3180861416 3180861416 3.33300000
39.48043060 42.20447159 2.35450912 49 22 4169 57.84000000 3180861418 3180861418 2.33300000
17.89557076 21.10920143 -1.28909826 2 23 4169 27.70400000 3180861418 3180861418 -2.66700000
18.33849907 19.59694672 -1.40658116 4 24 4170 26.87600000 3180861420 3180861420 -3.00000000
113.11205292 120.83190155 13.51171017 28 26 4171 166.06400000 3180861423 3180861423 4.66700000
18.26158905 23.79036903 -1.22186971 4 27 4171 30.01600000 3180861423 3180861423 -2.33300000
20.87457848 20.21474838 -1.01473773 12 28 4172 29.07600000 3180861425 3180861425 -2.00000000
20.97963905 24.72084427 -0.75447017 12 31 4172 32.43200000 3180861427 3180861427 -1.33300000
3.66402173 3.90451717 -2.49682879 11 0 4178 5.90800000 3180861448 3180861448 -25.00000000
20.99335670 27.28012276 -0.60085148 18 1 4178 34.42800000 3180861448 3180861448 -1.00000000
20.89333725 22.25692749 -0.88842493 14 2 4179 30.54000000 3180861450 3180861450 -1.66700000
5.91550159 6.95314884 -2.55557442 6 3 4179 9.48000000 3180861450 3180861450 -15.63900000
8.17586803 8.70641518 -2.38870859 3 4 4180 12.18000000 3180861452 3180861452 -11.31000000
38.06537628 44.72666931 0.00000000 19 5 4180 58.73200000 3180861452 3180861452 0.00000000
20.96367455 20.23731422 -0.33922115 15 6 4181 29.14000000 3180861455 3180861455 -0.66700000
9.11370564 10.70478249 -2.18723416 1 7 4181 14.22800000 3180861455 3180861455 -8.84300000
11.05456638 11.76780033 -2.05514169 33 8 4181 16.27600000 3180861457 3180861457 -7.25400000
39.79224777 51.65263748 0.37896001 28 9 4181 65.20400000 3180861457 3180861457 0.33300000
35.18450928 37.44149780 -0.29861611 11 10 4182 51.38000000 3180861459 3180861459 -0.33300000
11.61155415 13.63388443 -1.92903209 3 11 4182 18.01200000 3180861459 3180861459 -6.14800000
14.18557739 13.68450546 -1.83992076 2 12 4183 19.79600000 3180861462 3180861462 -5.33300000
40.23616791 47.22721481 1.44371045 18 13 4183 62.06000000 3180861462 3180861462 1.33300000
40.81992722 39.36430740 0.66018909 24 14 4184 56.71200000 3180861464 3180861464 0.66700000
15.15182209 17.77816963 -1.63341761 2 15 4184 23.41600000 3180861464 3180861464 -4.00000000
14.58971500 15.50932407 -1.73827064 2 16 4185 21.36400000 3180861466 3180861466 -4.66700000
40.10519409 51.98374939 1.91078269 28 17 4185 65.68400000 3180861466 3180861466 1.66700000
40.99510574 43.57907867 1.04435205 27 18 4185 59.84000000 3180861469 3180861469 1.00000000
14.97386360 19.40889740 -1.57105303 3 19 4185 24.56400000 3180861469 3180861469 -3.66700000
17.98272324 17.32935715 -1.45440578 3 20 4186 25.01600000 3180861471 3180861471 -3.33300000
40.46538925 47.44591522 3.63159585 40 21 4186 62.46400000 3180861471 3180861471 3.33300000
39.45667648 41.91435623 2.34522796 48 22 4187 57.61200000 3180861473 3180861473 2.33300000
17.95401955 21.04375648 -1.28853989 2 23 4187 27.69200000 3180861473 3180861473 -2.66700000
18.38628197 19.52469826 -1.40553439 4 24 4188 26.85600000 3180861476 3180861476 -3.00000000
18.32646561 23.72023010 -1.22121847 4 27 4189 30.00000000 3180861478 3180861478 -2.33300000
20.85444832 20.06868362 -1.01068938 12 28 4190 28.96000000 3180861480 3180861480 -2.00000000
20.97837830 24.55384636 -0.75149250 12 31 4191 32.30400000 3180861482 3180861482 -1.33300000
3.65838480 3.86998630 -2.48330498 10 0 4199 5.87600000 3180861503 3180861503 -25.00000000
20.99762535 27.07973289 -0.59812886 18 1 4199 34.27200000 3180861503 3180861503 -1.00000000
20.89235687 22.09304810 -0.88493407 14 2 4200 30.42000000 3180861505 3180861505 -1.66700000
5.93593264 6.92557144 -2.55341792 6 3 4200 9.47200000 3180861505 3180861505 -15.63900000
8.20772362 8.67639065 -2.38870859 3 4 4201 12.18000000 3180861508 3180861508 -11.31000000
39.04919815 45.54338837 0.00000000 21 5 4201 59.99200000 3180861508 3180861508 0.00000000
20.96262360 20.08839226 -0.33801049 15 6 4202 29.03600000 3180861510 3180861510 -0.66700000
9.14258671 10.65930653 -2.18477464 2 7 4202 14.21200000 3180861510 3180861510 -8.84300000
11.10853291 11.73873329 -2.05716181 23 8 4202 16.29200000 3180861512 3180861512 -7.25400000
39.85375977 51.34214020 0.37775114 28 9 4202 64.99600000 3180861512 3180861512 0.33300000
35.54148865 37.54467010 -0.30047593 12 10 4203 51.70000000 3180861515 3180861515 -0.33300000
11.66144657 13.59123421 -1.92903209 3 11 4203 18.01200000 3180861515 3180861515 -6.14800000
14.24139118 13.63793087 -1.84066439 4 12 4204 19.80400000 3180861517 3180861517 -5.33300000
40.15896225 46.78812027 1.43477738 18 13 4204 61.67600000 3180861517 3180861517 1.33300000
40.82235718 39.07890320 0.65790749 24 14 4205 56.51600000 3180861519 3180861519 0.66700000
15.13629913 17.62866592 -1.62476778 2 15 4205 23.29200000 3180861519 3180861519 -4.00000000
14.64097691 15.44995785 -1.73761964 2 16 4206 21.35600000 3180861522 3180861522 -4.66700000
39.79485703 51.19243622 1.88704479 28 17 4206 64.86800000 3180861522 3180861522 1.66700000
40.76666641 43.01921463 1.03450882 27 18 4206 59.27600000 3180861524 3180861524 1.00000000
15.03510094 19.34127808 -1.57002974 3 19 4206 24.54800000 3180861524 3180861524 -3.66700000
17.80950356 17.03698158 -1.43533611 3 20 4207 24.68800000 3180861526 3180861526 -3.33300000
40.41781235 47.03984070 3.61182857 39 21 4207 62.12400000 3180861526 3180861526 3.33300000
39.61828613 41.77815628 2.34571624 48 22 4208 57.62400000 3180861529 3180861529 2.33300000
18.01279640 20.95660019 -1.28723705 2 23 4208 27.66400000 3180861529 3180861529 -2.66700000
18.44947243 19.44848442 -1.40490639 4 24 4209 26.84400000 3180861531 3180861531 -3.00000000
18.32489777 23.53936768 -1.21535659 4 27 4210 29.85600000 3180861533 3180861533 -2.33300000
20.86427116 19.93136406 -1.00761831 12 28 4211 28.87200000 3180861535 3180861535 -2.00000000
20.97788811 24.38043594 -0.74842173 17 31 4211 32.17200000 3180861538 3180861538 -1.33300000
3.68936825 3.87557268 -2.49513817 9 0 4219 5.90400000 3180861558 3180861558 -25.00000000
20.99109268 26.87704086 -0.59526670 18 1 4219 34.10800000 3180861558 3180861558 -1.00000000
20.89765739 21.94470215 -0.88190866 14 2 4220 30.31600000 3180861561 3180861561 -1.66700000
5.96007156 6.90480900 -2.55341792 6 3 4220 9.47200000 3180861561 3180861561 -15.63900000
8.23254871 8.64200687 -2.38713956 3 4 4221 12.17200000 3180861563 3180861563 -11.31000000
38.97788239 45.14038467 0.00000000 20 5 4221 59.64000000 3180861563 3180861563 0.00000000
20.95669937 19.94982147 -0.33684638 15 6 4221 28.93600000 3180861565 3180861565 -0.66700000
9.17788410 10.62893009 -2.18477464 2 7 4221 14.21200000 3180861565 3180861565 -8.84300000
11.12754154 11.67690563 -2.05312133 22 8 4222 16.26000000 3180861568 3180861568 -7.25400000
39.94650269 51.09242249 0.37693748 28 9 4222 64.85600000 3180861568 3180861568 0.33300000
35.81032562 37.56513977 -0.30163833 12 10 4223 51.90000000 3180861570 3180861570 -0.33300000
11.69061565 13.52938080 -1.92603338 4 11 4223 17.98400000 3180861570 3180861570 -6.14800000
14.28025150 13.57990170 -1.83954895 2 12 4224 19.79200000 3180861572 3180861572 -5.33300000
40.32465363 46.65068054 1.43487048 18 13 4224 61.68000000 3180861572 3180861572 1.33300000
40.90053940 38.88105392 0.65697616 24 14 4225 56.43600000 3180861575 3180861575 0.66700000
15.17947292 17.55459404 -1.62281466 2 15 4225 23.26400000 3180861575 3180861575 -4.00000000
14.68380928 15.38722038 -1.73631787 2 16 4226 21.34000000 3180861577 3180861577 -4.66700000
40.09162521 51.20432663 1.89263010 28 17 4226 65.06000000 3180861577 3180861577 1.66700000
40.42787170 42.36452484 1.02215254 26 18 4226 58.56800000 3180861579 3180861579 1.00000000
15.08529663 19.26667786 -1.56823885 3 19 4226 24.52000000 3180861579 3180861579 -3.66700000
18.07152557 17.16723061 -1.45161510 3 20 4227 24.96800000 3180861582 3180861582 -3.33300000
40.42498779 46.71728897 3.59787512 38 21 4227 61.88400000 3180861582 3180861582 3.33300000
39.78043747 41.65695190 2.34669328 24 22 4228 57.64800000 3180861584 3180861584 2.33300000
18.08060837 20.88755417 -1.28686476 2 23 4228 27.65600000 3180861584 3180861584 -2.66700000
18.50345230 19.36952400 -1.40385973 4 24 4229 26.82400000 3180861586 3180861586 -3.00000000
115.86244202 121.24312592 13.69038582 28 26 4230 168.26000000 3180861588 3180861588 4.66700000
18.42174911 23.49412918 -1.21633351 4 27 4230 29.88000000 3180861588 3180861588 -2.33300000
20.85251045 19.78137779 -1.00370955 12 28 4231 28.76000000 3180861591 3180861591 -2.00000000
20.98066902 24.20366859 -0.74535102 17 31 4232 32.04000000 3180861593 3180861593 -1.33300000
3.72796130 3.88884044 -2.51204300 12 0 4239 5.94400000 3180861614 3180861614 -25.00000000
20.99329376 26.68729973 -0.59268373 17 1 4239 33.96000000 3180861614 3180861614 -1.00000000
20.88557434 21.77927589 -0.87818503 14 2 4240 30.18800000 3180861616 3180861616 -1.66700000
5.98666430 6.88686991 -2.55449605 6 3 4240 9.47600000 3180861616 3180861616 -15.63900000
8.27352619 8.62453938 -2.39027762 3 4 4241 12.18800000 3180861618 3180861618 -11.31000000
39.11946869 44.98593903 0.00000000 20 5 4241 59.61600000 3180861618 3180861618 0.00000000
20.95354462 19.80785561 -0.33568227 15 6 4241 28.83600000 3180861621 3180861621 -0.66700000
9.20714951 10.58788109 -2.18292975 2 7 4241 14.20000000 3180861621 3180861621 -8.84300000
39.94147873 50.72012329 0.37521714 56 9 4242 64.56000000 3180861623 3180861623 0.33300000
35.98555374 37.48607635 -0.30201030 13 10 4243 51.96400000 3180861625 3180861625 -0.33300000
11.68294621 13.42548847 -1.91703713 2 11 4243 17.90000000 3180861625 3180861625 -6.14800000
14.31308937 13.51630020 -1.83769011 2 12 4244 19.77200000 3180861628 3180861628 -5.33300000
40.42948532 46.44327927 1.43282330 18 13 4244 61.59200000 3180861628 3180861628 1.33300000
40.91967010 38.62822342 0.65511358 24 14 4245 56.27600000 3180861630 3180861630 0.66700000
15.23541641 17.49548340 -1.62225652 4 15 4245 23.25600000 3180861630 3180861630 -4.00000000
14.74019337 15.33874512 -1.73664331 2 16 4246 21.34400000 3180861632 3180861632 -4.66700000
40.40629196 51.23674011 1.89903009 28 17 4246 65.28000000 3180861632 3180861632 1.66700000
39.55294418 41.15906143 0.99639279 24 18 4246 57.09200000 3180861635 3180861635 1.00000000
15.15245819 19.21390343 -1.56823885 3 19 4246 24.52000000 3180861635 3180861635 -3.66700000
18.14295959 17.11500549 -1.45254529 3 20 4247 24.98400000 3180861637 3180861637 -3.33300000
40.45664215 46.42536926 3.58624744 38 21 4247 61.68400000 3180861637 3180861637 3.33300000
39.39370728 40.96472931 2.31543016 22 22 4248 56.88000000 3180861639 3180861639 2.33300000
18.13240433 20.80021858 -1.28537571 2 23 4248 27.62400000 3180861639 3180861639 -2.66700000
97.36808777 101.18041992 11.46327782 28 26 4250 140.88800000 3180861644 3180861644 4.66700000
18.48383141 23.40458870 -1.21503091 4 27 4250 29.84800000 3180861644 3180861644 -2.33300000
20.85741806 19.64816475 -1.00063837 12 28 4251 28.67200000 3180861646 3180861646 -2.00000000
20.97824287 24.03087234 -0.74228030 12 31 4252 31.90800000 3180861648 3180861648 -1.33300000
3.82391047 3.96254230 -2.56782866 14 0 4258 6.07600000 3180861669 3180861669 -25.00000000
20.97738457 26.48586082 -0.58975172 17 1 4258 33.79200000 3180861669 3180861669 -1.00000000
20.87992859 21.62935257 -0.87492692 14 2 4259 30.07600000 3180861671 3180861671 -1.66700000
6.00185919 6.85828304 -2.55126119 6 3 4259 9.46400000 3180861671 3180861671 -15.63900000
8.29390621 8.58859158 -2.38792419 3 4 4260 12.17600000 3180861674 3180861674 -11.31000000
39.13932800 44.70849228 0.00000000 20 5 4260 59.42000000 3180861674 3180861674 0.00000000
20.95788574 19.68076515 -0.33470443 15 6 4260 28.75200000 3180861676 3180861676 -0.66700000
9.23439884 10.54836941 -2.18108511 2 7 4260 14.18800000 3180861676 3180861676 -8.84300000
11.20952225 11.60374641 -2.05362630 2 8 4261 16.26400000 3180861678 3180861678 -7.25400000
40.10945129 50.58739471 0.37521714 28 9 4261 64.56000000 3180861678 3180861678 0.33300000
36.34314728 37.60815048 -0.30396309 13 10 4262 52.30000000 3180861681 3180861681 -0.33300000
11.71691990 13.37470722 -1.91532362 2 11 4262 17.88400000 3180861681 3180861681 -6.14800000
14.36654568 13.47693634 -1.83880544 2 12 4263 19.78400000 3180861683 3180861683 -5.33300000
40.48311996 46.19467163 1.42928731 35 13 4263 61.44000000 3180861683 3180861683 1.33300000
40.88707352 38.34183884 0.65255255 24 14 4264 56.05600000 3180861685 3180861685 0.66700000
15.29071903 17.44186401 -1.62197757 2 15 4264 23.25200000 3180861685 3180861685 -4.00000000
14.79652119 15.29551125 -1.73729420 2 16 4265 21.35200000 3180861688 3180861688 -4.66700000
40.45912170 50.95529556 1.89356101 28 17 4265 65.09200000 3180861688 3180861688 1.66700000
40.50674438 41.87277603 1.01691687 25 18 4265 58.26800000 3180861690 3180861690 1.00000000
15.21112537 19.15729713 -1.56772721 3 19 4265 24.51200000 3180861690 3180861690 -3.66700000
18.17339134 17.03017235 -1.45045233 3 20 4266 24.94800000 3180861692 3180861692 -3.33300000
40.46026611 46.11985016 3.57299161 37 21 4266 61.45600000 3180861692 3180861692 3.33300000
39.62107086 40.92863083 2.32080340 23 22 4267 57.01200000 3180861694 3180861694 2.33300000
18.18810272 20.72495842 -1.28444517 2 23 4267 27.60400000 3180861694 3180861694 -2.66700000
18.46813583 19.07095337 -1.39129901 27 24 4268 26.58400000 3180861697 3180861697 -3.00000000
96.38546753 99.49683380 11.30868530 28 26 4269 138.98800000 3180861699 3180861699 4.66700000
18.55139160 23.33065224 -1.21437955 4 27 4269 29.83200000 3180861699 3180861699 -2.33300000
20.84656906 19.50787354 -0.99700880 12 28 4270 28.56800000 3180861701 3180861701 -2.00000000
20.96542358 23.85604095 -0.73902345 12 31 4271 31.76800000 3180861704 3180861704 -1.33300000
3.66844511 3.77498031 -2.45456696 11 0 4278 5.80800000 3180861724 3180861724 -25.00000000
20.97992516 26.29992104 -0.58723855 17 1 4278 33.64800000 3180861724 3180861724 -1.00000000
20.87726593 21.47606277 -0.87166876 13 2 4279 29.96400000 3180861727 3180861727 -1.66700000
6.02066898 6.83151150 -2.54910469 6 3 4279 9.45600000 3180861727 3180861727 -15.63900000
8.32657051 8.56239986 -2.38870859 1 4 4280 12.18000000 3180861729 3180861729 -11.31000000
39.20521164 44.46958542 0.00000000 20 5 4280 59.28400000 3180861729 3180861729 0.00000000
20.95040131 19.53656578 -0.33349374 15 6 4280 28.64800000 3180861731 3180861731 -0.66700000
9.28423214 10.53089428 -2.18415952 2 7 4280 14.20800000 3180861731 3180861731 -8.84300000
11.24165821 11.55601406 -2.05211115 2 8 4281 16.25200000 3180861734 3180861734 -7.25400000
40.19593430 50.33455658 0.37438023 28 9 4281 64.41600000 3180861734 3180861734 0.33300000
36.47420502 37.48106003 -0.30396309 13 10 4282 52.30000000 3180861736 3180861736 -0.33300000
11.76616573 13.33670807 -1.91575205 2 11 4282 17.88800000 3180861736 3180861736 -6.14800000
14.39018822 13.40498829 -1.83583128 2 12 4283 19.75200000 3180861738 3180861738 -5.33300000
40.60707855 46.01110077 1.42798460 17 13 4283 61.38400000 3180861738 3180861738 1.33300000
40.31815338 37.54469681 0.64137709 22 14 4284 55.09600000 3180861740 3180861740 0.66700000
15.34886837 17.38539124 -1.62169850 4 15 4284 23.24800000 3180861740 3180861740 -4.00000000
14.84704018 15.24091339 -1.73696876 5 16 4285 21.34800000 3180861743 3180861743 -4.66700000
40.73413467 50.93553925 1.89809918 28 17 4285 65.24800000 3180861743 3180861743 1.66700000
40.52708054 41.60221100 1.01377535 25 18 4285 58.08800000 3180861745 3180861745 1.00000000
15.27541161 19.10096550 -1.56747139 3 19 4285 24.50800000 3180861745 3180861745 -3.66700000
18.24734306 16.98023224 -1.45161510 3 20 4286 24.96800000 3180861747 3180861747 -3.33300000
40.09222412 45.37981796 3.52648044 35 21 4286 60.65600000 3180861747 3180861747 3.33300000
39.82228088 40.85017776 2.32422280 46 22 4287 57.09600000 3180861750 3180861750 2.33300000
18.21535301 20.61044693 -1.28128099 2 23 4287 27.53600000 3180861750 3180861750 -2.66700000
18.50670433 18.97777367 -1.38920557 23 24 4288 26.54400000 3180861752 3180861752 -3.00000000
96.97717285 99.41090393 11.33732605 28 26 4289 139.34000000 3180861754 3180861754 4.66700000
20.85304070 19.37784195 -0.99407727 12 28 4290 28.48400000 3180861757 3180861757 -2.00000000
20.96375847 23.68688774 -0.73604578 16 31 4291 31.64000000 3180861759 3180861759 -1.33300000
3.56052899 3.63716197 -2.37342405 6 0 4299 5.61600000 3180861780 3180861780 -25.00000000
20.98597908 26.11062622 -0.58472544 17 1 4299 33.50400000 3180861780 3180861780 -1.00000000
20.88870049 21.33083916 -0.86887610 13 2 4300 29.86800000 3180861782 3180861782 -1.66700000
6.04822445 6.81227922 -2.55018282 6 3 4300 9.46000000 3180861782 3180861782 -15.63900000
8.35240746 8.52622032 -2.38713956 3 4 4301 12.17200000 3180861784 3180861784 -11.31000000
39.24044037 44.18203735 0.00000000 20 5 4301 59.09200000 3180861784 3180861784 0.00000000
20.94848633 19.39171982 -0.33232963 15 6 4301 28.54800000 3180861787 3180861787 -0.66700000
9.30702019 10.47906399 -2.18047023 1 7 4301 14.18400000 3180861787 3180861787 -8.84300000
11.28393745 11.51473427 -2.05211115 2 8 4302 16.25200000 3180861789 3180861789 -7.25400000
40.34003067 50.13703156 0.37400827 28 9 4302 64.35200000 3180861789 3180861789 0.33300000
36.68133545 37.41853333 -0.30454427 13 10 4303 52.40000000 3180861791 3180861791 -0.33300000
11.81761074 13.29646587 -1.91618037 2 11 4303 17.89200000 3180861791 3180861791 -6.14800000
14.43629932 13.34945107 -1.83545947 2 12 4304 19.74800000 3180861793 3180861793 -5.33300000
40.43534088 45.47942734 1.41607392 17 13 4304 60.87200000 3180861793 3180861793 1.33300000
40.43787003 37.38038254 0.64109772 45 14 4305 55.07200000 3180861796 3180861796 0.66700000
15.41778946 17.33498192 -1.62225652 2 15 4305 23.25600000 3180861796 3180861796 -4.00000000
14.90280151 15.18639374 -1.73696876 2 16 4306 21.34800000 3180861798 3180861798 -4.66700000
40.81769562 50.65824890 1.89332831 28 17 4306 65.08400000 3180861798 3180861798 1.66700000
40.65967941 41.43341064 1.01328671 25 18 4306 58.06000000 3180861800 3180861800 1.00000000
15.34030819 19.03863335 -1.56695974 3 19 4306 24.50000000 3180861800 3180861800 -3.66700000
18.28598976 16.89156151 -1.44975460 3 20 4307 24.93600000 3180861803 3180861803 -3.33300000
40.13881302 45.09833527 3.51601553 35 21 4307 60.47600000 3180861803 3180861803 3.33300000
39.96893692 40.70109558 2.32405996 23 22 4308 57.09200000 3180861805 3180861805 2.33300000
18.28014374 20.53160858 -1.28053653 2 23 4308 27.52000000 3180861805 3180861805 -2.66700000
18.54814529 18.88132095 -1.38711214 9 24 4309 26.50400000 3180861807 3180861807 -3.00000000
97.32131958 99.03489685 11.33504772 28 26 4310 139.31200000 3180861810 3180861810 4.66700000
18.52210426 22.95469475 -1.20167887 25 27 4310 29.52000000 3180861810 3180861810 -2.33300000
20.85046577 19.23351860 -0.99058729 12 28 4311 28.38400000 3180861812 3180861812 -2.00000000
20.96915245 23.52699280 -0.73334724 20 31 4311 31.52400000 3180861814 3180861814 -1.33300000
3.56811333 3.61954784 -2.37004328 6 0 4319 5.60800000 3180861835 3180861835 -25.00000000
20.98389053 25.92219543 -0.58214247 16 1 4319 33.35600000 3180861835 3180861835 -1.00000000
20.88442421 21.17807961 -0.86561793 13 2 4320 29.75600000 3180861837 3180861837 -1.66700000
6.06426477 6.78251076 -2.54694796 6 3 4320 9.44800000 3180861837 3180861837 -15.63900000
8.38211918 8.49701309 -2.38713956 3 4 4321 12.17200000 3180861840 3180861840 -11.31000000
39.27442551 43.91062927 0.00000000 19 5 4321 58.91200000 3180861840 3180861840 0.00000000
20.94284630 19.24444580 -0.33111897 14 6 4322 28.44400000 3180861842 3180861842 -0.66700000
9.34536457 10.44488239 -2.18047023 2 7 4322 14.18400000 3180861842 3180861842 -8.84300000
11.31291389 11.46397877 -2.05009079 2 8 4322 16.23600000 3180861844 3180861844 -7.25400000
40.33095932 49.76905441 0.37231120 28 9 4322 64.06000000 3180861844 3180861844 0.33300000
36.88198090 37.36143112 -0.30512547 14 10 4323 52.50000000 3180861846 3180861846 -0.33300000
11.85334206 13.24328041 -1.91446686 2 11 4323 17.87600000 3180861846 3180861846 -6.14800000
14.47694302 13.29359055 -1.83471596 2 12 4324 19.74000000 3180861849 3180861849 -5.33300000
40.18838882 44.88516235 1.40192986 17 13 4324 60.26400000 3180861849 3180861849 1.33300000
40.83329391 37.48242569 0.64528853 23 14 4325 55.43200000 3180861851 3180861851 0.66700000
15.48086834 17.28402901 -1.62253559 2 15 4325 23.26000000 3180861851 3180861851 -4.00000000
14.87445545 15.05204487 -1.72753048 2 16 4326 21.23200000 3180861853 3180861853 -4.66700000
40.20316315 49.54060745 1.85679066 28 17 4326 63.82800000 3180861853 3180861853 1.66700000
40.12522125 40.59011078 0.99625319 24 18 4327 57.08400000 3180861856 3180861856 1.00000000
15.36469841 18.92649651 -1.56235480 3 19 4327 24.42800000 3180861856 3180861856 -3.66700000
18.34189796 16.82493019 -1.44952202 3 20 4327 24.93200000 3180861858 3180861858 -3.33300000
40.14406967 44.78845596 3.50275970 51 21 4327 60.24800000 3180861858 3180861858 3.33300000
39.79602051 40.24304581 2.30582309 22 22 4328 56.64400000 3180861860 3180861860 2.33300000
18.33569717 20.44982529 -1.27941978 2 23 4328 27.49600000 3180861860 3180861860 -2.66700000
18.62517738 18.82781982 -1.38794959 4 24 4329 26.52000000 3180861863 3180861863 -3.00000000
96.52790070 97.54406738 11.20291138 28 26 4330 137.68800000 3180861865 3180861865 4.66700000
18.56430817 22.84337616 -1.19923651 12 27 4330 29.46000000 3180861865 3180861865 -2.33300000
20.85262489 19.10121536 -0.98751616 12 28 4331 28.29600000 3180861867 3180861867 -2.00000000
20.96834564 23.36139870 -0.73046261 16 31 4331 31.40000000 3180861870 3180861870 -1.33300000
3.56540203 3.59163404 -2.35990047 7 0 4339 5.58400000 3180861890 3180861890 -25.00000000
20.98074150 25.73409843 -0.57955950 16 1 4339 33.20800000 3180861890 3180861890 -1.00000000
20.89342308 21.03979874 -0.86294162 13 2 4340 29.66400000 3180861893 3180861893 -1.66700000
6.08790302 6.76130152 -2.54694796 6 3 4340 9.44800000 3180861893 3180861893 -15.63900000
8.40343475 8.45935440 -2.38478637 3 4 4341 12.16000000 3180861895 3180861895 -11.31000000
39.26684189 43.59494019 0.00000000 19 5 4341 58.67200000 3180861895 3180861895 0.00000000
20.94489288 19.11191368 -0.33009455 14 6 4342 28.35600000 3180861897 3180861897 -0.66700000
9.37647629 10.40632439 -2.17924023 2 7 4342 14.17600000 3180861897 3180861897 -8.84300000
11.35006523 11.42160416 -2.04958582 2 8 4342 16.23200000 3180861899 3180861899 -7.25400000
40.29704666 49.37386322 0.37040487 28 9 4342 63.73200000 3180861899 3180861899 0.33300000
37.15317154 37.37429810 -0.30628785 14 10 4343 52.70000000 3180861902 3180861902 -0.33300000
11.88884735 13.19000721 -1.91275334 2 11 4343 17.86000000 3180861902 3180861902 -6.14800000
14.52031517 13.24029160 -1.83434415 4 12 4344 19.73600000 3180861904 3180861904 -5.33300000
40.17879486 44.56047058 1.39616060 17 13 4344 60.01600000 3180861904 3180861904 1.33300000
40.39042282 36.81694031 0.63625503 22 14 4345 54.65600000 3180861906 3180861906 0.66700000
15.53576183 17.22396088 -1.62197757 2 15 4345 23.25200000 3180861906 3180861906 -4.00000000
14.91565704 14.98872757 -1.72622871 2 16 4346 21.21600000 3180861909 3180861909 -4.66700000
40.41633224 49.44950104 1.85865235 28 17 4346 63.89200000 3180861909 3180861909 1.66700000
40.38655090 40.58440018 0.99939460 24 18 4346 57.26400000 3180861911 3180861911 1.00000000
15.40211487 18.84453392 -1.55979645 3 19 4346 24.38800000 3180861911 3180861911 -3.66700000
18.21453476 16.59139252 -1.43487108 3 20 4347 24.68000000 3180861913 3180861913 -3.33300000
40.06203842 44.38423157 3.48206234 33 21 4347 59.89200000 3180861913 3180861913 3.33300000
39.85728836 40.02458954 2.30126405 22 22 4348 56.53200000 3180861916 3180861916 2.33300000
18.39090157 20.36790276 -1.27830303 5 23 4348 27.47200000 3180861916 3180861916 -2.66700000
18.71051788 18.78250122 -1.38941503 4 24 4349 26.54800000 3180861918 3180861918 -3.00000000
97.28992462 97.63011932 11.25172997 28 26 4350 138.28800000 3180861920 3180861920 4.66700000
18.68190575 22.82482719 -1.20167887 4 27 4350 29.52000000 3180861920 3180861920 -2.33300000
20.84820175 18.96375275 -0.98416579 12 28 4351 28.20000000 3180861923 3180861923 -2.00000000
53.29336929 58.96025085 21.29563141 28 29 4351 82.28000000 3180861923 3180861923 15.00000000
20.96127510 23.19016457 -0.72739184 20 31 4351 31.26800000 3180861925 3180861925 -1.33300000
3.56766558 3.56891108 -2.35313845 6 0 4359 5.56800000 3180861946 3180861946 -25.00000000
20.98161316 25.55252457 -0.57711619 16 1 4359 33.06800000 3180861946 3180861946 -1.00000000
20.89040375 20.89040375 -0.85979980 13 2 4360 29.55600000 3180861948 3180861948 -1.66700000
6.11146736 6.74000931 -2.54694796 6 3 4360 9.44800000 3180861948 3180861948 -15.63900000
8.43846035 8.43551540 -2.38635516 3 4 4361 12.16800000 3180861951 3180861951 -11.31000000
39.32740402 43.35687637 0.00000000 19 5 4361 58.53600000 3180861951 3180861951 0.00000000
20.94592285 18.98594284 -0.32911670 14 6 4361 28.27200000 3180861953 3180861953 -0.66700000
9.41093349 10.37517357 -2.17924023 2 7 4361 14.17600000 3180861953 3180861953 -8.84300000
11.38705826 11.37911129 -2.04908085 2 8 4362 16.22800000 3180861955 3180861955 -7.25400000
40.14149475 48.83429337 0.36740592 28 9 4362 63.21600000 3180861955 3180861955 0.33300000
37.28340530 37.24438095 -0.30628785 14 10 4363 52.70000000 3180861958 3180861958 -0.33300000
11.92947006 13.14253712 -1.91189647 2 11 4363 17.85200000 3180861958 3180861958 -6.14800000
14.55758667 13.18150616 -1.83322883 2 12 4364 19.72400000 3180861960 3180861960 -5.33300000
40.59753799 44.71008301 1.40527976 17 13 4364 60.40800000 3180861960 3180861960 1.33300000
40.53055573 36.68646240 0.63644129 22 14 4365 54.67200000 3180861962 3180861962 0.66700000
15.59310722 17.16667175 -1.62169850 2 15 4365 23.24800000 3180861962 3180861962 -4.00000000
14.95942116 14.92812252 -1.72525227 2 16 4366 21.20400000 3180861964 3180861964 -4.66700000
40.41082001 49.09203339 1.85050702 28 17 4366 63.61200000 3180861964 3180861964 1.66700000
40.32414246 40.23977280 0.99436831 23 18 4366 56.97600000 3180861967 3180861967 1.00000000
15.46526337 18.78757286 -1.55954063 3 19 4366 24.38400000 3180861967 3180861967 -3.66700000
18.29010582 16.54378319 -1.43626642 3 20 4367 24.70400000 3180861969 3180861969 -3.33300000
39.83531952 43.82452011 3.44903922 32 21 4367 59.32400000 3180861969 3180861969 3.33300000
39.57791138 39.46754456 2.27716517 42 22 4368 55.94000000 3180861971 3180861971 2.33300000
18.46457481 20.30653763 -1.27848911 5 23 4368 27.47600000 3180861971 3180861971 -2.66700000
18.84669304 18.78757668 -1.39464855 4 24 4369 26.64800000 3180861974 3180861974 -3.00000000
96.98060608 96.64266968 11.17687511 28 26 4370 137.36800000 3180861976 3180861976 4.66700000
18.75638008 22.75330925 -1.20135331 4 27 4370 29.51200000 3180861976 3180861976 -2.33300000
20.85493851 18.83727264 -0.98137385 12 28 4371 28.12000000 3180861978 3180861978 -2.00000000
20.96133995 23.02813721 -0.72460032 16 31 4371 31.14800000 3180861981 3180861981 -1.33300000
3.57176638 3.54939461 -2.34806705 6 0 4378 5.55600000 3180862001 3180862001 -25.00000000
20.96940041 25.36567307 -0.57446343 16 1 4378 32.91600000 3180862001 3180862001 -1.00000000
20.88581276 20.74774933 -0.85677439 13 2 4379 29.45200000 3180862004 3180862004 -1.66700000
6.12339687 6.70832634 -2.54263473 6 3 4379 9.43200000 3180862004 3180862004 -15.63900000
8.46638680 8.40748596 -2.38635516 4 4 4380 12.16800000 3180862006 3180862006 -11.31000000
39.28755569 43.02536011 0.00000000 19 5 4380 58.26400000 3180862006 3180862006 0.00000000
20.94337463 18.85750008 -0.32809228 14 6 4380 28.18400000 3180862008 3180862008 -0.66700000
9.43995667 10.33807087 -2.17801046 2 7 4380 14.16800000 3180862008 3180862008 -8.84300000
11.43036175 11.34687805 -2.05009079 2 8 4381 16.23600000 3180862011 3180862011 -7.25400000
40.15530396 48.52217865 0.36605757 28 9 4381 62.98400000 3180862011 3180862011 0.33300000
37.54866791 37.26141357 -0.30745023 14 10 4382 52.90000000 3180862013 3180862013 -0.33300000
11.97030449 13.09996986 -1.91146815 2 11 4382 17.84800000 3180862013 3180862013 -6.14800000
14.60121822 13.13315964 -1.83322883 2 12 4383 19.72400000 3180862015 3180862015 -5.33300000
40.48387146 44.28890228 1.39625371 17 13 4383 60.02000000 3180862015 3180862015 1.33300000
40.32482147 36.25769043 0.63131922 43 14 4384 54.23200000 3180862017 3180862017 0.66700000
15.64456272 17.10898018 -1.62114048 2 15 4384 23.24000000 3180862017 3180862017 -4.00000000
15.00601101 14.87562656 -1.72492683 2 16 4385 21.20000000 3180862020 3180862020 -4.66700000
40.34632874 48.68376923 1.84015083 28 17 4385 63.25600000 3180862020 3180862020 1.66700000
40.62777710 40.27477264 0.99855691 24 18 4385 57.21600000 3180862022 3180862022 1.00000000
15.52238655 18.73003769 -1.55902898 3 19 4385 24.37600000 3180862022 3180862022 -3.66700000
18.34486771 16.48303986 -1.43626642 3 20 4386 24.70400000 3180862024 3180862024 -3.33300000
39.98042679 43.69218063 3.44903922 32 21 4386 59.32400000 3180862024 3180862024 3.33300000
39.75400162 39.38108444 2.27977061 42 22 4387 56.00400000 3180862027 3180862027 2.33300000
18.90889168 18.72497559 -1.39464855 4 24 4388 26.64800000 3180862029 3180862029 -3.00000000
97.86721039 96.88149261 11.24196625 28 26 4389 138.16800000 3180862031 3180862031 4.66700000
18.92106438 22.79862785 -1.20705223 4 27 4389 29.65200000 3180862031 3180862031 -2.33300000
20.84588051 18.70393944 -0.97802347 12 28 4390 28.02400000 3180862034 3180862034 -2.00000000
20.95113754 22.86415291 -0.72162259 20 31 4390 31.02000000 3180862036 3180862036 -1.33300000
3.57123256 3.52417326 -2.33961463 5 0 4398 5.53600000 3180862057 3180862057 -25.00000000
20.97080994 25.18782043 -0.57208991 16 1 4398 32.78000000 3180862057 3180862057 -1.00000000
20.88694763 20.60451889 -0.85386539 13 2 4399 29.35200000 3180862059 3180862059 -1.66700000
6.14677620 6.68691063 -2.54263473 6 3 4399 9.43200000 3180862059 3180862059 -15.63900000
8.40072823 8.28424358 -2.35968328 3 4 4400 12.03200000 3180862061 3180862061 -11.31000000
39.53226471 42.99101257 0.00000000 19 5 4400 58.40400000 3180862061 3180862061 0.00000000
20.94049263 18.72296143 -0.32702130 14 6 4400 28.09200000 3180862064 3180862064 -0.66700000
9.47063446 10.29923820 -2.17678070 2 7 4400 14.16000000 3180862064 3180862064 -8.84300000
11.46707439 11.30412388 -2.04958582 2 8 4401 16.23200000 3180862066 3180862066 -7.25400000
40.18358231 48.21271896 0.36477894 56 9 4401 62.76400000 3180862066 3180862066 0.33300000
37.76967239 37.21996307 -0.30819416 15 10 4402 53.02800000 3180862068 3180862068 -0.33300000
12.01057339 13.05225277 -1.91061139 2 11 4402 17.84000000 3180862068 3180862068 -6.14800000
