# .PCD v0.7 - Point Cloud Data file format
VERSION 0.7
FIELDS x y z intensity laser_id azimuth distance_m adjustedtime timestamp vertical_angle
SIZE 4 4 4 1 1 2 8 8 4 8
TYPE F F F U U U F U U F
COUNT 1 1 1 1 1 1 1 1 1 1
WIDTH 523
HEIGHT 1
VIEWPOINT 0 0 0 1 0 0 0
POINTS 523
DATA ascii
19.54334450 11.97617722 -1.46897674 5 19 6270 22.96800000 3181067280 3181067280 -3.66700000
20.65884018 8.80748081 -1.30789542 10 20 6271 22.49600000 3181067283 3181067283 -3.33300000
40.25979996 22.03246498 2.67276716 15 21 6271 45.97200000 3181067283 3181067283 3.33300000
40.85613632 19.82105255 1.85006452 19 22 6272 45.44800000 3181067285 3181067285 2.33300000
20.72424316 11.33679104 -1.10036802 24 23 6272 23.64800000 3181067285 3181067285 -2.66700000
20.68469620 10.03056812 -1.20477366 31 24 6273 23.02000000 3181067287 3181067287 -3.00000000
45.44482803 24.84939766 6.35962963 28 25 6273 52.18400000 3181067287 3181067287 7.00000000
20.75856209 12.70093727 -0.99146652 25 27 6274 24.35600000 3181067289 3181067289 -2.33300000
20.72417259 8.81824112 -0.78649503 18 28 6275 22.53600000 3181067292 3181067292 -2.00000000
20.84377670 11.38328075 -0.55263919 20 31 6276 23.75600000 3181067294 3181067294 -1.33300000
5.28553200 2.55171275 -2.73687577 6 0 6283 6.47600000 3181067315 3181067315 -25.00000000
34.48580170 21.02544594 -0.70500743 8 1 6283 40.39600000 3181067315 3181067315 -1.00000000
20.77756691 10.02637959 -0.67140955 23 2 6284 23.08000000 3181067317 3181067317 -1.66700000
7.80843496 4.25022793 -2.48871970 5 3 6284 9.23200000 3181067317 3181067317 -15.63900000
10.38298225 5.00815630 -2.30555487 2 4 6285 11.75600000 3181067319 3181067319 -11.31000000
40.55750275 22.06677628 0.00000000 16 5 6285 46.17200000 3181067319 3181067319 0.00000000
40.10562897 16.98254013 -0.50703901 22 6 6285 43.55600000 3181067322 3181067322 -0.66700000
12.00908184 6.53397512 -2.12697291 2 7 6285 13.83600000 3181067322 3181067322 -8.84300000
14.27200985 6.88093042 -2.01675606 2 8 6286 15.97200000 3181067324 3181067324 -7.25400000
40.45954895 24.63849640 0.27532196 29 9 6286 47.37200000 3181067324 3181067324 0.33300000
40.91230392 19.71615219 -0.26395386 8 10 6287 45.41600000 3181067326 3181067326 -0.33300000
15.16071129 8.24187565 -1.85877633 2 11 6287 17.35600000 3181067326 3181067326 -6.14800000
17.71764946 7.49151754 -1.79567945 2 12 6288 19.32000000 3181067329 3181067329 -5.33300000
40.53699112 22.02811432 1.07354736 16 13 6288 46.14800000 3181067329 3181067329 1.33300000
40.37537003 17.06352806 0.51029855 23 14 6289 43.83600000 3181067331 3181067331 0.66700000
19.29557037 10.48100090 -1.53547955 6 15 6289 22.01200000 3181067331 3181067331 -4.00000000
18.33898544 8.82595825 -1.66146255 7 16 6290 20.42000000 3181067333 3181067333 -4.66700000
40.12548828 24.39667892 1.36667323 28 17 6290 46.98000000 3181067333 3181067333 1.66700000
40.81257248 19.64176369 0.79059404 11 18 6290 45.30000000 3181067336 3181067336 1.00000000
19.58502960 11.90788460 -1.46897674 5 19 6290 22.96800000 3181067336 3181067336 -3.66700000
20.66002846 8.72288895 -1.30603492 10 20 6291 22.46400000 3181067338 3181067338 -3.33300000
40.31540680 21.88036919 2.67137170 15 21 6291 45.94800000 3181067338 3181067338 3.33300000
40.79180527 19.61423492 1.84403980 9 22 6292 45.30000000 3181067340 3181067340 2.33300000
20.72505569 11.24342251 -1.09832060 26 23 6292 23.60400000 3181067340 3181067340 -2.66700000
20.69438171 9.94619083 -1.20330834 27 24 6293 22.99200000 3181067342 3181067342 -3.00000000
45.17879486 24.49946404 6.31039476 27 25 6293 51.78000000 3181067342 3181067342 7.00000000
42.76340866 20.54388237 3.87294888 22 26 6294 47.60000000 3181067345 3181067345 4.66700000
20.76177406 12.60351181 -0.98951256 28 27 6294 24.30800000 3181067345 3181067345 -2.33300000
20.71430588 8.72877121 -0.78495950 18 28 6295 22.49200000 3181067347 3181067347 -2.00000000
20.83064079 11.28188610 -0.55124336 20 31 6296 23.69600000 3181067349 3181067349 -1.33300000
3.61353898 1.72899199 -1.86797273 15 0 6303 4.42000000 3181067370 3181067370 -25.00000000
34.54529572 20.89665985 -0.70472819 8 1 6303 40.38000000 3181067370 3181067370 -1.00000000
20.76194191 9.92963982 -0.66978043 20 2 6304 23.02400000 3181067372 3181067372 -1.66700000
7.80966520 4.21562672 -2.48440647 4 3 6304 9.21600000 3181067372 3181067372 -15.63900000
10.40393925 4.97357416 -2.30633926 2 4 6305 11.76000000 3181067375 3181067375 -11.31000000
40.57091904 21.89087868 0.00000000 16 5 6305 46.10000000 3181067375 3181067375 0.00000000
40.11302567 16.82078743 -0.50638711 22 6 6305 43.50000000 3181067377 3181067377 -0.66700000
12.02485943 6.48826218 -2.12574315 2 7 6305 13.82800000 3181067377 3181067377 -8.84300000
14.29594231 6.83106995 -2.01675606 4 8 6306 15.97200000 3181067379 3181067379 -7.25400000
40.44260025 24.43506050 0.27462456 19 9 6306 47.25200000 3181067379 3181067379 0.33300000
40.81123734 19.49219894 -0.26286122 17 10 6307 45.22800000 3181067382 3181067382 -0.33300000
15.18588829 8.18701744 -1.85834801 2 11 6307 17.35200000 3181067382 3181067382 -6.14800000
17.67021942 7.39886093 -1.78824389 2 12 6308 19.24000000 3181067384 3181067384 -5.33300000
40.65587997 21.90924454 1.07466400 16 13 6308 46.19600000 3181067384 3181067384 1.33300000
40.36827469 16.89469337 0.50946039 23 14 6309 43.76400000 3181067386 3181067386 0.66700000
19.33203888 10.41358280 -1.53547955 4 15 6309 22.01200000 3181067386 3181067386 -4.00000000
18.39846992 8.77561951 -1.66406620 5 16 6310 20.45200000 3181067389 3181067389 -4.66700000
40.13508224 24.21102905 1.36411333 19 17 6310 46.89200000 3181067389 3181067389 1.66700000
40.84117889 19.48024368 0.78982610 22 18 6310 45.25600000 3181067391 3181067391 1.00000000
19.61622238 11.83326244 -1.46820927 5 19 6310 22.95600000 3181067391 3181067391 -3.66700000
20.65350914 8.63531494 -1.30370939 10 20 6311 22.42400000 3181067393 3181067393 -3.33300000
40.39505386 21.74140167 2.67160439 15 21 6311 45.95200000 3181067393 3181067393 3.33300000
40.80229568 19.44421577 1.84143460 9 22 6312 45.23600000 3181067395 3181067395 2.33300000
20.72547150 11.15018559 -1.09627330 24 23 6312 23.56000000 3181067395 3181067395 -2.66700000
20.70012283 9.86015129 -1.20163357 27 24 6313 22.96000000 3181067398 3181067398 -3.00000000
46.71514511 25.12197113 6.51269770 33 25 6313 53.44000000 3181067398 3181067398 7.00000000
42.75207138 20.35506630 3.86546350 22 26 6314 47.50800000 3181067400 3181067400 4.66700000
20.75770950 12.50209427 -0.98723298 25 27 6314 24.25200000 3181067400 3181067400 -2.33300000
20.70775604 8.64101696 -0.78356349 18 28 6315 22.45200000 3181067402 3181067402 -2.00000000
20.82057381 11.18261528 -0.54994065 20 31 6316 23.64000000 3181067405 3181067405 -1.33300000
3.62282801 1.71792114 -1.86966324 13 0 6323 4.42400000 3181067425 3181067425 -25.00000000
34.65232086 20.79652786 -0.70542628 8 1 6323 40.42000000 3181067425 3181067425 -1.00000000
20.75312042 9.83655643 -0.66838413 20 2 6324 22.97600000 3181067428 3181067428 -1.66700000
7.83112478 4.19197607 -2.48656321 4 3 6324 9.22400000 3181067428 3181067428 -15.63900000
10.41769218 4.93554783 -2.30555487 2 4 6325 11.75600000 3181067430 3181067430 -11.31000000
40.62945175 21.73969078 0.00000000 16 5 6325 46.08000000 3181067430 3181067430 0.00000000
40.18257523 16.68526459 -0.50652683 22 6 6325 43.51200000 3181067432 3181067432 -0.66700000
12.05440426 6.44997740 -2.12697291 2 7 6325 13.83600000 3181067432 3181067432 -8.84300000
14.31970024 6.78112602 -2.01675606 2 8 6326 15.97200000 3181067435 3181067435 -7.25400000
40.47618484 24.26289368 0.27427584 19 9 6326 47.19200000 3181067435 3181067435 0.33300000
40.85372162 19.33764267 -0.26269850 17 10 6327 45.20000000 3181067437 3181067437 -0.33300000
15.21788025 8.13583374 -1.85877633 2 11 6327 17.35600000 3181067437 3181067437 -6.14800000
17.75848007 7.36306715 -1.79456413 2 12 6328 19.30800000 3181067439 3181067439 -5.33300000
40.72858047 21.76531029 1.07457101 16 13 6328 46.19200000 3181067439 3181067439 1.33300000
40.37896729 16.73377228 0.50885504 23 14 6329 43.71200000 3181067441 3181067441 0.66700000
19.36123276 10.34227848 -1.53492141 4 15 6329 22.00400000 3181067441 3181067441 -4.00000000
18.42898941 8.71134377 -1.66406620 5 16 6330 20.45200000 3181067444 3181067444 -4.66700000
40.19533539 24.05641174 1.36329877 19 17 6330 46.86400000 3181067444 3181067444 1.66700000
40.67390442 19.22646523 0.78528845 11 18 6330 44.99600000 3181067446 3181067446 1.00000000
19.65055847 11.76061726 -1.46769762 5 19 6330 22.94800000 3181067446 3181067446 -3.66700000
20.66138840 8.55400276 -1.30231404 10 20 6331 22.40000000 3181067448 3181067448 -3.33300000
40.40024185 21.56265831 2.66695309 15 21 6331 45.87200000 3181067448 3181067448 3.33300000
40.77234268 19.25558853 1.83703816 9 22 6332 45.12800000 3181067451 3181067451 2.33300000
20.71138573 11.04956055 -1.09348142 24 23 6332 23.50000000 3181067451 3181067451 -2.66700000
20.69106865 9.76737213 -1.19912148 27 24 6333 22.91200000 3181067453 3181067453 -3.00000000
43.02116776 20.29927826 3.88336349 33 26 6334 47.72800000 3181067455 3181067455 4.66700000
20.76348495 12.40700912 -0.98544186 25 27 6334 24.20800000 3181067455 3181067455 -2.33300000
20.71193123 8.55799484 -0.78258634 21 28 6335 22.42400000 3181067458 3181067458 -2.00000000
20.82418633 11.09107113 -0.54901010 20 31 6336 23.60000000 3181067460 3181067460 -1.33300000
3.63536453 1.70834827 -1.87304413 8 0 6343 4.43200000 3181067481 3181067481 -25.00000000
34.75219345 20.69181061 -0.70598477 8 1 6343 40.45200000 3181067481 3181067481 -1.00000000
20.75475883 9.74875641 -0.66733682 20 2 6344 22.94000000 3181067483 3181067483 -1.66700000
7.83890533 4.16100264 -2.48440647 5 3 6344 9.21600000 3181067483 3181067483 -15.63900000
10.43485737 4.89915323 -2.30555487 2 4 6345 11.75600000 3181067485 3181067485 -11.31000000
40.68741989 21.58836174 0.00000000 16 5 6345 46.06000000 3181067485 3181067485 0.00000000
40.19248581 16.52512741 -0.50592148 22 6 6345 43.46000000 3181067488 3181067488 -0.66700000
12.07684612 6.40786076 -2.12697291 2 7 6345 13.83600000 3181067488 3181067488 -8.84300000
14.33969116 6.72941399 -2.01625109 3 8 6346 15.96800000 3181067490 3181067490 -7.25400000
40.22371674 23.92109299 0.27199757 29 9 6346 46.80000000 3181067490 3181067490 0.33300000
40.73628616 19.10828781 -0.26151288 16 10 6347 44.99600000 3181067492 3181067492 -0.33300000
15.23915958 8.07893848 -1.85791957 2 11 6347 17.34800000 3181067492 3181067492 -6.14800000
17.78407478 7.30103350 -1.79456413 2 12 6348 19.30800000 3181067494 3181067494 -5.33300000
40.67003632 21.55185699 1.07103503 24 13 6348 46.04000000 3181067494 3181067494 1.33300000
40.37792587 16.56842804 0.50810999 23 14 6349 43.64800000 3181067497 3181067497 0.66700000
19.39721489 10.27463150 -1.53492141 4 15 6349 22.00400000 3181067497 3181067497 -4.00000000
18.46650696 8.65034389 -1.66471708 5 16 6350 20.46000000 3181067499 3181067499 -4.66700000
40.17248535 23.85267639 1.35969162 19 17 6350 46.74000000 3181067499 3181067499 1.66700000
40.62125015 19.02838516 0.78298473 22 18 6350 44.86400000 3181067501 3181067501 1.00000000
19.68119431 11.68583775 -1.46693015 5 19 6350 22.93600000 3181067501 3181067501 -3.66700000
20.65417480 8.46668339 -1.29998851 10 20 6351 22.36000000 3181067504 3181067504 -3.33300000
40.64114380 21.50929832 2.67788339 15 21 6351 46.06000000 3181067504 3181067504 3.33300000
40.82482910 19.10637283 1.83638680 9 22 6352 45.11200000 3181067506 3181067506 2.33300000
20.71450996 10.95851326 -1.09162021 26 23 6352 23.46000000 3181067506 3181067506 -2.66700000
20.68885422 9.67816162 -1.19702804 27 24 6353 22.87200000 3181067508 3181067508 -3.00000000
42.51031876 19.87710953 3.83096480 22 26 6354 47.08400000 3181067511 3181067511 4.66700000
20.75853539 12.30592251 -0.98316222 25 27 6354 24.15200000 3181067511 3181067511 -2.33300000
20.70467758 8.47050762 -0.78119034 18 28 6355 22.38400000 3181067513 3181067513 -2.00000000
20.81842232 10.99953747 -0.54789346 20 31 6355 23.55200000 3181067515 3181067515 -1.33300000
5.31735802 2.47613597 -2.73518538 8 0 6363 6.47200000 3181067536 3181067536 -25.00000000
34.80699158 20.56020546 -0.70563573 8 1 6363 40.43200000 3181067536 3181067536 -1.00000000
20.75603867 9.66106415 -0.66628957 20 2 6364 22.90400000 3181067538 3181067538 -1.66700000
7.84997368 4.13182020 -2.48332834 3 3 6364 9.21200000 3181067538 3181067538 -15.63900000
10.44833851 4.86104441 -2.30477047 2 4 6365 11.75200000 3181067541 3181067541 -11.31000000
40.59615326 21.35866928 0.00000000 16 5 6365 45.87200000 3181067541 3181067541 0.00000000
40.18980026 16.35207939 -0.50512987 33 6 6366 43.39200000 3181067543 3181067543 -0.66700000
12.08625793 6.35619497 -2.12451339 2 7 6366 13.82000000 3181067543 3181067543 -8.84300000
14.36669159 6.68099117 -2.01675606 2 8 6366 15.97200000 3181067545 3181067545 -7.25400000
40.10371399 23.66061974 0.27062595 29 9 6366 46.56400000 3181067545 3181067545 0.33300000
40.80999374 18.96934700 -0.26155937 16 10 6367 45.00400000 3181067547 3181067547 -0.33300000
15.27078819 8.02754498 -1.85834801 2 11 6367 17.35200000 3181067547 3181067547 -6.14800000
17.80576134 7.23741150 -1.79419231 4 12 6368 19.30400000 3181067550 3181067550 -5.33300000
40.57863998 21.32233620 1.06666148 16 13 6368 45.85200000 3181067550 3181067550 1.33300000
40.37252045 16.40178871 0.50731838 23 14 6369 43.58000000 3181067552 3181067552 0.66700000
19.42943001 10.20500469 -1.53464246 4 15 6369 22.00000000 3181067552 3181067552 -4.00000000
18.49297333 8.58415222 -1.66439164 5 16 6370 20.45600000 3181067554 3181067554 -4.66700000
40.14181519 23.64533615 1.35585165 28 17 6370 46.60800000 3181067554 3181067554 1.66700000
40.64355850 18.85749054 0.78207725 22 18 6371 44.81200000 3181067557 3181067557 1.00000000
19.72733307 11.61564922 -1.46718597 5 19 6371 22.94000000 3181067557 3181067557 -3.66700000
20.65030098 8.38101959 -1.29789555 10 20 6371 22.32400000 3181067559 3181067559 -3.33300000
40.55686188 21.28380013 2.66741824 15 21 6371 45.88000000 3181067559 3181067559 3.33300000
40.71723938 18.88303947 1.82857108 9 22 6372 44.92000000 3181067561 3181067561 2.33300000
20.71725273 10.86757755 -1.08975887 26 23 6372 23.42000000 3181067561 3181067561 -2.66700000
20.67539787 9.58404541 -1.19430649 31 24 6373 22.82000000 3181067564 3181067564 -3.00000000
46.40955734 24.33457375 6.43421364 46 25 6373 52.79600000 3181067564 3181067564 7.00000000
45.46606445 21.06607628 4.09068012 12 26 6374 50.27600000 3181067566 3181067566 4.66700000
20.75313377 12.20502186 -0.98088264 24 27 6374 24.09600000 3181067566 3181067566 -2.33300000
20.70818329 8.38767815 -0.78021318 18 28 6375 22.35600000 3181067568 3181067568 -2.00000000
20.82126808 10.90824223 -0.54696298 20 31 6375 23.51200000 3181067571 3181067571 -1.33300000
5.31938553 2.45452213 -2.73180437 7 0 6383 6.46400000 3181067591 3181067591 -25.00000000
34.87854767 20.43858147 -0.70563573 8 1 6383 40.43200000 3181067591 3181067591 -1.00000000
20.75695801 9.57348156 -0.66524231 19 2 6384 22.86800000 3181067594 3181067594 -1.66700000
7.87117815 4.10795784 -2.48548484 4 3 6384 9.22000000 3181067594 3181067594 -15.63900000
10.46880531 4.82618523 -2.30555487 2 4 6385 11.75600000 3181067596 3181067596 -11.31000000
40.52151108 21.13912773 0.00000000 16 5 6385 45.70400000 3181067596 3181067596 0.00000000
40.20582581 16.19525146 -0.50461769 11 6 6386 43.34800000 3181067598 3181067598 -0.66700000
12.12238979 6.32127714 -2.12697291 2 7 6386 13.83600000 3181067598 3181067598 -8.84300000
14.38271809 6.62748003 -2.01574588 2 8 6386 15.96400000 3181067600 3181067600 -7.25400000
40.17570496 23.51442719 0.27055621 29 9 6386 46.55200000 3181067600 3181067600 0.33300000
40.87959290 18.82845116 -0.26158261 16 10 6387 45.00800000 3181067603 3181067603 -0.33300000
15.30224323 7.97602987 -1.85877633 2 11 6387 17.35600000 3181067603 3181067603 -6.14800000
17.83461189 7.17670059 -1.79456413 2 12 6388 19.30800000 3181067605 3181067605 -5.33300000
40.63154602 21.16947365 1.06610322 16 13 6388 45.82800000 3181067605 3181067605 1.33300000
40.36273193 16.23389816 0.50648022 23 14 6389 43.50800000 3181067607 3181067607 0.66700000
19.46493340 10.13712120 -1.53464246 6 15 6389 22.00000000 3181067607 3181067607 -4.00000000
18.51920319 8.51788139 -1.66406620 5 16 6390 20.45200000 3181067610 3181067610 -4.66700000
40.25172424 23.52120972 1.35678256 19 17 6390 46.64000000 3181067610 3181067610 1.66700000
40.67316818 18.70756721 0.78144896 11 18 6390 44.77600000 3181067612 3181067612 1.00000000
19.75540352 11.54412556 -1.46641850 5 19 6390 22.92800000 3181067612 3181067612 -3.66700000
20.64978790 8.29697514 -1.29603505 13 20 6391 22.29200000 3181067614 3181067614 -3.33300000
40.62382507 21.13841438 2.66695309 7 21 6391 45.87200000 3181067614 3181067614 3.33300000
40.73206329 18.71743202 1.82629144 9 22 6392 44.86400000 3181067617 3181067617 2.33300000
20.71252441 10.77306938 -1.08752537 26 23 6392 23.37200000 3181067617 3181067617 -2.66700000
20.67968750 9.49847794 -1.19263172 27 24 6393 22.78800000 3181067619 3181067619 -3.00000000
43.81355286 22.77874184 6.06324339 10 25 6393 49.75200000 3181067619 3181067619 7.00000000
20.75418472 12.10833740 -0.97892869 22 27 6394 24.04800000 3181067621 3181067621 -2.33300000
20.70394325 8.30195141 -0.77895677 18 28 6395 22.32000000 3181067624 3181067624 -2.00000000
20.80953598 10.80968857 -0.54566020 22 31 6395 23.45600000 3181067626 3181067626 -1.33300000
5.32792091 2.43593907 -2.73180437 7 0 6403 6.46400000 3181067647 3181067647 -25.00000000
34.85286713 20.26042938 -0.70368105 8 1 6403 40.32000000 3181067647 3181067647 -1.00000000
20.74297333 9.47936344 -0.66372961 19 2 6404 22.81600000 3181067649 3181067649 -1.66700000
7.88204861 4.07868719 -2.48440647 3 3 6404 9.21600000 3181067649 3181067649 -15.63900000
10.48202038 4.78798342 -2.30477047 2 4 6405 11.75200000 3181067652 3181067652 -11.31000000
40.66611099 21.03430748 0.00000000 16 5 6405 45.78400000 3181067652 3181067652 0.00000000
40.25187683 16.05887032 -0.50452453 11 6 6405 43.34000000 3181067654 3181067654 -0.66700000
12.13626385 6.27741146 -2.12574315 2 7 6405 13.82800000 3181067654 3181067654 -8.84300000
14.40576458 6.57723475 -2.01574588 3 8 6406 15.96400000 3181067656 3181067656 -7.25400000
40.28867340 23.39212036 0.27076542 19 9 6406 46.58800000 3181067656 3181067656 0.33300000
40.63212204 18.54282379 -0.25958332 16 10 6407 44.66400000 3181067659 3181067659 -0.33300000
15.32999134 7.92256641 -1.85877633 2 11 6407 17.35600000 3181067659 3181067659 -6.14800000
17.87065506 7.11882401 -1.79567945 4 12 6408 19.32000000 3181067661 3181067661 -5.33300000
40.63413620 20.99080658 1.06424212 16 13 6408 45.74800000 3181067661 3181067661 1.33300000
40.36712646 16.07219315 0.50582832 22 14 6409 43.45200000 3181067663 3181067663 0.66700000
19.48601913 10.06179142 -1.53352630 4 15 6409 21.98400000 3181067663 3181067663 -4.00000000
18.54882240 8.45318604 -1.66406620 5 16 6410 20.45200000 3181067665 3181067665 -4.66700000
40.18484116 23.29433823 1.35177898 28 17 6410 46.46800000 3181067665 3181067665 1.66700000
40.45071793 18.43445396 0.77593398 21 18 6410 44.46000000 3181067668 3181067668 1.00000000
19.79212570 11.47309399 -1.46616268 5 19 6410 22.92400000 3181067668 3181067668 -3.66700000
20.65265083 8.21451283 -1.29440713 16 20 6411 22.26400000 3181067670 3181067670 -3.33300000
40.55186462 20.92141533 2.65741849 15 21 6411 45.70800000 3181067670 3181067670 3.33300000
40.63346863 18.50061035 1.81896412 9 22 6412 44.68400000 3181067672 3181067672 2.33300000
20.71449089 10.68239021 -1.08566415 24 23 6412 23.33200000 3181067672 3181067672 -2.66700000
20.68726730 9.41465282 -1.19116640 31 24 6413 22.76000000 3181067675 3181067675 -3.00000000
46.60301590 24.02271652 6.43762636 15 25 6413 52.82400000 3181067675 3181067675 7.00000000
42.26977921 19.22782135 3.79093361 21 26 6414 46.59200000 3181067677 3181067677 4.66700000
20.74789619 12.00779057 -0.97664905 24 27 6414 23.99200000 3181067677 3181067677 -2.33300000
20.70307159 8.21783161 -0.77783996 18 28 6415 22.28800000 3181067679 3181067679 -2.00000000
20.80803680 10.71684265 -0.54463667 20 31 6415 23.41200000 3181067682 3181067682 -1.33300000
5.33308935 2.41583037 -2.73011398 7 0 6423 6.46000000 3181067702 3181067702 -25.00000000
34.93376923 20.14463997 -0.70389044 8 1 6423 40.33200000 3181067702 3181067702 -1.00000000
20.73951340 9.39040756 -0.66256601 19 2 6424 22.77600000 3181067705 3181067705 -1.66700000
7.89623785 4.05114889 -2.48440647 4 3 6424 9.21600000 3181067705 3181067705 -15.63900000
10.49866962 4.75136518 -2.30477047 2 4 6425 11.75200000 3181067707 3181067707 -11.31000000
40.65742493 20.85024643 0.00000000 8 5 6425 45.69200000 3181067707 3181067707 0.00000000
40.42301178 15.96381187 -0.50596803 11 6 6425 43.46400000 3181067709 3181067709 -0.66700000
12.15810204 6.23500967 -2.12574315 2 7 6425 13.82800000 3181067709 3181067709 -8.84300000
14.42863560 6.52690935 -2.01574588 2 8 6426 15.96400000 3181067712 3181067712 -7.25400000
40.29035950 23.20542717 0.27023074 19 9 6426 46.49600000 3181067712 3181067712 0.33300000
40.48156357 18.30364990 -0.25821170 25 10 6427 44.42800000 3181067714 3181067714 -0.33300000
15.35047340 7.86537933 -1.85791957 2 11 6427 17.34800000 3181067714 3181067714 -6.14800000
17.89168930 7.05493927 -1.79530764 2 12 6428 19.31600000 3181067716 3181067716 -5.33300000
40.62885666 20.80873489 1.06219494 16 13 6428 45.66000000 3181067716 3181067716 1.33300000
40.37088776 15.91065598 0.50517642 22 14 6429 43.39600000 3181067718 3181067718 0.66700000
19.52457428 9.99552917 -1.53380537 4 15 6429 21.98800000 3181067718 3181067718 -4.00000000
18.57821655 8.38838673 -1.66406620 5 16 6430 20.45200000 3181067721 3181067721 -4.66700000
40.12379837 23.07220840 1.34700811 19 17 6430 46.30400000 3181067721 3181067721 1.66700000
40.45285034 18.26516342 0.77474725 21 18 6430 44.39200000 3181067723 3181067723 1.00000000
19.82513237 11.39995670 -1.46565092 5 19 6430 22.91600000 3181067723 3181067723 -3.66700000
20.65890503 8.13359451 -1.29301178 16 20 6431 22.24000000 3181067725 3181067725 -3.33300000
40.61753845 20.77609825 2.65695333 22 21 6431 45.70000000 3181067725 3181067725 3.33300000
40.55935669 18.29621124 1.81277657 9 22 6432 44.53200000 3181067728 3181067728 2.33300000
20.70540237 10.58637142 -1.08324456 26 23 6432 23.28000000 3181067728 3181067728 -2.66700000
20.68723106 9.32760620 -1.18928230 27 24 6433 22.72400000 3181067730 3181067730 -3.00000000
46.20225525 23.61237144 6.37084198 14 25 6433 52.27600000 3181067730 3181067730 7.00000000
42.14036560 18.99169922 3.77335882 32 26 6434 46.37600000 3181067732 3181067732 4.66700000
20.75502396 11.91539478 -0.97502077 22 27 6434 23.95200000 3181067732 3181067732 -2.33300000
20.71302795 8.13820553 -0.77714199 18 28 6435 22.26800000 3181067735 3181067735 -2.00000000
20.81682777 10.62959576 -0.54389220 20 31 6435 23.38000000 3181067737 3181067737 -1.33300000
5.34479713 2.39868402 -2.73180437 6 0 6443 6.46400000 3181067758 3181067758 -25.00000000
35.05594635 20.05236244 -0.70493758 8 1 6443 40.39200000 3181067758 3181067758 -1.00000000
20.74662971 9.30650139 -0.66175145 19 2 6444 22.74800000 3181067760 3181067760 -1.66700000
7.90689754 4.02181482 -2.48332834 3 3 6444 9.21200000 3181067760 3181067760 -15.63900000
10.51161194 4.71308422 -2.30398583 2 4 6445 11.74800000 3181067762 3181067762 -11.31000000
40.69430161 20.69006920 0.00000000 8 5 6445 45.65200000 3181067762 3181067762 0.00000000
40.45986557 15.81533146 -0.50573522 22 6 6445 43.44400000 3181067765 3181067765 -0.66700000
12.18331623 6.19432306 -2.12635803 2 7 6445 13.83200000 3181067765 3181067765 -8.84300000
14.45133114 6.47650433 -2.01574588 3 8 6446 15.96400000 3181067767 3181067767 -7.25400000
40.49962234 23.13806343 0.27109089 19 9 6446 46.64400000 3181067767 3181067767 0.33300000
40.45759583 18.12298584 -0.25765374 16 10 6447 44.33200000 3181067769 3181067769 -0.33300000
15.38138103 7.81354952 -1.85834801 2 11 6447 17.35200000 3181067769 3181067769 -6.14800000
17.92362785 6.99533892 -1.79605114 2 12 6448 19.32400000 3181067771 3181067771 -5.33300000
40.64419556 20.63781929 1.06070614 15 13 6448 45.59600000 3181067771 3181067771 1.33300000
40.33302307 15.73329926 0.50401235 22 14 6449 43.29600000 3181067774 3181067774 0.66700000
19.55222893 9.92370319 -1.53324735 4 15 6449 21.98000000 3181067774 3181067774 -4.00000000
18.60010719 8.32022953 -1.66341531 5 16 6450 20.44400000 3181067776 3181067776 -4.66700000
40.22145844 22.94191360 1.34758985 19 17 6450 46.32400000 3181067776 3181067776 1.66700000
40.48666763 18.10208130 0.77411896 21 18 6451 44.35600000 3181067778 3181067778 1.00000000
19.87025070 11.32919502 -1.46590686 5 19 6451 22.92000000 3181067778 3181067778 -3.66700000
20.65368462 8.04838276 -1.29091883 16 20 6451 22.20400000 3181067781 3181067781 -3.33300000
40.46187592 20.51860237 2.64206958 7 21 6451 45.44400000 3181067781 3181067781 3.33300000
40.58648682 18.13821411 1.81114829 9 22 6452 44.49200000 3181067783 3181067783 2.33300000
20.70302773 10.49415970 -1.08119714 26 23 6452 23.23600000 3181067783 3181067783 -2.66700000
20.67589951 9.23578739 -1.18677020 27 24 6453 22.67600000 3181067785 3181067785 -3.00000000
45.90899277 23.26074600 6.31916904 27 25 6453 51.85200000 3181067785 3181067785 7.00000000
42.15179825 18.82010651 3.76847696 32 26 6454 46.31600000 3181067788 3181067788 4.66700000
20.75481415 11.81914043 -0.97306681 24 27 6454 23.90400000 3181067788 3181067788 -2.33300000
20.70777702 8.05281353 -0.77588558 18 28 6455 22.23200000 3181067790 3181067790 -2.00000000
20.81455803 10.53699875 -0.54286861 19 31 6455 23.33600000 3181067792 3181067792 -1.33300000
5.35645008 2.38148546 -2.73349500 7 0 6463 6.46800000 3181067813 3181067813 -25.00000000
35.33443832 20.04829025 -0.70912617 8 1 6463 40.63200000 3181067813 3181067813 -1.00000000
20.75341225 9.22265911 -0.66093695 19 2 6464 22.72000000 3181067815 3181067815 -1.66700000
7.92088842 3.99419022 -2.48332834 3 3 6464 9.21200000 3181067815 3181067815 -15.63900000
10.52799988 4.67636299 -2.30398583 2 4 6465 11.74800000 3181067817 3181067817 -11.31000000
40.75913239 20.54429245 0.00000000 8 5 6465 45.64400000 3181067817 3181067817 0.00000000
40.52128983 15.66837406 -0.50578177 11 6 6466 43.44800000 3181067820 3181067820 -0.66700000
12.19887733 6.14607096 -2.12512827 2 7 6466 13.82400000 3181067820 3181067820 -8.84300000
14.47385025 6.42602015 -2.01574588 3 8 6466 15.96400000 3181067822 3181067822 -7.25400000
40.33306122 22.85653496 0.26944032 19 9 6466 46.36000000 3181067822 3181067822 0.33300000
40.46577072 17.95731544 -0.25730506 24 10 6467 44.27200000 3181067824 3181067824 -0.33300000
15.40856171 7.75981092 -1.85834801 2 11 6467 17.35200000 3181067824 3181067824 -6.14800000
17.94422150 6.93129587 -1.79567945 2 12 6468 19.32000000 3181067827 3181067827 -5.33300000
40.64812088 20.46165657 1.05893815 15 13 6468 45.52000000 3181067827 3181067827 1.33300000
40.35784912 15.58089066 0.50363982 22 14 6469 43.26400000 3181067829 3181067829 0.66700000
19.58675003 9.85539246 -1.53324735 4 15 6469 21.98000000 3181067829 3181067829 -4.00000000
18.62903595 8.25525284 -1.66341531 5 16 6470 20.44400000 3181067831 3181067831 -4.66700000
40.22473526 22.75806046 1.34502995 9 17 6470 46.23600000 3181067831 3181067831 1.66700000
40.41484070 17.90939140 0.77160579 21 18 6470 44.21200000 3181067834 3181067834 1.00000000
19.90423584 11.26127529 -1.46565092 5 19 6470 22.91600000 3181067834 3181067834 -3.66700000
20.65184593 7.96474361 -1.28905833 13 20 6471 22.17200000 3181067836 3181067836 -3.33300000
40.60461044 20.41311264 2.64672089 7 21 6471 45.52400000 3181067836 3181067836 3.33300000
40.60570145 17.97701454 1.80919433 9 22 6472 44.44400000 3181067838 3181067838 2.33300000
20.71096992 10.40747643 -1.07970822 26 23 6472 23.20400000 3181067838 3181067838 -2.66700000
20.67148399 9.14739418 -1.18467665 27 24 6473 22.63600000 3181067841 3181067841 -3.00000000
42.22817230 18.67769241 3.76945329 32 26 6474 46.32800000 3181067843 3181067843 4.66700000
20.74374390 11.71713638 -0.97062439 24 27 6474 23.84400000 3181067843 3181067843 -2.33300000
20.70218277 7.96755838 -0.77462924 18 28 6475 22.19600000 3181067845 3181067845 -2.00000000
20.80657196 10.43732929 -0.54165894 19 31 6476 23.28400000 3181067847 3181067847 -1.33300000
5.35436535 2.35932422 -2.72842360 6 0 6482 6.45600000 3181067868 3181067868 -25.00000000
35.54012680 20.00949097 -0.71191859 8 1 6482 40.79200000 3181067868 3181067868 -1.00000000
20.75094986 9.13928318 -0.65988970 16 2 6483 22.68400000 3181067870 3181067870 -1.66700000
7.94097996 3.97134733 -2.48548484 4 3 6483 9.22000000 3181067870 3181067870 -15.63900000
10.53985977 4.63984489 -2.30320144 2 4 6484 11.74400000 3181067873 3181067873 -11.31000000
40.78052139 20.38576698 0.00000000 16 5 6484 45.59200000 3181067873 3181067873 0.00000000
40.58423233 15.53820515 -0.50592148 11 6 6485 43.46000000 3181067875 3181067875 -0.66700000
12.21919155 6.10558414 -2.12512827 2 7 6485 13.82400000 3181067875 3181067875 -8.84300000
14.49144745 6.37638950 -2.01524091 2 8 6485 15.96000000 3181067877 3181067877 -7.25400000
40.24128342 22.62855339 0.26832443 28 9 6485 46.16800000 3181067877 3181067877 0.33300000
40.40060806 17.76827621 -0.25651461 16 10 6486 44.13600000 3181067880 3181067880 -0.33300000
15.43776798 7.71044827 -1.85877633 2 11 6486 17.35600000 3181067880 3181067880 -6.14800000
17.97826767 6.87602091 -1.79679477 2 12 6487 19.33200000 3181067882 3181067882 -5.33300000
40.62630463 20.28209496 1.05661178 15 13 6487 45.42000000 3181067882 3181067882 1.33300000
40.29721069 15.40412903 0.50224286 22 14 6488 43.14400000 3181067884 3181067884 0.66700000
19.62289429 9.79216862 -1.53352630 6 15 6488 21.98400000 3181067884 3181067884 -4.00000000
18.65265846 8.19182777 -1.66308987 5 16 6489 20.44000000 3181067887 3181067887 -4.66700000
40.27557755 22.61084366 1.34421539 18 17 6489 46.20800000 3181067887 3181067887 1.66700000
40.44837570 17.76401520 0.77111715 32 18 6489 44.18400000 3181067889 3181067889 1.00000000
19.93450928 11.19129944 -1.46513927 5 19 6489 22.90800000 3181067889 3181067889 -3.66700000
20.64830208 7.88481951 -1.28719795 16 20 6490 22.14000000 3181067891 3181067891 -3.33300000
40.66135788 20.27300453 2.64602304 15 21 6490 45.51200000 3181067891 3181067891 3.33300000
40.54797363 17.79087639 1.80398381 9 22 6491 44.31600000 3181067894 3181067894 2.33300000
20.70960617 10.32091618 -1.07784700 26 23 6491 23.16400000 3181067894 3181067894 -2.66700000
20.67243767 9.06596088 -1.18300200 27 24 6492 22.60400000 3181067896 3181067896 -3.00000000
45.31288147 22.57242393 6.21582413 24 25 6492 51.00400000 3181067896 3181067896 7.00000000
42.65866470 18.69921112 3.80232453 21 26 6493 46.73200000 3181067898 3181067898 4.66700000
20.73716354 11.62287998 -0.96850765 27 27 6493 23.79200000 3181067898 3181067898 -2.33300000
20.69487000 7.88605261 -0.77337283 18 28 6494 22.16000000 3181067900 3181067900 -2.00000000
20.79629898 10.35053062 -0.54054230 17 31 6494 23.23600000 3181067903 3181067903 -1.33300000
5.35965395 2.33823419 -2.72673297 8 0 6503 6.45200000 3181067923 3181067923 -25.00000000
35.78085327 19.97266388 -0.71526945 8 1 6503 40.98400000 3181067923 3181067923 -1.00000000
20.74399185 9.04558659 -0.65860969 19 2 6504 22.64000000 3181067926 3181067926 -1.66700000
7.94512844 3.93708467 -2.48224998 4 3 6504 9.20800000 3181067926 3181067926 -15.63900000
10.56039047 4.60275030 -2.30398583 2 4 6505 11.74800000 3181067928 3181067928 -11.31000000
40.76535416 20.19177628 0.00000000 16 5 6505 45.49200000 3181067928 3181067928 0.00000000
40.62326050 15.39077663 -0.50573522 22 6 6505 43.44400000 3181067930 3181067930 -0.66700000
12.23688793 6.06113958 -2.12451339 2 7 6505 13.82000000 3181067930 3181067930 -8.84300000
14.51108360 6.32164812 -2.01473570 2 8 6506 15.95600000 3181067933 3181067933 -7.25400000
40.32744217 22.48285675 0.26834768 19 9 6506 46.17200000 3181067933 3181067933 0.33300000
40.39944839 17.59133720 -0.25609615 16 10 6507 44.06400000 3181067935 3181067935 -0.33300000
15.45879555 7.65028667 -1.85791957 2 11 6507 17.34800000 3181067935 3181067935 -6.14800000
17.98844719 6.80444479 -1.79530764 2 12 6508 19.31600000 3181067937 3181067937 -5.33300000
40.59642410 20.08163643 1.05391335 7 13 6508 45.30400000 3181067937 3181067937 1.33300000
40.32721329 15.24642754 0.50191694 22 14 6509 43.11600000 3181067940 3181067940 0.66700000
19.65507507 9.71841240 -1.53324735 6 15 6509 21.98000000 3181067940 3181067940 -4.00000000
18.68987083 8.12658691 -1.66374075 5 16 6510 20.44800000 3181067942 3181067942 -4.66700000
40.46997452 22.52529907 1.34793901 19 17 6510 46.33600000 3181067942 3181067942 1.66700000
40.48753738 17.60448265 0.77062845 32 18 6510 44.15600000 3181067944 3181067944 1.00000000
19.97539330 11.11816120 -1.46513927 5 19 6510 22.90800000 3181067944 3181067944 -3.66700000
20.65091133 7.79921055 -1.28557003 13 20 6511 22.11200000 3181067947 3181067947 -3.33300000
40.57786179 20.04601669 2.63579059 15 21 6511 45.33600000 3181067947 3181067947 3.33300000
40.59458160 17.63417816 1.80316973 9 22 6512 44.29600000 3181067949 3181067949 2.33300000
20.70430374 10.22371292 -1.07561350 26 23 6512 23.11600000 3181067949 3181067949 -2.66700000
20.67987823 8.97899532 -1.18153656 27 24 6513 22.57600000 3181067951 3181067951 -3.00000000
45.82964706 22.62057114 6.27529621 13 25 6513 51.49200000 3181067951 3181067951 7.00000000
42.84028625 18.59193420 3.81241369 21 26 6514 46.85600000 3181067953 3181067953 4.66700000
20.74468803 11.52738380 -0.96687931 24 27 6514 23.75200000 3181067953 3181067953 -2.33300000
20.70493126 7.80310011 -0.77267486 18 28 6515 22.14000000 3181067956 3181067956 -2.00000000
20.80002022 10.25292206 -0.53961182 19 31 6516 23.19600000 3181067958 3181067958 -1.33300000
5.37736130 2.32476377 -2.73180437 7 0 6522 6.46400000 3181067979 3181067979 -25.00000000
35.87487793 19.86940193 -0.71582788 8 1 6522 41.01600000 3181067979 3181067979 -1.00000000
20.73350143 8.95930099 -0.65732968 19 2 6523 22.59600000 3181067981 3181067981 -1.66700000
7.96505451 3.91411376 -2.48440647 3 3 6523 9.21600000 3181067981 3181067981 -15.63900000
10.57919598 4.56926107 -2.30477047 2 4 6524 11.75200000 3181067983 3181067983 -11.31000000
40.78900528 20.03532028 0.00000000 16 5 6524 45.44400000 3181067983 3181067983 0.00000000
40.45312119 15.17310619 -0.50298792 22 6 6524 43.20800000 3181067986 3181067986 -0.66700000
12.26401520 6.02401257 -2.12574315 2 7 6524 13.82800000 3181067986 3181067986 -8.84300000
14.55018234 6.28135633 -2.01726103 4 8 6525 15.97600000 3181067988 3181067988 -7.25400000
40.57678223 22.44581032 0.26951006 19 9 6525 46.37200000 3181067988 3181067988 0.33300000
40.38410950 17.42557716 -0.25563121 16 10 6526 43.98400000 3181067990 3181067990 -0.33300000
15.48764992 7.60073328 -1.85834801 2 11 6526 17.35200000 3181067990 3181067990 -6.14800000
18.01091385 6.74475527 -1.79530764 2 12 6527 19.31600000 3181067993 3181067993 -5.33300000
40.74177551 19.98564911 1.05596042 15 13 6527 45.39200000 3181067993 3181067993 1.33300000
40.34008789 15.09859276 0.50145131 22 14 6528 43.07600000 3181067995 3181067995 0.66700000
19.68361282 9.65142345 -1.53296828 6 15 6528 21.97600000 3181067995 3181067995 -4.00000000
18.71305466 8.06298637 -1.66341531 5 16 6529 20.44400000 3181067997 3181067997 -4.66700000
40.49894714 22.36584473 1.34642625 28 17 6529 46.28400000 3181067997 3181067997 1.66700000
40.41714096 17.41473389 0.76818514 31 18 6529 44.01600000 3181068000 3181068000 1.00000000
19.99817467 11.04413986 -1.46411598 8 19 6529 22.89200000 3181068000 3181068000 -3.66700000
20.65047836 7.72089767 -1.28394210 13 20 6530 22.08400000 3181068002 3181068002 -3.33300000
40.45405197 19.81823540 2.62346530 7 21 6530 45.12400000 3181068002 3181068002 3.33300000
40.63447952 17.49156380 1.80235553 9 22 6531 44.27600000 3181068004 3181068004 2.33300000
20.69144249 10.13215542 -1.07319379 26 23 6531 23.06400000 3181068004 3181068004 -2.66700000
20.68018532 8.89773846 -1.17986178 27 24 6532 22.54400000 3181068006 3181068006 -3.00000000
42.70393372 18.36471748 3.79483914 21 26 6533 46.64000000 3181068009 3181068009 4.66700000
20.74780083 11.43923092 -0.96525103 27 27 6533 23.71200000 3181068009 3181068009 -2.33300000
20.70447540 7.72461557 -0.77169770 17 28 6534 22.11200000 3181068011 3181068011 -2.00000000
20.80875587 10.17159748 -0.53896046 17 31 6535 23.16800000 3181068013 3181068013 -1.33300000
5.38877583 2.30740619 -2.73349500 7 0 6542 6.46800000 3181068034 3181068034 -25.00000000
36.08072281 19.81914711 -0.71855050 8 1 6542 41.17200000 3181068034 3181068034 -1.00000000
20.73891830 8.87586117 -0.65651518 19 2 6543 22.56800000 3181068036 3181068036 -1.66700000
7.97174311 3.88291311 -2.48224998 2 3 6543 9.20800000 3181068036 3181068036 -15.63900000
10.58426285 4.52767706 -2.30241704 2 4 6544 11.74000000 3181068039 3181068039 -11.31000000
40.82273102 19.87530899 0.00000000 16 5 6544 45.40400000 3181068039 3181068039 0.00000000
40.51708984 15.03598022 -0.50312763 22 6 6544 43.22000000 3181068041 3181068041 -0.66700000
12.27786160 5.97770596 -2.12451339 2 7 6544 13.82000000 3181068041 3181068041 -8.84300000
14.55377674 6.22272873 -2.01473570 23 8 6545 15.95600000 3181068043 3181068043 -7.25400000
40.57423019 22.25978470 0.26897538 19 9 6545 46.28000000 3181068043 3181068043 0.33300000
40.38951492 17.26092529 -0.25528249 16 10 6546 43.92400000 3181068046 3181068046 -0.33300000
15.50693417 7.54314566 -1.85749125 2 11 6546 17.34400000 3181068046 3181068046 -6.14800000
18.04555130 6.68599558 -1.79642296 2 12 6547 19.32800000 3181068048 3181068048 -5.33300000
40.68542099 19.78211021 1.05270362 15 13 6547 45.25200000 3181068048 3181068048 1.33300000
40.33628464 14.93685341 0.50075281 22 14 6548 43.01600000 3181068050 3181068050 0.66700000
19.71359444 9.58091164 -1.53268921 6 15 6548 21.97200000 3181068050 3181068050 -4.00000000
18.74108696 7.99761677 -1.66341531 5 16 6549 20.44400000 3181068053 3181068053 -4.66700000
40.42598343 22.14175034 1.34142268 9 17 6549 46.11200000 3181068053 3181068053 1.66700000
40.44457626 17.25941849 0.76755685 21 18 6549 43.98000000 3181068055 3181068055 1.00000000
20.04360580 10.97810173 -1.46462762 5 19 6549 22.90000000 3181068055 3181068055 -3.66700000
20.65108871 7.63906956 -1.28231430 13 20 6550 22.05600000 3181068057 3181068057 -3.33300000
40.50861740 19.66992760 2.62253499 15 21 6550 45.10800000 3181068057 3181068057 3.33300000
40.56660843 17.29475784 1.79665649 18 22 6551 44.13600000 3181068059 3181068059 2.33300000
20.69792747 10.04590988 -1.07170486 26 23 6551 23.03200000 3181068059 3181068059 -2.66700000
20.67437172 8.80983829 -1.17776835 26 24 6552 22.50400000 3181068062 3181068062 -3.00000000
44.89149475 19.12006950 3.98327923 11 26 6553 48.95600000 3181068064 3181068064 4.66700000
20.73851013 11.33989334 -0.96297145 26 27 6553 23.65600000 3181068064 3181068064 -2.33300000
20.70881271 7.64399099 -0.77086008 20 28 6554 22.08800000 3181068066 3181068066 -2.00000000
20.80095100 10.07797623 -0.53784382 19 31 6555 23.12000000 3181068069 3181068069 -1.33300000
5.40013504 2.28999710 -2.73518538 7 0 6562 6.47200000 3181068089 3181068089 -25.00000000
36.16373444 19.70073509 -0.71882969 8 1 6562 41.18800000 3181068089 3181068089 -1.00000000
20.74032402 8.79093170 -0.65558428 16 2 6563 22.53600000 3181068092 3181068092 -1.66700000
7.99218607 3.85841227 -2.48440647 3 3 6563 9.21600000 3181068092 3181068092 -15.63900000
10.60722637 4.49376345 -2.30398583 2 4 6564 11.74800000 3181068094 3181068094 -11.31000000
40.88825607 19.73095131 0.00000000 16 5 6564 45.40000000 3181068094 3181068094 0.00000000
40.55806351 14.89032269 -0.50298792 11 6 6564 43.20800000 3181068096 3181068096 -0.66700000
12.29509258 5.93309402 -2.12389851 2 7 6564 13.81600000 3181068096 3181068096 -8.84300000
14.57906342 6.17343569 -2.01524091 47 8 6565 15.96000000 3181068099 3181068099 -7.25400000
40.56032944 22.06831551 0.26837093 19 9 6565 46.17600000 3181068099 3181068099 0.33300000
40.38321686 17.09177208 -0.25486404 16 10 6566 43.85200000 3181068101 3181068101 -0.33300000
15.54033470 7.49242496 -1.85834801 2 11 6566 17.35200000 3181068101 3181068101 -6.14800000
18.06504059 6.62159348 -1.79605114 2 12 6567 19.32400000 3181068103 3181068103 -5.33300000
40.73981476 19.63302803 1.05233145 15 13 6567 45.23600000 3181068103 3181068103 1.33300000
40.33184433 14.77532482 0.50005436 33 14 6568 42.95600000 3181068105 3181068105 0.66700000
19.75051117 9.51377201 -1.53296828 6 15 6568 21.97600000 3181068105 3181068105 -4.00000000
18.76521683 7.93059778 -1.66308987 5 16 6569 20.44000000 3181068108 3181068108 -4.66700000
40.65058899 22.08065605 1.34630990 18 17 6569 46.28000000 3181068108 3181068108 1.66700000
40.47879028 17.10723686 0.76706815 21 18 6569 43.95200000 3181068110 3181068110 1.00000000
20.07128143 10.90235329 -1.46386015 5 19 6569 22.88800000 3181068110 3181068110 -3.66700000
20.64762688 7.55595875 -1.28045380 20 20 6570 22.02400000 3181068112 3181068112 -3.33300000
40.55904007 19.51974678 2.62137222 7 21 6570 45.08800000 3181068112 3181068112 3.33300000
40.58255005 17.13439369 1.79470253 18 22 6571 44.08800000 3181068115 3181068115 2.33300000
20.70406151 9.95974159 -1.07021582 26 23 6571 23.00000000 3181068115 3181068115 -2.66700000
20.66083527 8.71898079 -1.17525625 26 24 6572 22.45600000 3181068117 3181068117 -3.00000000
45.96353912 22.10099983 6.26213455 39 25 6572 51.38400000 3181068117 3181068117 7.00000000
43.00742340 18.14051437 3.81046104 21 26 6573 46.83200000 3181068119 3181068119 4.66700000
20.73229408 11.24266624 -0.96085465 26 27 6573 23.60400000 3181068119 3181068119 -2.33300000
20.70157433 7.55931664 -0.76960373 17 28 6574 22.05200000 3181068122 3181068122 -2.00000000
20.80355835 9.98972607 -0.53700632 17 31 6575 23.08400000 3181068124 3181068124 -1.33300000
5.40475321 2.26972938 -2.73349500 7 0 6582 6.46800000 3181068145 3181068145 -25.00000000
36.46099854 19.69794273 -0.72336733 8 1 6582 41.44800000 3181068145 3181068145 -1.00000000
20.74507713 8.70764828 -0.65476972 16 2 6583 22.50800000 3181068147 3181068147 -1.66700000
8.00213051 3.82882833 -2.48332834 5 3 6583 9.21200000 3181068147 3181068147 -15.63900000
10.61561394 4.45367479 -2.30241704 2 4 6584 11.74000000 3181068149 3181068149 -11.31000000
40.80893326 19.51734543 0.00000000 15 5 6584 45.23600000 3181068149 3181068149 0.00000000
40.59475708 14.74319649 -0.50280166 22 6 6584 43.19200000 3181068152 3181068152 -0.66700000
12.31929398 5.89184523 -2.12451339 2 7 6584 13.82000000 3181068152 3181068152 -8.84300000
14.58954620 6.11790466 -2.01372552 36 8 6585 15.94800000 3181068154 3181068154 -7.25400000
40.64415741 21.93039703 0.26841742 19 9 6585 46.18400000 3181068154 3181068154 0.33300000
40.37254333 16.92132759 -0.25442234 16 10 6586 43.77600000 3181068156 3181068156 -0.33300000
15.56280518 7.43641853 -1.85791957 2 11 6586 17.34800000 3181068156 3181068156 -6.14800000
18.09178734 6.55985212 -1.79642296 2 12 6587 19.32800000 3181068158 3181068158 -5.33300000
40.76479721 19.47001839 1.05121481 15 13 6587 45.18800000 3181068158 3181068158 1.33300000
40.30796432 14.60719585 0.49912310 32 14 6588 42.87600000 3181068161 3181068161 0.66700000
19.78000069 9.44305325 -1.53268921 6 15 6588 21.97200000 3181068161 3181068161 -4.00000000
18.78910828 7.86350727 -1.66276443 5 16 6589 20.43600000 3181068163 3181068163 -4.66700000
40.68869781 21.91776657 1.34502995 28 17 6589 46.23600000 3181068163 3181068163 1.66700000
40.40544128 16.91024971 0.76455504 31 18 6589 43.80800000 3181068165 3181068165 1.00000000
20.10921669 10.83222485 -1.46386015 8 19 6589 22.88800000 3181068165 3181068165 -3.66700000
20.64759254 7.47432423 -1.27882588 20 20 6590 21.99600000 3181068168 3181068168 -3.33300000
40.63105011 16.98800468 1.79421413 9 22 6591 44.07600000 3181068170 3181068170 2.33300000
20.70624161 9.87193489 -1.06854069 26 23 6591 22.96400000 3181068170 3181068170 -2.66700000
20.66534424 8.63602638 -1.17379081 26 24 6592 22.42800000 3181068172 3181068172 -3.00000000
20.72917175 11.14751339 -0.95890069 26 27 6593 23.55600000 3181068175 3181068175 -2.33300000
20.70151520 7.47750187 -0.76862651 17 28 6594 22.02400000 3181068177 3181068177 -2.00000000
20.79324532 9.90005589 -0.53588969 14 31 6594 23.03600000 3181068179 3181068179 -1.33300000
5.40929604 2.24945760 -2.73180437 7 0 6602 6.46400000 3181068200 3181068200 -25.00000000
36.51543427 19.56299591 -0.72308809 8 1 6602 41.43200000 3181068200 3181068200 -1.00000000
20.74580956 8.62290478 -0.65383887 19 2 6603 22.47600000 3181068202 3181068202 -1.66700000
8.01196671 3.79922199 -2.48224998 3 3 6603 9.20800000 3181068202 3181068202 -15.63900000
10.63471699 4.41809750 -2.30320144 4 4 6604 11.74400000 3181068205 3181068205 -11.31000000
40.66355515 19.27369690 0.00000000 15 5 6604 45.00000000 3181068205 3181068205 0.00000000
40.53182220 14.55241108 -0.50135815 22 6 6605 43.06800000 3181068207 3181068207 -0.66700000
12.33009052 5.84157658 -2.12266874 2 7 6605 13.80800000 3181068207 3181068207 -8.84300000
14.59981918 6.06237507 -2.01221037 27 8 6605 15.93600000 3181068209 3181068209 -7.25400000
40.75220108 21.80537224 0.26862666 19 9 6605 46.22000000 3181068209 3181068209 0.33300000
40.39441681 16.76496506 -0.25418985 16 10 6606 43.73600000 3181068211 3181068211 -0.33300000
15.58866882 7.38204908 -1.85791957 2 11 6606 17.34800000 3181068211 3181068211 -6.14800000
18.10332870 6.49262619 -1.79530764 4 12 6607 19.31600000 3181068214 3181068214 -5.33300000
40.70600510 19.26772308 1.04795790 15 13 6607 45.04800000 3181068214 3181068214 1.33300000
40.30223083 14.44616127 0.49842462 21 14 6608 42.81600000 3181068216 3181068216 0.66700000
19.81284142 9.37395000 -1.53268921 6 15 6608 21.97200000 3181068216 3181068216 -4.00000000
18.82749176 7.80245209 -1.66374075 5 16 6609 20.44800000 3181068218 3181068218 -4.66700000
40.45813370 21.61170769 1.33490646 9 17 6609 45.88800000 3181068218 3181068218 1.66700000
40.43389511 16.74826813 0.76392674 21 18 6610 43.77200000 3181068221 3181068221 1.00000000
20.14174080 10.75468731 -1.46334851 5 19 6610 22.88000000 3181068221 3181068221 -3.66700000
20.64724159 7.39278269 -1.27719796 10 20 6610 21.96800000 3181068223 3181068223 -3.33300000
40.03004456 18.92211533 2.57858181 21 21 6610 44.35200000 3181068223 3181068223 3.33300000
40.56824112 16.79562187 1.78884077 9 22 6611 43.94400000 3181068225 3181068225 2.33300000
20.70083427 9.78081989 -1.06649339 26 23 6611 22.92000000 3181068225 3181068225 -2.66700000
20.67321777 8.55467415 -1.17253470 18 24 6612 22.40400000 3181068228 3181068228 -3.00000000
42.66882706 17.64783669 3.76945329 10 26 6613 46.32800000 3181068230 3181068230 4.66700000
20.73269272 11.05628014 -0.95727241 26 27 6613 23.51600000 3181068230 3181068230 -2.33300000
20.70113945 7.39578009 -0.76764935 17 28 6614 21.99600000 3181068232 3181068232 -2.00000000
20.80236053 9.81546879 -0.53523833 12 31 6614 23.00800000 3181068235 3181068235 -1.33300000
5.41711473 2.23056173 -2.73180437 7 0 6622 6.46400000 3181068255 3181068255 -25.00000000
36.70711517 19.50108719 -0.72553146 8 1 6622 41.57200000 3181068255 3181068255 -1.00000000
20.74620247 8.53826237 -0.65290797 22 2 6623 22.44400000 3181068258 3181068258 -1.66700000
8.03215218 3.77450824 -2.48440647 3 3 6623 9.21600000 3181068258 3181068258 -15.63900000
10.65007496 4.38094807 -2.30320144 2 4 6624 11.74400000 3181068260 3181068260 -11.31000000
40.66179276 19.09932709 0.00000000 15 5 6624 44.92400000 3181068260 3181068260 0.00000000
40.51075745 14.38541031 -0.50047344 22 6 6625 42.99200000 3181068262 3181068262 -0.66700000
12.35756111 5.80186033 -2.12389851 2 7 6625 13.81600000 3181068262 3181068262 -8.84300000
14.62089157 6.01137543 -2.01221037 20 8 6625 15.93600000 3181068264 3181068264 -7.25400000
40.68320084 21.58612251 0.26767349 9 9 6625 46.05600000 3181068264 3181068264 0.33300000
40.37870026 16.59345245 -0.25372490 16 10 6626 43.65600000 3181068267 3181068267 -0.33300000
15.61434174 7.32758951 -1.85791957 2 11 6626 17.34800000 3181068267 3181068267 -6.14800000
18.13714218 6.43338871 -1.79642296 4 12 6627 19.32800000 3181068269 3181068269 -5.33300000
