# .PCD v0.7 - Point Cloud Data file format
VERSION 0.7
FIELDS x y z intensity laser_id azimuth distance_m adjustedtime timestamp vertical_angle
SIZE 4 4 4 1 1 2 8 8 4 8
TYPE F F F U U U F U U F
COUNT 1 1 1 1 1 1 1 1 1 1
WIDTH 505
HEIGHT 1
VIEWPOINT 0 0 0 1 0 0 0
POINTS 505
DATA ascii
36.81129456 -77.98055267 -3.51320124 28 27 15893 86.30400000 3182493872 3182493872 -2.33300000
36.66001129 -120.96585846 -4.41394854 28 28 15894 126.47600000 3182493874 3182493874 -2.00000000
37.27379608 -90.16489410 -2.27029634 28 31 15894 97.59200000 3182493876 3182493876 -1.33300000
2.25241947 -6.33252287 -3.13413692 7 0 15902 7.41600000 3182493897 3182493897 -25.00000000
37.46230316 -79.68363190 -1.53692877 28 1 15902 88.06400000 3182493897 3182493897 -1.00000000
37.45123291 -105.34980774 -3.25395083 28 2 15903 111.85600000 3182493899 3182493899 -1.66700000
3.78517747 -9.19719505 -2.78417444 15 3 15903 10.32800000 3182493899 3182493899 -15.63900000
5.36823511 -15.10912609 -3.20690989 4 4 15904 16.35200000 3182493902 3182493902 -11.31000000
38.35138702 -93.23213196 0.00000000 28 5 15904 100.81200000 3182493902 3182493902 0.00000000
36.45781708 -121.13606262 -1.47273672 29 6 15905 126.51200000 3182493904 3182493904 -0.66700000
7.53891420 -18.33617783 -3.08438754 2 7 15905 20.06400000 3182493904 3182493904 -8.84300000
8.55902481 -24.10307312 -3.25569987 3 8 15905 25.78400000 3182493906 3182493906 -7.25400000
38.34190750 -81.66561127 0.52435088 28 9 15905 90.22000000 3182493906 3182493906 0.33300000
50.45518112 -142.16552734 -0.87676203 28 10 15906 150.85600000 3182493908 3182493908 -0.33300000
10.81292820 -26.31230545 -3.06426072 3 11 15906 28.61200000 3182493908 3182493908 -6.14800000
10.64950180 -35.42922974 -3.45342970 5 12 15907 37.15600000 3182493911 3182493911 -5.33300000
40.76722336 -99.25270081 2.49678636 28 13 15907 107.32800000 3182493911 3182493911 1.33300000
41.17094421 -137.05607605 1.66602528 28 14 15908 143.11600000 3182493913 3182493913 0.66700000
17.12571526 -41.71532440 -3.15327168 7 15 15908 45.20400000 3182493913 3182493913 -4.00000000
13.55688763 -38.26224518 -3.31381226 8 16 15909 40.72800000 3182493915 3182493915 -4.66700000
37.59233856 -80.21460724 2.57811952 28 17 15909 88.62400000 3182493915 3182493915 1.66700000
40.65949249 -114.81887054 2.12612200 28 18 15910 121.82400000 3182493918 3182493918 1.00000000
19.65779495 -41.96489716 -2.96993232 16 19 15910 46.43600000 3182493918 3182493918 -3.66700000
17.66572762 -58.88293839 -3.58020091 28 20 15910 61.58000000 3182493920 3182493920 -3.33300000
39.78459549 -97.00485992 6.10599232 42 21 15910 105.02400000 3182493920 3182493920 3.33300000
38.95579147 -110.06880951 4.75688982 28 22 15911 116.85600000 3182493922 3182493922 2.33300000
19.52918816 -47.64076233 -2.39840031 16 23 15911 51.54400000 3182493922 3182493922 -2.66700000
19.39779472 -54.83850861 -3.04846478 26 24 15912 58.24800000 3182493925 3182493925 -3.00000000
45.12374496 -110.13254547 14.61359692 28 25 15912 119.91200000 3182493925 3182493925 7.00000000
38.63978958 -109.29724121 9.46366501 28 26 15913 116.31200000 3182493927 3182493927 4.66700000
36.72854233 -78.51403046 -3.53143811 28 27 15913 86.75200000 3182493927 3182493927 -2.33300000
36.88850784 -123.26839447 -4.49324036 28 28 15914 128.74800000 3182493929 3182493929 -2.00000000
37.51023483 -91.64157867 -2.30416751 28 31 15914 99.04800000 3182493932 3182493932 -1.33300000
2.14609361 -6.10095930 -3.01580381 3 0 15922 7.13600000 3182493952 3182493952 -25.00000000
37.17548370 -79.79579163 -1.53657973 28 1 15922 88.04400000 3182493952 3182493952 -1.00000000
37.51027298 -106.69447327 -3.29141927 28 2 15923 113.14400000 3182493955 3182493955 -1.66700000
3.78502822 -9.28882790 -2.80789709 18 3 15923 10.41600000 3182493955 3182493955 -15.63900000
5.32326317 -15.14997578 -3.21161675 6 4 15924 16.37600000 3182493957 3182493957 -11.31000000
38.03929138 -93.39877319 0.00000000 28 5 15924 100.84800000 3182493957 3182493957 0.00000000
36.83683777 -123.96173859 -1.50551796 29 6 15925 129.32800000 3182493959 3182493959 -0.66700000
7.48082399 -18.37702560 -3.08684731 2 7 15925 20.08000000 3182493959 3182493959 -8.84300000
8.48404026 -24.15900993 -3.25923538 3 8 15925 25.81200000 3182493961 3182493961 -7.25400000
37.97393036 -81.62124634 0.52321172 28 9 15925 90.02400000 3182493961 3182493961 0.33300000
50.36264801 -143.49192810 -0.88385260 28 10 15926 152.07600000 3182493964 3182493964 -0.33300000
10.73750210 -26.39041138 -3.06897306 3 11 15926 28.65600000 3182493964 3182493964 -6.14800000
10.57222462 -35.62273026 -3.46867251 5 12 15927 37.32000000 3182493966 3182493966 -5.33300000
40.00474548 -98.37200928 2.47110391 28 13 15927 106.22400000 3182493966 3182493966 1.33300000
40.47846222 -136.47804260 1.65727115 28 14 15928 142.36400000 3182493968 3182493968 0.66700000
17.11973190 -42.11863327 -3.17922115 7 15 15928 45.57600000 3182493968 3182493968 -4.00000000
13.49047947 -38.50122070 -3.33041072 8 16 15929 40.93200000 3182493971 3182493971 -4.66700000
38.67283249 -83.27542877 2.67214012 28 17 15929 91.85600000 3182493971 3182493971 1.66700000
19.64966965 -42.31225204 -2.98988700 17 19 15929 46.74800000 3182493973 3182493973 -3.66700000
17.46008110 -58.94424438 -3.58020091 28 20 15930 61.58000000 3182493975 3182493975 -3.33300000
39.96405411 -98.41959381 6.18622446 42 21 15930 106.40400000 3182493975 3182493975 3.33300000
40.42240906 -115.49288940 4.98517656 28 22 15931 122.46400000 3182493978 3182493978 2.33300000
19.51603889 -48.08628464 -2.41738486 16 23 15931 51.95200000 3182493978 3182493978 -2.66700000
19.39354134 -55.44129562 -3.07819152 26 24 15932 58.81600000 3182493980 3182493980 -3.00000000
43.61227798 -107.51173401 14.24555111 28 25 15932 116.89200000 3182493980 3182493980 7.00000000
40.09738922 -114.69264984 9.91865444 28 26 15933 121.90400000 3182493982 3182493982 4.66700000
36.79042053 -79.36696625 -3.56400371 28 27 15933 87.55200000 3182493982 3182493982 -2.33300000
36.71964645 -124.28199768 -4.52548742 28 28 15934 129.67200000 3182493985 3182493985 -2.00000000
37.45294952 -92.42053986 -2.32045174 28 31 15934 99.74800000 3182493987 3182493987 -1.33300000
2.14956832 -6.17271948 -3.04792285 5 0 15940 7.21200000 3182494007 3182494007 -25.00000000
37.90430450 -82.03243256 -1.57734847 28 1 15940 90.38000000 3182494007 3182494007 -1.00000000
37.41409302 -107.49904633 -3.31259727 28 2 15941 113.87200000 3182494009 3182494009 -1.66700000
3.72409654 -9.22209644 -2.78417444 15 3 15941 10.32800000 3182494009 3182494009 -15.63900000
5.28337383 -15.18885231 -3.21632361 4 4 15942 16.40000000 3182494012 3182494012 -11.31000000
39.57368088 -98.04682159 0.00000000 28 5 15942 105.73200000 3182494012 3182494012 0.00000000
36.83546066 -125.31764221 -1.52065146 29 6 15942 130.62800000 3182494014 3182494014 -0.66700000
7.43957949 -18.43212700 -3.09238148 2 7 15942 20.11600000 3182494014 3182494014 -8.84300000
8.41201019 -24.19678879 -3.26075053 3 8 15943 25.82400000 3182494016 3182494016 -7.25400000
37.76927567 -81.85272980 0.52393240 28 9 15943 90.14800000 3182494016 3182494016 0.33300000
10.66197777 -26.44245529 -3.07111502 3 11 15944 28.67600000 3182494019 3182494019 -6.14800000
10.46474552 -35.67105103 -3.47015977 5 12 15945 37.33600000 3182494021 3182494021 -5.33300000
39.60132980 -98.26353455 2.46524143 28 13 15945 105.97200000 3182494021 3182494021 1.33300000
40.01012039 -136.47019958 1.65564144 28 14 15946 142.22400000 3182494023 3182494023 0.66700000
17.04845428 -42.32395935 -3.19066119 7 15 15946 45.74000000 3182494023 3182494023 -4.00000000
13.43347740 -38.72797394 -3.34635806 8 16 15947 41.12800000 3182494025 3182494025 -4.66700000
38.47960281 -83.54540253 2.67691088 28 17 15947 92.02000000 3182494025 3182494025 1.66700000
19.68029976 -42.72909164 -3.01495838 17 19 15947 47.14000000 3182494028 3182494028 -3.66700000
17.37580681 -59.34371948 -3.60113096 28 20 15948 61.94000000 3182494030 3182494030 -3.33300000
40.07653427 -99.59304810 6.25203753 42 21 15948 107.53600000 3182494030 3182494030 3.33300000
40.09601212 -115.72505188 4.98973560 28 22 15949 122.57600000 3182494032 3182494032 2.33300000
19.51993752 -48.53289413 -2.43674183 16 23 15949 52.36800000 3182494032 3182494032 -2.66700000
19.40879822 -56.04926682 -3.10854650 27 24 15950 59.39600000 3182494035 3182494035 -3.00000000
43.41350174 -107.99448395 14.29137421 28 25 15950 117.26800000 3182494035 3182494035 7.00000000
37.87494278 -109.43807983 9.45390129 28 26 15951 116.19200000 3182494037 3182494037 4.66700000
36.74958420 -79.93607330 -3.58435750 28 27 15951 88.05200000 3182494037 3182494037 -2.33300000
36.79745102 -126.00072479 -4.58383942 28 28 15952 131.34400000 3182494039 3182494039 -2.00000000
37.38595581 -93.09436798 -2.33440948 28 31 15952 100.34800000 3182494042 3182494042 -1.33300000
2.15751505 -6.26587820 -3.09018469 5 0 15960 7.31200000 3182494062 3182494062 -25.00000000
37.71595383 -82.37879181 -1.58146727 28 1 15960 90.61600000 3182494062 3182494062 -1.00000000
37.12969589 -107.89363861 -3.32074261 28 2 15961 114.15200000 3182494065 3182494065 -1.66700000
3.68616343 -9.22073269 -2.77986121 30 3 15961 10.31200000 3182494065 3182494065 -15.63900000
5.23670101 -15.22574711 -3.22024584 4 4 15962 16.42000000 3182494067 3182494067 -11.31000000
39.26829910 -98.27722168 0.00000000 28 5 15962 105.83200000 3182494067 3182494067 0.00000000
36.70875168 -126.51718140 -1.53364289 29 6 15962 131.74400000 3182494069 3182494069 -0.66700000
7.38252640 -18.47633553 -3.09545588 2 7 15962 20.13600000 3182494069 3182494069 -8.84300000
8.34555435 -24.27853966 -3.26782155 3 8 15963 25.88000000 3182494072 3182494072 -7.25400000
38.19184494 -83.53375244 0.53383589 28 9 15963 91.85200000 3182494072 3182494072 0.33300000
10.60204697 -26.56077194 -3.08053946 3 11 15964 28.76400000 3182494074 3182494074 -6.14800000
10.37893867 -35.84125900 -3.48317194 5 12 15965 37.47600000 3182494076 3182494076 -5.33300000
39.09656525 -97.99631500 2.45509887 28 13 15965 105.53600000 3182494076 3182494076 1.33300000
39.15658569 -135.30656433 1.63985610 28 14 15966 140.86800000 3182494078 3182494078 0.66700000
16.98190117 -42.58706665 -3.20600748 7 15 15966 45.96000000 3182494078 3182494078 -4.00000000
13.31502247 -38.82365417 -3.35058904 8 16 15967 41.18000000 3182494081 3182494081 -4.66700000
38.19438171 -83.69376373 2.67737651 28 17 15967 92.03600000 3182494081 3182494081 1.66700000
19.67355347 -43.10984039 -3.03695989 17 19 15967 47.48400000 3182494083 3182494083 -3.66700000
17.28385925 -59.80297852 -3.62531686 28 20 15968 62.35600000 3182494085 3182494085 -3.33300000
39.74342346 -99.76943207 6.25436354 42 21 15968 107.57600000 3182494085 3182494085 3.33300000
19.50560188 -48.99052048 -2.45628500 16 23 15969 52.78800000 3182494088 3182494088 -2.66700000
19.36829948 -56.57017136 -3.13366771 28 24 15970 59.87600000 3182494090 3182494090 -3.00000000
42.97901917 -108.00150299 14.27236271 28 25 15970 117.11200000 3182494090 3182494090 7.00000000
37.63338852 -109.98077393 9.48937607 28 26 15971 116.62800000 3182494092 3182494092 4.66700000
36.63434982 -80.42393494 -3.60047746 28 27 15971 88.44800000 3182494092 3182494092 -2.33300000
36.88555527 -127.96063995 -4.65042782 28 28 15972 133.25200000 3182494095 3182494095 -2.00000000
37.39168167 -94.05670166 -2.35525346 28 31 15972 101.24400000 3182494097 3182494097 -1.33300000
2.12161040 -6.23218966 -3.06989908 6 0 15980 7.26400000 3182494118 3182494118 -25.00000000
37.91555786 -83.58438873 -1.60206115 28 1 15980 91.79600000 3182494118 3182494118 -1.00000000
37.27572250 -109.55938721 -3.36798573 28 2 15981 115.77600000 3182494120 3182494120 -1.66700000
3.65111995 -9.22638035 -2.77770448 27 3 15981 10.30400000 3182494120 3182494120 -15.63900000
5.18983507 -15.26250172 -3.22416830 4 4 15982 16.44000000 3182494122 3182494122 -11.31000000
38.77200317 -98.02685547 0.00000000 28 5 15982 105.41600000 3182494122 3182494122 0.00000000
36.90335846 -128.86705017 -1.56055701 29 6 15982 134.05600000 3182494125 3182494125 -0.66700000
7.32961702 -18.53139496 -3.10037518 2 7 15982 20.16800000 3182494125 3182494125 -8.84300000
8.29139805 -24.39768982 -3.27994347 3 8 15983 25.97600000 3182494127 3182494127 -7.25400000
43.39117813 -95.78861237 0.61118084 28 9 15983 105.16000000 3182494127 3182494127 0.33300000
45.38280487 -133.61682129 -0.82015401 28 10 15984 141.11600000 3182494129 3182494129 -0.33300000
10.52680588 -26.64200211 -3.08568025 3 11 15984 28.81200000 3182494129 3182494129 -6.14800000
10.26361656 -35.91173172 -3.48651791 5 12 15985 37.51200000 3182494131 3182494131 -5.33300000
38.81741714 -98.29212952 2.45910001 28 13 15985 105.70800000 3182494131 3182494131 1.33300000
16.84486198 -42.67577744 -3.20823979 7 15 15986 45.99200000 3182494134 3182494134 -4.00000000
13.27671528 -39.15684128 -3.37532377 8 16 15987 41.48400000 3182494136 3182494136 -4.66700000
38.82117844 -85.85948944 2.74230647 28 17 15987 94.26800000 3182494136 3182494136 1.66700000
19.56473351 -43.29078674 -3.04463482 18 19 15988 47.60400000 3182494138 3182494138 -3.66700000
17.16372299 -60.17399216 -3.64415383 28 20 15988 62.68000000 3182494141 3182494141 -3.33300000
39.32607651 -99.73295593 6.24343300 42 21 15988 107.38800000 3182494141 3182494141 3.33300000
19.49270058 -49.45978546 -2.47638631 16 23 15989 53.22000000 3182494143 3182494143 -2.66700000
19.35641479 -57.18606567 -3.16402268 28 24 15990 60.45600000 3182494145 3182494145 -3.00000000
41.62103653 -105.66116333 13.94380283 28 25 15990 114.41600000 3182494145 3182494145 7.00000000
37.54820251 -110.99517059 9.56553268 28 26 15991 117.56400000 3182494148 3182494148 4.66700000
36.84556961 -129.51895142 -4.70235825 28 28 15992 134.74000000 3182494150 3182494150 -2.00000000
37.37942505 -94.99041748 -2.37535262 28 31 15992 102.10800000 3182494152 3182494152 -1.33300000
2.09868670 -6.23612118 -3.06820869 6 0 16000 7.26000000 3182494173 3182494173 -25.00000000
37.19239044 -82.75682068 -1.58370113 28 1 16000 90.74400000 3182494173 3182494173 -1.00000000
36.93767166 -109.82147980 -3.37205839 28 2 16001 115.91600000 3182494175 3182494175 -1.66700000
3.65120316 -9.32156086 -2.80250549 26 3 16001 10.39600000 3182494175 3182494175 -15.63900000
5.14277601 -15.29911423 -3.22809052 6 4 16002 16.46000000 3182494177 3182494177 -11.31000000
38.41354752 -98.12062836 0.00000000 28 5 16002 105.37200000 3182494177 3182494177 0.00000000
36.44926834 -129.06687927 -1.56134868 29 6 16003 134.12400000 3182494180 3182494180 -0.66700000
7.27892923 -18.60230446 -3.10775423 2 7 16003 20.21600000 3182494180 3182494180 -8.84300000
8.21629333 -24.45657539 -3.28398395 3 8 16003 26.00800000 3182494182 3182494182 -7.25400000
43.13024902 -96.10370636 0.61222696 28 9 16003 105.34000000 3182494182 3182494182 0.33300000
44.85246277 -133.58482361 -0.81899160 28 10 16004 140.91600000 3182494184 3182494184 -0.33300000
10.44967747 -26.71932793 -3.09039235 3 11 16004 28.85600000 3182494184 3182494184 -6.14800000
10.18468380 -36.11216736 -3.50250435 5 12 16005 37.68400000 3182494187 3182494187 -5.33300000
38.58035660 -98.69891357 2.46589279 28 13 16005 106.00000000 3182494187 3182494187 1.33300000
38.04826736 -134.99916077 1.63287151 28 14 16006 140.26800000 3182494189 3182494189 0.66700000
16.76694298 -42.91643143 -3.22191191 7 15 16006 46.18800000 3182494189 3182494189 -4.00000000
13.14501953 -39.21806717 -3.37662554 8 16 16007 41.50000000 3182494191 3182494191 -4.66700000
43.31534576 -96.69680786 3.08359671 28 17 16007 106.00000000 3182494191 3182494191 1.66700000
44.38879013 -132.43362427 2.43803144 28 18 16007 139.69600000 3182494194 3182494194 1.00000000
19.48797607 -43.50479126 -3.05512381 18 19 16007 47.76800000 3182494194 3182494194 -3.66700000
17.02714348 -60.49491882 -3.65996766 28 20 16008 62.95200000 3182494196 3182494196 -3.33300000
40.96963501 -104.97339630 6.56250000 42 21 16008 112.87600000 3182494196 3182494196 3.33300000
43.50050354 -129.93392944 5.58243370 28 22 16009 137.13600000 3182494198 3182494198 2.33300000
19.48402023 -49.94816589 -2.49741840 16 23 16009 53.67200000 3182494198 3182494198 -2.66700000
19.33539581 -57.78740692 -3.19354010 28 24 16010 61.02000000 3182494201 3182494201 -3.00000000
40.97794342 -105.10299683 13.85118198 28 25 16010 113.65600000 3182494201 3182494201 7.00000000
37.25029755 -111.39400482 9.58864021 28 26 16011 117.84800000 3182494203 3182494203 4.66700000
36.74436951 -130.89764404 -4.74772739 28 28 16012 136.04000000 3182494205 3182494205 -2.00000000
37.23991013 -95.66340637 -2.38875222 28 31 16013 102.68400000 3182494207 3182494207 -1.33300000
2.07695985 -6.24721146 -3.06989908 4 0 16021 7.26400000 3182494228 3182494228 -25.00000000
37.59128189 -84.47106934 -1.61385894 28 1 16021 92.47200000 3182494228 3182494228 -1.00000000
36.97112274 -111.26895905 -3.41231966 28 2 16022 117.30000000 3182494230 3182494230 -1.66700000
3.63232183 -9.37438965 -2.81436682 23 3 16022 10.44000000 3182494230 3182494230 -15.63900000
5.09779263 -15.35136223 -3.23515081 4 4 16023 16.49600000 3182494233 3182494233 -11.31000000
38.42490768 -99.21938324 0.00000000 28 5 16023 106.40000000 3182494233 3182494233 0.00000000
36.82786560 -132.25900269 -1.59832072 29 6 16024 137.30000000 3182494235 3182494235 -0.66700000
7.22354031 -18.66203117 -3.11328840 2 7 16024 20.25200000 3182494235 3182494235 -8.84300000
8.14159870 -24.53171730 -3.29004478 3 8 16024 26.05600000 3182494237 3182494237 -7.25400000
42.61203766 -95.88830566 0.60985571 28 9 16024 104.93200000 3182494237 3182494237 0.33300000
44.11069489 -132.98901367 -0.81434208 28 10 16025 140.11600000 3182494240 3182494240 -0.33300000
10.39472389 -26.86872101 -3.10324407 3 11 16025 28.97600000 3182494240 3182494240 -6.14800000
10.06506252 -36.19529724 -3.50696564 5 12 16026 37.73200000 3182494242 3182494242 -5.33300000
38.22411728 -98.85457611 2.46626496 28 13 16026 106.01600000 3182494242 3182494242 1.33300000
37.20517349 -133.88525391 1.61773801 28 14 16027 138.96800000 3182494244 3182494244 0.66700000
16.66707039 -43.12647629 -3.23307300 7 15 16027 46.34800000 3182494244 3182494244 -4.00000000
13.07261753 -39.48170853 -3.39517665 8 16 16028 41.72800000 3182494247 3182494247 -4.66700000
42.87634277 -96.66485596 3.07754588 28 17 16028 105.79200000 3182494247 3182494247 1.66700000
43.74596024 -132.12083435 2.42930508 28 18 16028 139.19600000 3182494249 3182494249 1.00000000
19.38989639 -43.71458435 -3.06484532 18 19 16028 47.92000000 3182494249 3182494249 -3.66700000
16.91742325 -60.96094131 -3.68438601 28 20 16029 63.37200000 3182494251 3182494251 -3.33300000
40.98155594 -106.15102386 6.62668562 42 21 16029 113.98000000 3182494251 3182494251 3.33300000
39.16883850 -118.43562317 5.08222246 28 22 16030 124.84800000 3182494254 3182494254 2.33300000
19.46623993 -50.44793701 -2.51882267 16 23 16030 54.13200000 3182494254 3182494254 -2.66700000
19.31024933 -58.42300034 -3.22473240 28 24 16031 61.61600000 3182494256 3182494256 -3.00000000
40.48673248 -104.97836304 13.81510830 28 25 16031 113.36000000 3182494256 3182494256 7.00000000
36.87678146 -111.63578033 9.59775352 28 26 16032 117.96000000 3182494258 3182494258 4.66700000
36.57678223 -132.16027832 -4.78862953 28 28 16033 137.21200000 3182494260 3182494260 -2.00000000
37.21341324 -96.59136200 -2.40866542 28 31 16033 103.54000000 3182494263 3182494263 -1.33300000
2.08227444 -6.33327389 -3.10877991 4 0 16040 7.35600000 3182494283 3182494283 -25.00000000
37.59823608 -85.24661255 -1.62628508 28 1 16040 93.18400000 3182494283 3182494283 -1.00000000
37.06000900 -112.78500366 -3.45502448 28 2 16041 118.76800000 3182494286 3182494286 -1.66700000
3.61087370 -9.41155720 -2.82191491 27 3 16041 10.46800000 3182494286 3182494286 -15.63900000
5.05542421 -15.39426804 -3.24064207 4 4 16042 16.52400000 3182494288 3182494288 -11.31000000
38.11142731 -99.38734436 0.00000000 28 5 16042 106.44400000 3182494288 3182494288 0.00000000
36.52356339 -132.77897644 -1.60320997 29 6 16042 137.72000000 3182494290 3182494290 -0.66700000
7.17478228 -18.71046448 -3.11759257 2 7 16042 20.28000000 3182494290 3182494290 -8.84300000
8.07257748 -24.59628105 -3.29509568 3 8 16043 26.09600000 3182494293 3182494293 -7.25400000
42.17935562 -95.76918030 0.60820514 28 9 16043 104.64800000 3182494293 3182494293 0.33300000
43.70061111 -133.22956848 -0.81492329 28 10 16044 140.21600000 3182494295 3182494295 -0.33300000
10.32406139 -26.95132256 -3.10881305 3 11 16044 29.02800000 3182494295 3182494295 -6.14800000
9.98187828 -36.36289597 -3.51997781 5 12 16045 37.87200000 3182494297 3182494297 -5.33300000
39.30303955 -102.65559387 2.55782890 28 13 16045 109.95200000 3182494297 3182494297 1.33300000
36.89325333 -134.49005127 1.62355864 28 14 16046 139.46800000 3182494300 3182494300 0.66700000
16.54535866 -43.23741150 -3.23725843 8 15 16046 46.40800000 3182494300 3182494300 -4.00000000
12.98876190 -39.66881943 -3.40754414 8 16 16047 41.88000000 3182494302 3182494302 -4.66700000
42.51211166 -96.70768738 3.07440400 28 17 16047 105.68400000 3182494302 3182494302 1.66700000
43.67969894 -133.40162659 2.45017815 28 18 16047 140.39200000 3182494304 3182494304 1.00000000
19.32354164 -43.95770645 -3.07738090 18 19 16047 48.11600000 3182494304 3182494304 -3.66700000
16.81013107 -61.36332703 -3.70531607 28 20 16048 63.73200000 3182494307 3182494307 -3.33300000
39.98056412 -104.58918762 6.52087259 42 21 16048 112.16000000 3182494307 3182494307 3.33300000
38.92122650 -119.00930786 5.10127354 28 22 16049 125.31600000 3182494309 3182494309 2.33300000
19.45998573 -50.93398666 -2.53985476 16 23 16049 54.58400000 3182494309 3182494309 -2.66700000
19.30503654 -59.06383514 -3.25655246 28 24 16050 62.22400000 3182494311 3182494311 -3.00000000
40.12280655 -105.07125092 13.80974674 28 25 16050 113.31600000 3182494311 3182494311 7.00000000
36.74530029 -112.48886108 9.66056633 28 26 16051 118.73200000 3182494313 3182494313 4.66700000
36.38167953 -133.17164612 -4.82087708 28 28 16052 138.13600000 3182494316 3182494316 -2.00000000
37.22504807 -97.63613129 -2.43146348 28 31 16053 104.52000000 3182494318 3182494318 -1.33300000
2.05903435 -6.33705568 -3.10708952 4 0 16060 7.35200000 3182494339 3182494339 -25.00000000
37.61907196 -86.10665131 -1.64017713 28 1 16060 93.98000000 3182494339 3182494339 -1.00000000
37.08965683 -114.21804810 -3.49493670 28 2 16061 120.14000000 3182494341 3182494341 -1.66700000
3.59714031 -9.47451973 -2.83701110 16 3 16061 10.52400000 3182494341 3182494341 -15.63900000
5.00771093 -15.43047523 -3.24456453 6 4 16062 16.54400000 3182494343 3182494343 -11.31000000
38.04951096 -100.27146912 0.00000000 28 5 16062 107.24800000 3182494343 3182494343 0.00000000
36.40024185 -134.16021729 -1.61834335 29 6 16062 139.02000000 3182494346 3182494346 -0.66700000
7.12485170 -18.77604485 -3.12435675 2 7 16062 20.32400000 3182494346 3182494346 -8.84300000
8.01482773 -24.71112251 -3.30671215 3 8 16063 26.18800000 3182494348 3182494348 -7.25400000
41.79521942 -95.80217743 0.60748446 28 9 16063 104.52400000 3182494348 3182494348 0.33300000
43.25132370 -133.43077087 -0.81522548 28 10 16064 140.26800000 3182494350 3182494350 -0.33300000
10.27503014 -27.10619736 -3.12252164 3 11 16064 29.15600000 3182494350 3182494350 -6.14800000
9.90484905 -36.58204269 -3.53782296 5 12 16065 38.06400000 3182494353 3182494353 -5.33300000
38.36642075 -101.26643372 2.51986337 28 13 16065 108.32000000 3182494353 3182494353 1.33300000
37.10154343 -137.12374878 1.65377879 28 14 16066 142.06400000 3182494355 3182494355 0.66700000
16.44378853 -43.42551041 -3.24702430 8 15 16066 46.54800000 3182494355 3182494355 -4.00000000
12.92139816 -39.93391800 -3.42642069 8 16 16067 42.11200000 3182494357 3182494357 -4.66700000
42.29559326 -97.13409424 3.08324742 28 17 16067 105.98800000 3182494357 3182494357 1.66700000
43.35290146 -133.98326111 2.45806670 28 18 16067 140.84400000 3182494360 3182494360 1.00000000
19.24169731 -44.18958664 -3.08889341 18 19 16067 48.29600000 3182494360 3182494360 -3.66700000
16.63332939 -61.56041336 -3.71368814 28 20 16068 63.87600000 3182494362 3182494362 -3.33300000
39.58839417 -104.65714264 6.51645422 42 21 16068 112.08400000 3182494362 3182494362 3.33300000
38.51417542 -119.17105865 5.10241318 28 22 16069 125.34400000 3182494364 3182494364 2.33300000
19.45446205 -51.45757675 -2.56256199 16 23 16069 55.07200000 3182494364 3182494364 -2.66700000
19.29150391 -59.72764587 -3.28941941 28 24 16070 62.85200000 3182494366 3182494366 -3.00000000
39.67580414 -104.99897003 13.78196049 28 25 16070 113.08800000 3182494366 3182494366 7.00000000
36.48590469 -113.02998352 9.69604111 28 26 16071 119.16800000 3182494369 3182494369 4.66700000
37.05960083 -137.53985596 -4.97429514 28 28 16072 142.53200000 3182494371 3182494371 -2.00000000
37.15784836 -98.49132538 -2.44951558 28 31 16073 105.29600000 3182494373 3182494373 -1.33300000
2.05351567 -6.39979029 -3.13413692 4 0 16081 7.41600000 3182494394 3182494394 -25.00000000
37.54931641 -86.81291962 -1.65099764 28 1 16081 94.60000000 3182494394 3182494394 -1.00000000
36.90763855 -115.09184265 -3.51751113 28 2 16082 120.91600000 3182494396 3182494396 -1.66700000
3.54885030 -9.45157909 -2.82622814 20 3 16082 10.48400000 3182494396 3182494396 -15.63900000
4.95830441 -15.47113705 -3.24927139 6 4 16083 16.56800000 3182494399 3182494399 -11.31000000
44.10445023 -117.52478790 0.00000000 28 5 16083 125.52800000 3182494399 3182494399 0.00000000
35.95993423 -134.48593140 -1.62067163 29 6 16083 139.22000000 3182494401 3182494401 -0.66700000
7.06431818 -18.82423592 -3.12804627 2 7 16083 20.34800000 3182494401 3182494401 -8.84300000
7.93872738 -24.78567886 -3.31277323 3 8 16084 26.23600000 3182494403 3182494403 -7.25400000
40.81257629 -94.49324036 0.59823191 28 9 16084 102.93200000 3182494403 3182494403 0.33300000
43.81191635 -136.86839294 -0.83524173 28 10 16085 143.71200000 3182494406 3182494406 -0.33300000
10.19236374 -27.18836212 -3.12766218 3 11 16085 29.20400000 3182494406 3182494406 -6.14800000
9.78507710 -36.67197418 -3.54302788 5 12 16086 38.12000000 3182494408 3182494408 -5.33300000
37.72701645 -100.69113922 2.50209022 28 13 16086 107.55600000 3182494408 3182494408 1.33300000
36.57294846 -137.16218567 1.65261471 28 14 16087 141.96400000 3182494410 3182494410 0.66700000
16.38107109 -43.74332809 -3.26627707 8 15 16087 46.82400000 3182494410 3182494410 -4.00000000
12.77494621 -39.98100662 -3.42642069 8 16 16088 42.11200000 3182494413 3182494413 -4.66700000
41.85065842 -97.08284760 3.07673120 28 17 16088 105.76400000 3182494413 3182494413 1.66700000
43.12081909 -134.95271301 2.47293615 28 18 16088 141.69600000 3182494415 3182494415 1.00000000
19.12385178 -44.36245346 -3.09605646 19 19 16088 48.40800000 3182494415 3182494415 -3.66700000
16.45895958 -61.81389999 -3.72531581 28 20 16089 64.07600000 3182494417 3182494417 -3.33300000
39.17795563 -104.73047638 6.51203537 42 21 16089 112.00800000 3182494417 3182494417 3.33300000
40.96062088 -128.34658813 5.48880672 28 22 16090 134.83600000 3182494419 3182494419 2.33300000
19.41965485 -51.94022751 -2.58303571 16 23 16090 55.51200000 3182494419 3182494419 -2.66700000
19.25331688 -60.36499023 -3.32061172 28 24 16091 63.44800000 3182494422 3182494422 -3.00000000
39.35740662 -105.32219696 13.80535889 28 25 16091 113.28000000 3182494422 3182494422 7.00000000
37.98804092 -119.17587280 10.21124172 28 26 16092 125.50000000 3182494424 3182494424 4.66700000
37.28874969 -140.43730164 -5.07410765 28 28 16093 145.39200000 3182494426 3182494426 -2.00000000
37.14746857 -99.56726837 -2.47287178 28 31 16094 106.30000000 3182494429 3182494429 -1.33300000
2.00927138 -6.33019209 -3.09694672 4 0 16099 7.32800000 3182494449 3182494449 -25.00000000
37.47027206 -87.38256836 -1.65958428 28 1 16099 95.09200000 3182494449 3182494449 -1.00000000
37.30753326 -117.60824585 -3.59081912 28 2 16100 123.43600000 3182494452 3182494452 -1.66700000
3.50034237 -9.41213703 -2.81113195 23 3 16100 10.42800000 3182494452 3182494452 -15.63900000
4.91560268 -15.50533199 -3.25319362 6 4 16101 16.58800000 3182494454 3182494454 -11.31000000
43.75313568 -117.71150970 0.00000000 28 5 16101 125.58000000 3182494454 3182494454 0.00000000
36.10393524 -136.74453735 -1.64651477 29 6 16101 141.44000000 3182494456 3182494456 -0.66700000
7.01340771 -18.86856461 -3.13173556 2 7 16101 20.37200000 3182494456 3182494456 -8.84300000
7.87879896 -24.86723518 -3.32034922 3 8 16102 26.29600000 3182494459 3182494459 -7.25400000
40.56747437 -94.74233246 0.59899908 28 9 16102 103.06400000 3182494459 3182494459 0.33300000
42.98929214 -135.76602173 -0.82768625 28 10 16103 142.41200000 3182494461 3182494461 -0.33300000
10.12212658 -27.26125908 -3.13237453 3 11 16103 29.24800000 3182494461 3182494461 -6.14800000
9.71142197 -36.86043549 -3.55827069 5 12 16104 38.28400000 3182494463 3182494463 -5.33300000
37.29641342 -100.50173950 2.49446011 28 13 16104 107.22800000 3182494463 3182494463 1.33300000
36.10316467 -137.12942505 1.65084529 28 14 16105 141.81200000 3182494465 3182494465 0.66700000
16.28658295 -43.91055298 -3.27492690 8 15 16105 46.94800000 3182494465 3182494465 -4.00000000
12.66850281 -40.08176422 -3.43162799 8 16 16106 42.17600000 3182494468 3182494468 -4.66700000
42.38764954 -99.18452454 3.13910127 28 17 16106 107.90800000 3182494468 3182494468 1.66700000
43.10161972 -136.36883545 2.49639225 28 18 16106 143.04000000 3182494470 3182494470 1.00000000
19.05654907 -44.59116364 -3.10782480 19 19 16106 48.59200000 3182494470 3182494470 -3.66700000
16.34083557 -62.15495300 -3.74275756 28 20 16107 64.37600000 3182494472 3182494472 -3.33300000
39.25939941 -105.96141052 6.58087206 42 21 16107 113.19200000 3182494472 3182494472 3.33300000
42.79989243 -135.57887268 5.79232025 28 22 16108 142.29200000 3182494475 3182494475 2.33300000
19.43260193 -52.47684860 -2.60667348 16 23 16108 56.02000000 3182494475 3182494475 -2.66700000
19.25707626 -61.03849792 -3.35431600 28 24 16109 64.09200000 3182494477 3182494477 -3.00000000
39.02908707 -105.45276642 13.80633450 28 25 16109 113.28800000 3182494477 3182494477 7.00000000
37.58947754 -119.21858215 10.20473194 28 26 16110 125.42000000 3182494479 3182494479 4.66700000
37.21129990 -141.94197083 -5.12422323 28 28 16111 146.82800000 3182494482 3182494482 -2.00000000
36.99111176 -100.10734558 -2.48338675 28 31 16112 106.75200000 3182494484 3182494484 -1.33300000
1.96112239 -6.25794935 -3.05806565 4 0 16120 7.23600000 3182494505 3182494505 -25.00000000
37.53104019 -88.41759491 -1.67661774 28 1 16120 96.06800000 3182494505 3182494505 -1.00000000
37.20484924 -118.79347229 -3.62281871 28 2 16121 124.53600000 3182494507 3182494507 -1.66700000
3.46715117 -9.42851830 -2.81221008 25 3 16121 10.43200000 3182494507 3182494507 -15.63900000
4.86459780 -15.54196072 -3.25711608 6 4 16122 16.60800000 3182494509 3182494509 -11.31000000
36.30125809 -139.56236267 -1.67883050 29 6 16122 144.21600000 3182494512 3182494512 -0.66700000
6.95783854 -18.93124199 -3.13788462 3 7 16122 20.41200000 3182494512 3182494512 -8.84300000
7.81366444 -24.97926140 -3.33146071 3 8 16123 26.38400000 3182494514 3182494514 -7.25400000
40.63673401 -95.87368011 0.60520619 28 9 16123 104.13200000 3182494514 3182494514 0.33300000
42.55107117 -136.11355591 -0.82884866 28 10 16124 142.61200000 3182494516 3182494516 -0.33300000
10.05914879 -27.39897537 -3.14394093 3 11 16124 29.35600000 3182494516 3182494516 -6.14800000
9.59426689 -36.96517181 -3.56496263 5 12 16125 38.35600000 3182494518 3182494518 -5.33300000
37.13856888 -101.21214294 2.50869703 28 13 16125 107.84000000 3182494518 3182494518 1.33300000
35.52902222 -136.98594666 1.64753926 28 14 16126 141.52800000 3182494521 3182494521 0.66700000
16.20659447 -44.19098282 -3.29138947 8 15 16126 47.18400000 3182494521 3182494521 -4.00000000
12.56307507 -40.26113129 -3.44301915 8 16 16127 42.31600000 3182494523 3182494523 -4.66700000
41.11098480 -97.18135071 3.07091308 28 17 16127 105.56400000 3182494523 3182494523 1.66700000
42.08924866 -134.88423157 2.46637416 28 18 16127 141.32000000 3182494525 3182494525 1.00000000
18.97385788 -44.85188293 -3.12112784 19 19 16127 48.80000000 3182494525 3182494525 -3.66700000
40.87351227 -111.57142639 6.91993904 42 21 16128 119.02400000 3182494528 3182494528 3.33300000
42.16473770 -135.29222107 5.77343225 28 22 16129 141.82800000 3182494530 3182494530 2.33300000
19.41048622 -53.01297760 -2.62975287 16 23 16129 56.51600000 3182494530 3182494530 -2.66700000
19.23873138 -61.76845551 -3.39053249 28 24 16130 64.78400000 3182494532 3182494532 -3.00000000
40.41466904 -110.43827057 14.43956757 28 25 16130 118.48400000 3182494532 3182494532 7.00000000
37.01566315 -143.33534241 -5.16959286 28 28 16132 148.12800000 3182494537 3182494537 -2.00000000
36.95447922 -101.09218597 -2.50460267 28 31 16132 107.66400000 3182494539 3182494539 -1.33300000
1.93926620 -6.26475668 -3.05806565 4 0 16140 7.23600000 3182494560 3182494560 -25.00000000
37.49649811 -89.20063782 -1.68897414 28 1 16140 96.77600000 3182494560 3182494560 -1.00000000
37.13027573 -120.02269745 -3.65633106 28 2 16141 125.68800000 3182494562 3182494562 -1.66700000
3.41051579 -9.37540627 -2.79280066 27 3 16141 10.36000000 3182494562 3182494562 -15.63900000
4.81610966 -15.57758331 -3.26103830 2 4 16142 16.62800000 3182494565 3182494565 -11.31000000
35.57805252 -138.86920166 -1.66891229 29 6 16143 143.36400000 3182494567 3182494567 -0.66700000
7.73696566 -25.04050446 -3.33600640 3 8 16143 26.42000000 3182494569 3182494569 -7.25400000
40.32504654 -96.07027435 0.60555494 28 9 16143 104.19200000 3182494569 3182494569 0.33300000
37.37163162 -121.02727509 -0.73618346 28 10 16144 126.66800000 3182494571 3182494571 -0.33300000
9.97838020 -27.47504234 -3.14865327 3 11 16144 29.40000000 3182494571 3182494571 -6.14800000
9.50564575 -37.15663147 -3.58020544 5 12 16145 38.52000000 3182494574 3182494574 -5.33300000
36.78641129 -101.34492493 2.50879002 28 13 16145 107.84400000 3182494574 3182494574 1.33300000
35.10908508 -137.33775330 1.65028656 28 14 16146 141.76400000 3182494576 3182494576 0.66700000
16.06040573 -44.26979065 -3.29306364 8 15 16146 47.20800000 3182494576 3182494576 -4.00000000
12.43537807 -40.34664536 -3.44659901 8 16 16147 42.36000000 3182494578 3182494578 -4.66700000
40.84257507 -97.49389648 3.07626581 28 17 16147 105.74800000 3182494578 3182494578 1.66700000
41.57221985 -134.96496582 2.46504760 28 18 16148 141.24400000 3182494581 3182494581 1.00000000
18.87100983 -45.06840515 -3.13136125 19 19 16148 48.96000000 3182494581 3182494581 -3.66700000
16.01910973 -62.75394058 -3.77182722 28 20 16148 64.87600000 3182494583 3182494583 -3.33300000
40.51781845 -111.80728149 6.92575264 42 21 16148 119.12400000 3182494583 3182494583 3.33300000
19.39812660 -53.55752563 -2.65339088 16 23 16149 57.02400000 3182494585 3182494585 -2.66700000
19.21680260 -62.46519470 -3.42507434 28 24 16150 65.44400000 3182494588 3182494588 -3.00000000
38.96404266 -107.63697815 14.05543518 28 25 16150 115.33200000 3182494588 3182494588 7.00000000
37.18610764 -102.83763123 -2.54461527 28 31 16152 109.38400000 3182494595 3182494595 -1.33300000
1.93752468 -6.33735752 -3.09018469 2 0 16160 7.31200000 3182494615 3182494615 -25.00000000
37.44003296 -89.94390106 -1.70056248 28 1 16160 97.44000000 3182494615 3182494615 -1.00000000
37.00667953 -121.11899567 -3.68577075 28 2 16161 126.70000000 3182494618 3182494618 -1.66700000
3.36994386 -9.36550808 -2.78633094 18 3 16161 10.33600000 3182494618 3182494618 -15.63900000
41.08155441 -114.23350525 0.00000000 28 5 16162 121.39600000 3182494620 3182494620 0.00000000
6.84492016 -19.04377747 -3.14833808 28 7 16163 20.48000000 3182494622 3182494622 -8.84300000
7.66109228 -25.10531044 -3.34105730 3 8 16163 26.46000000 3182494624 3182494624 -7.25400000
40.40549850 -97.21141052 0.61185503 28 9 16163 105.27600000 3182494624 3182494624 0.33300000
36.93027115 -121.09577179 -0.73581153 28 10 16164 126.60400000 3182494627 3182494627 -0.33300000
9.89989281 -27.55836105 -3.15422225 3 11 16164 29.45200000 3182494627 3182494627 -6.14800000
9.41872597 -37.35950851 -3.59656358 5 12 16165 38.69600000 3182494629 3182494629 -5.33300000
36.46756363 -101.57057190 2.51120949 28 13 16165 107.94800000 3182494629 3182494629 1.33300000
34.67832565 -137.65341187 1.65261471 28 14 16166 141.96400000 3182494631 3182494631 0.66700000
15.95699024 -44.46829987 -3.30366659 8 15 16166 47.36000000 3182494631 3182494631 -4.00000000
12.35251331 -40.58050537 -3.46287203 9 16 16167 42.56000000 3182494634 3182494634 -4.66700000
40.90799332 -98.61455536 3.10710168 28 17 16167 106.80800000 3182494634 3182494634 1.66700000
18.79792976 -45.31509399 -3.14415264 20 19 16167 49.16000000 3182494636 3182494636 -3.66700000
15.99479198 -63.58399200 -3.81833839 28 20 16168 65.67600000 3182494638 3182494638 -3.33300000
39.07900238 -109.02349854 6.74482393 42 21 16168 116.01200000 3182494638 3182494638 3.33300000
43.42681122 -142.84483337 6.08264446 28 22 16169 149.42400000 3182494641 3182494641 2.33300000
19.37950516 -54.09510803 -2.67665625 16 23 16169 57.52400000 3182494641 3182494641 -2.66700000
19.21114349 -63.23131943 -3.46338415 28 24 16170 66.17600000 3182494643 3182494643 -3.00000000
38.65901184 -107.97043610 14.08127117 28 25 16170 115.54400000 3182494643 3182494643 7.00000000
37.56817627 -149.78645325 -5.39267015 28 28 16172 154.52000000 3182494648 3182494648 -2.00000000
37.02218246 -103.51277924 -2.55810785 28 31 16172 109.96400000 3182494650 3182494650 -1.33300000
1.90590644 -6.31665087 -3.07666087 2 0 16181 7.28000000 3182494671 3182494671 -25.00000000
37.31882858 -90.58713531 -1.71012640 28 1 16181 97.98800000 3182494671 3182494671 -1.00000000
37.20660782 -123.38987732 -3.75070071 28 2 16182 128.93200000 3182494673 3182494673 -1.66700000
3.35108542 -9.42134666 -2.79927063 21 3 16182 10.38400000 3182494673 3182494673 -15.63900000
3.50037742 -11.61578655 -2.42636323 7 4 16183 12.37200000 3182494676 3182494676 -11.31000000
40.71216583 -114.52276611 0.00000000 28 5 16183 121.54400000 3182494676 3182494676 0.00000000
36.42880630 -146.43455505 -1.75673258 29 6 16183 150.90800000 3182494678 3182494678 -0.66700000
7.59991884 -25.23580551 -3.35469413 3 8 16184 26.56800000 3182494680 3182494680 -7.25400000
39.70046616 -96.51173401 0.60653132 28 9 16184 104.36000000 3182494680 3182494680 0.33300000
40.63959885 -135.03060913 -0.81957281 28 10 16185 141.01600000 3182494683 3182494683 -0.33300000
9.84539890 -27.72563171 -3.16921592 3 11 16185 29.59200000 3182494683 3182494683 -6.14800000
9.32011127 -37.54839325 -3.61143470 5 12 16186 38.85600000 3182494685 3182494685 -5.33300000
39.69290924 -111.84111786 2.76152086 28 13 16186 118.70800000 3182494685 3182494685 1.33300000
15.85525990 -44.69947815 -3.31650186 8 15 16187 47.54400000 3182494687 3182494687 -4.00000000
12.24728012 -40.77059937 -3.47523928 9 16 16188 42.71200000 3182494689 3182494689 -4.66700000
40.62068176 -98.94506836 3.11280346 28 17 16188 107.00400000 3182494689 3182494689 1.66700000
18.68932343 -45.52400970 -3.15387416 20 19 16188 49.31200000 3182494692 3182494692 -3.66700000
15.76163769 -63.64218903 -3.81833839 28 20 16189 65.67600000 3182494694 3182494694 -3.33300000
40.68523407 -135.61094666 5.76822186 28 22 16190 141.70000000 3182494696 3182494696 2.33300000
19.36516953 -54.68555069 -2.70234156 16 23 16190 58.07600000 3182494696 3182494696 -2.66700000
19.17657852 -63.95942307 -3.49939132 28 24 16191 66.86400000 3182494699 3182494699 -3.00000000
40.15193176 -113.44847870 14.77641392 28 25 16191 121.24800000 3182494699 3182494699 7.00000000
41.04711533 -136.99087524 11.67450047 28 26 16192 143.48400000 3182494701 3182494701 4.66700000
37.21059036 -150.69934082 -5.42058992 28 28 16193 155.32000000 3182494703 3182494703 -2.00000000
37.23967361 -105.33684540 -2.59979558 28 31 16193 111.75600000 3182494706 3182494706 -1.33300000
1.87245977 -6.28504753 -3.05806565 4 0 16201 7.23600000 3182494726 3182494726 -25.00000000
37.68513107 -92.39068604 -1.74168038 28 1 16201 99.79600000 3182494726 3182494726 -1.00000000
36.97419357 -124.18577576 -3.77094769 28 2 16202 129.62800000 3182494729 3182494729 -1.66700000
3.32073474 -9.44025421 -2.80142713 15 3 16202 10.39200000 3182494729 3182494729 -15.63900000
3.46092796 -11.63169384 -2.42714763 7 4 16203 12.37600000 3182494731 3182494731 -11.31000000
6.73277807 -19.15075874 -3.15817666 2 7 16203 20.54400000 3182494733 3182494733 -8.84300000
7.52083111 -25.29260826 -3.35873485 3 8 16204 26.60000000 3182494736 3182494736 -7.25400000
39.81444931 -97.75736237 0.61348236 28 9 16204 105.55600000 3182494736 3182494736 0.33300000
39.82619095 -134.02137756 -0.81259853 28 10 16205 139.81600000 3182494738 3182494738 -0.33300000
9.76305294 -27.80110550 -3.17392802 3 11 16205 29.63600000 3182494738 3182494738 -6.14800000
9.20695972 -37.65420151 -3.61849856 5 12 16206 38.93200000 3182494740 3182494740 -5.33300000
39.30094528 -111.97521973 2.76142788 28 13 16206 118.70400000 3182494740 3182494740 1.33300000
40.67184067 -166.46376038 1.99495566 28 14 16207 171.37200000 3182494742 3182494742 0.66700000
15.77045727 -44.95787811 -3.33156919 8 15 16207 47.76000000 3182494742 3182494742 -4.00000000
12.11169147 -40.83603668 -3.47719216 9 16 16208 42.73600000 3182494745 3182494745 -4.66700000
41.44185638 -101.95687103 3.20298409 28 17 16208 110.10400000 3182494745 3182494745 1.66700000
40.48527527 -136.50100708 2.48522258 28 18 16208 142.40000000 3182494747 3182494747 1.00000000
18.60545731 -45.77387238 -3.16666579 20 19 16208 49.51200000 3182494747 3182494747 -3.66700000
40.24794006 -135.87477112 5.77343225 28 22 16210 141.82800000 3182494752 3182494752 2.33300000
19.34848595 -55.25060272 -2.72690988 16 23 16210 58.60400000 3182494752 3182494752 -2.66700000
19.15842628 -64.71923828 -3.53728271 28 24 16211 67.58800000 3182494754 3182494754 -3.00000000
39.63239288 -113.23570251 14.73059082 28 25 16211 120.87200000 3182494754 3182494754 7.00000000
39.36533356 -133.06568909 11.32821274 28 26 16212 139.22800000 3182494756 3182494756 4.66700000
36.87327194 -151.60517883 -5.44850922 28 28 16213 156.12000000 3182494759 3182494759 -2.00000000
37.10930252 -106.14567566 -2.61654496 28 31 16213 112.47600000 3182494761 3182494761 -1.33300000
1.85562408 -6.30893517 -3.06651807 2 0 16221 7.25600000 3182494782 3182494782 -25.00000000
37.51065445 -92.88880157 -1.74859154 28 1 16221 100.19200000 3182494782 3182494782 -1.00000000
37.07606125 -126.13619995 -3.82621980 28 2 16222 131.52800000 3182494784 3182494784 -1.66700000
3.24346948 -9.32445431 -2.76368666 27 3 16222 10.25200000 3182494784 3182494784 -15.63900000
3.41919923 -11.63994122 -2.42636323 7 4 16223 12.37200000 3182494786 3182494786 -11.31000000
36.82083511 -152.54852295 -1.82695162 29 6 16223 156.94000000 3182494789 3182494789 -0.66700000
6.68016481 -19.21520996 -3.16494083 2 7 16223 20.58800000 3182494789 3182494789 -8.84300000
7.44255638 -25.35297203 -3.36328030 3 8 16224 26.63600000 3182494791 3182494791 -7.25400000
39.61058426 -98.23703766 0.61562115 28 9 16224 105.92400000 3182494791 3182494791 0.33300000
39.54954529 -134.81205750 -0.81655061 28 10 16225 140.49600000 3182494793 3182494793 -0.33300000
9.70639324 -27.95148087 -3.18720818 3 11 16225 29.76000000 3182494793 3182494793 -6.14800000
9.11089897 -37.83324814 -3.63262606 5 12 16226 39.08400000 3182494795 3182494795 -5.33300000
40.15228653 -166.86137390 1.99802899 28 14 16227 171.63600000 3182494798 3182494798 0.66700000
15.68404198 -45.21622849 -3.34663653 8 15 16227 47.97600000 3182494798 3182494798 -4.00000000
12.02396679 -41.06554413 -3.49313951 9 16 16228 42.93200000 3182494800 3182494800 -4.66700000
41.08570862 -102.10091400 3.20298409 28 17 16228 110.10400000 3182494800 3182494800 1.66700000
39.97122574 -136.60241699 2.48438501 28 18 16229 142.35200000 3182494802 3182494802 1.00000000
18.51203918 -46.02693176 -3.17945719 20 19 16229 49.71200000 3182494802 3182494802 -3.66700000
41.04841995 -118.47389221 7.30202866 42 21 16229 125.59600000 3182494805 3182494805 3.33300000
39.04539490 -133.52484131 5.66775608 28 22 16230 139.23200000 3182494807 3182494807 2.33300000
19.34247208 -55.85772705 -2.75352573 16 23 16230 59.17600000 3182494807 3182494807 -2.66700000
19.12623596 -65.44902802 -3.57349920 28 24 16231 68.28000000 3182494809 3182494809 -3.00000000
38.97069931 -112.60422516 14.63065815 28 25 16231 120.05200000 3182494809 3182494809 7.00000000
38.80561066 -132.87699890 11.30054855 28 26 16232 138.88800000 3182494812 3182494812 4.66700000
37.73875046 -157.55659485 -5.65762711 28 28 16233 162.11200000 3182494814 3182494814 -2.00000000
37.19715500 -107.60115051 -2.64920640 28 31 16233 113.88000000 3182494816 3182494816 -1.33300000
1.84895110 -6.35998821 -3.08849430 2 0 16239 7.30800000 3182494837 3182494837 -25.00000000
37.48611450 -93.67455292 -1.76115727 28 1 16239 100.91200000 3182494837 3182494837 -1.00000000
37.15369797 -127.88385773 -3.87567377 28 2 16240 133.22800000 3182494839 3182494839 -1.66700000
3.21415973 -9.33459759 -2.76368666 21 3 16240 10.25200000 3182494839 3182494839 -15.63900000
3.38808274 -11.66945934 -2.43028545 9 4 16241 12.39200000 3182494841 3182494841 -11.31000000
36.46840668 -153.31571960 -1.83468127 29 6 16242 157.60400000 3182494844 3182494844 -0.66700000
6.63311958 -19.28584480 -3.17293453 2 7 16242 20.64000000 3182494844 3182494844 -8.84300000
7.37724543 -25.42576981 -3.36984634 3 8 16242 26.68800000 3182494846 3182494846 -7.25400000
39.23498154 -98.19384766 0.61457503 28 9 16242 105.74400000 3182494846 3182494846 0.33300000
39.13585281 -134.97023010 -0.81675988 28 10 16243 140.53200000 3182494848 3182494848 -0.33300000
9.62758255 -28.00816345 -3.19020677 3 11 16243 29.78800000 3182494848 3182494848 -6.14800000
9.03156948 -38.02830505 -3.64861226 5 12 16244 39.25600000 3182494851 3182494851 -5.33300000
15.60670471 -45.45397949 -3.36058784 8 15 16245 48.17600000 3182494853 3182494853 -4.00000000
11.90265465 -41.12992096 -3.49541783 9 16 16246 42.96000000 3182494855 3182494855 -4.66700000
38.50925446 -96.57317352 3.02576470 28 17 16246 104.01200000 3182494855 3182494855 1.66700000
39.34005356 -135.94053650 2.47021365 28 18 16246 141.54000000 3182494858 3182494858 1.00000000
18.44488525 -46.25592422 -3.19148111 21 19 16246 49.90000000 3182494858 3182494858 -3.66700000
39.04504395 -113.84668732 7.00924015 42 21 16247 120.56000000 3182494860 3182494860 3.33300000
39.29042053 -135.94673157 5.76529074 28 22 16248 141.62800000 3182494862 3182494862 2.33300000
19.34050369 -56.42470932 -2.77846646 16 23 16248 59.71200000 3182494862 3182494862 -2.66700000
19.13001823 -66.23410797 -3.61306500 28 24 16249 69.03600000 3182494865 3182494865 -3.00000000
38.58072662 -112.62093353 14.61700916 28 25 16249 119.94000000 3182494865 3182494865 7.00000000
38.44325638 -133.18977356 11.31682205 28 26 16250 139.08800000 3182494867 3182494867 4.66700000
36.97341537 -108.11363983 -2.65879083 28 31 16252 114.29200000 3182494871 3182494871 -1.33300000
1.83162367 -6.38763094 -3.09863710 1 0 16260 7.33200000 3182494892 3182494892 -25.00000000
37.50323486 -94.72235870 -1.77826059 28 1 16260 101.89200000 3182494892 3182494892 -1.00000000
36.77284241 -128.32666016 -3.88498259 28 2 16261 133.54800000 3182494894 3182494894 -1.66700000
3.21218348 -9.44112778 -2.79172254 15 3 16261 10.35600000 3182494894 3182494894 -15.63900000
3.34960866 -11.69688129 -2.43342328 3 4 16262 12.40800000 3182494897 3182494897 -11.31000000
6.57510662 -19.34745026 -3.17908359 2 7 16263 20.68000000 3182494899 3182494899 -8.84300000
7.30911541 -25.54037857 -3.38146305 3 8 16263 26.78000000 3182494901 3182494901 -7.25400000
38.92334747 -98.45974731 0.61534220 28 9 16263 105.87600000 3182494901 3182494901 0.33300000
38.34503937 -134.07824707 -0.81050622 28 10 16264 139.45600000 3182494904 3182494904 -0.33300000
9.54788589 -28.11104393 -3.19791794 3 11 16264 29.86000000 3182494904 3182494904 -6.14800000
8.91206074 -38.14647293 -3.65679145 5 12 16265 39.34400000 3182494906 3182494906 -5.33300000
38.86191177 -166.47256470 1.99015963 28 14 16266 170.96000000 3182494908 3182494908 0.66700000
15.51307487 -45.72626114 -3.37649226 8 15 16266 48.40400000 3182494908 3182494908 -4.00000000
