# .PCD v0.7 - Point Cloud Data file format
VERSION 0.7
FIELDS x y z intensity laser_id azimuth distance_m adjustedtime timestamp vertical_angle
SIZE 4 4 4 1 1 2 8 8 4 8
TYPE F F F U U U F U U F
COUNT 1 1 1 1 1 1 1 1 1 1
WIDTH 508
HEIGHT 1
VIEWPOINT 0 0 0 1 0 0 0
POINTS 508
DATA ascii
38.37088013 -52.67752457 0.37877405 56 9 14813 65.17200000 3187690956 3187690956 0.33300000
37.62826157 -63.98221588 -0.43140674 56 10 14814 74.22800000 3187690958 3187690958 -0.33300000
13.94620609 -21.26340485 -2.73911405 2 11 14814 25.57600000 3187690958 3187690958 -6.14800000
14.92270279 -28.48392868 -3.00172162 4 12 14815 32.29600000 3187690960 3187690960 -5.33300000
41.64366150 -63.51713943 1.76734734 26 13 14815 75.97200000 3187690960 3187690960 1.33300000
36.93252182 -70.52543640 0.92681646 28 14 14816 79.61600000 3187690963 3187690963 0.66700000
19.77928352 -30.17990685 -2.52323127 9 15 14816 36.17200000 3187690963 3187690963 -4.00000000
17.47234535 -29.74519730 -2.81618714 12 16 14817 34.61200000 3187690965 3187690965 -4.66700000
44.53207779 -61.22570419 2.20331717 28 17 14817 75.74000000 3187690965 3187690965 1.66700000
38.19532776 -65.02433014 1.31633031 28 18 14817 75.42400000 3187690967 3187690967 1.00000000
19.95580482 -27.43658638 -2.17430043 12 19 14817 33.99600000 3187690967 3187690967 -3.66700000
19.81985283 -37.87967300 -2.48974538 9 20 14818 42.82400000 3187690970 3187690970 -3.33300000
41.01964188 -62.63685608 4.36042643 35 21 14818 75.00000000 3187690970 3187690970 3.33300000
38.57770920 -65.72782898 3.10498857 28 22 14819 76.27600000 3187690972 3187690972 2.33300000
19.90407944 -30.40503883 -1.69280231 12 23 14819 36.38000000 3187690972 3187690972 -2.66700000
19.80125237 -33.75041962 -2.05073214 18 24 14820 39.18400000 3187690974 3187690974 -3.00000000
69.06209564 -117.76057434 11.14465427 28 26 14821 136.97200000 3187690976 3187690976 4.66700000
38.01723862 -52.34545135 -2.63571501 57 27 14821 64.74800000 3187690976 3187690976 -2.33300000
38.58586502 -73.87074280 -2.91033888 28 28 14822 83.39200000 3187690979 3187690979 -2.00000000
38.20743561 -58.45385742 -1.62497687 40 31 14823 69.85200000 3187690981 3187690981 -1.33300000
3.20263028 -5.48064470 -2.96001840 17 0 14830 7.00400000 3187691002 3187691002 -25.00000000
38.25614166 -52.84878540 -1.13880444 28 1 14830 65.25200000 3187691002 3187691002 -1.00000000
38.60883713 -66.09758759 -2.22775316 28 2 14831 76.58000000 3187691004 3187691004 -1.66700000
5.82103825 -8.93286228 -2.98473835 6 3 14831 11.07200000 3187691004 3187691004 -15.63900000
7.55297947 -12.93573856 -2.99588776 3 4 14832 15.27600000 3187691006 3187691006 -11.31000000
38.20448303 -58.65029907 0.00000000 49 5 14832 69.99600000 3187691006 3187691006 0.00000000
37.96278000 -72.98801422 -0.95778173 29 6 14832 82.27600000 3187691009 3187691009 -0.66700000
9.97313595 -15.31043816 -2.84272790 3 7 14832 18.49200000 3187691009 3187691009 -8.84300000
11.62695217 -19.92108154 -2.93598866 5 8 14833 23.25200000 3187691011 3187691011 -7.25400000
38.43286133 -53.15148544 0.38121504 56 9 14833 65.59200000 3187691011 3187691011 0.33300000
37.87232971 -64.91471863 -0.43680018 28 10 14834 75.15600000 3187691013 3187691013 -0.33300000
13.92613602 -21.39528465 -2.74982381 3 11 14834 25.67600000 3187691013 3187691013 -6.14800000
14.84888744 -28.58532524 -3.00692654 4 12 14835 32.35200000 3187691016 3187691016 -5.33300000
41.31046677 -63.49116898 1.76260161 52 13 14835 75.76800000 3187691016 3187691016 1.33300000
36.62345123 -70.53323364 0.92523330 28 14 14836 79.48000000 3187691018 3187691018 0.66700000
19.77824402 -30.40932655 -2.53662443 10 15 14836 36.36400000 3187691018 3187691018 -4.00000000
17.41658211 -29.88867569 -2.82399821 6 16 14837 34.70800000 3187691020 3187691020 -4.66700000
43.37719345 -60.07763290 2.15653944 28 17 14837 74.13200000 3187691020 3187691020 1.66700000
38.09497452 -65.37496185 1.32072830 28 18 14837 75.67600000 3187691023 3187691023 1.00000000
19.94870758 -27.62906075 -2.18402195 12 19 14837 34.14800000 3187691023 3187691023 -3.66700000
19.78680992 -38.14003372 -2.50230336 9 20 14838 43.04000000 3187691025 3187691025 -3.33300000
40.63319397 -62.52184296 4.34251976 35 21 14838 74.69200000 3187691025 3187691025 3.33300000
38.35608673 -65.87590790 3.10563993 28 22 14839 76.29200000 3187691027 3187691027 2.33300000
19.89142799 -30.61841011 -1.70080566 12 23 14839 36.55200000 3187691027 3187691027 -2.66700000
19.79383469 -34.00921249 -2.06224608 18 24 14840 39.40400000 3187691029 3187691029 -3.00000000
68.67868042 -118.04917145 11.14921093 28 26 14841 137.02800000 3187691032 3187691032 4.66700000
37.98621368 -52.68856430 -2.64629889 57 27 14841 65.00800000 3187691032 3187691032 -2.33300000
38.60353851 -74.53744507 -2.93127847 28 28 14842 83.99200000 3187691034 3187691034 -2.00000000
38.16855240 -58.84184265 -1.63204885 40 31 14843 70.15600000 3187691036 3187691036 -1.33300000
3.20540762 -5.52517223 -2.97861362 17 0 14848 7.04800000 3187691057 3187691057 -25.00000000
38.17631531 -53.08885193 -1.14138734 28 1 14848 65.40000000 3187691057 3187691057 -1.00000000
38.61962891 -66.59556580 -2.24043655 28 2 14849 77.01600000 3187691059 3187691059 -1.66700000
5.79294634 -8.95110607 -2.98473835 7 3 14849 11.07200000 3187691059 3187691059 -15.63900000
7.51820469 -12.96958351 -2.99824119 3 4 14850 15.28800000 3187691062 3187691062 -11.31000000
38.17430115 -59.00848389 0.00000000 49 5 14850 70.28000000 3187691062 3187691062 0.00000000
37.69293594 -73.02872467 -0.95675737 29 6 14850 82.18800000 3187691064 3187691064 -0.66700000
9.93786812 -15.36160564 -2.84641743 3 7 14850 18.51600000 3187691064 3187691064 -8.84300000
11.61802387 -20.05020714 -2.94962573 5 8 14851 23.36000000 3187691066 3187691066 -7.25400000
38.41037369 -53.47338104 0.38265640 56 9 14851 65.84000000 3187691066 3187691066 0.33300000
37.56595993 -64.85684967 -0.43561456 56 10 14852 74.95200000 3187691069 3187691069 -0.33300000
13.92578220 -21.54246712 -2.76310396 3 11 14852 25.80000000 3187691069 3187691069 -6.14800000
14.78455830 -28.68139458 -3.01213145 4 12 14853 32.40800000 3187691071 3187691071 -5.33300000
41.02398300 -63.48628616 1.75887954 52 13 14853 75.60800000 3187691071 3187691071 1.33300000
36.39802170 -70.64083099 0.92514014 28 14 14854 79.47200000 3187691073 3187691073 0.66700000
19.77787590 -30.61879158 -2.54890156 15 15 14854 36.54000000 3187691073 3187691073 -4.00000000
17.40444946 -30.08473015 -2.83734202 6 16 14855 34.87200000 3187691076 3187691076 -4.66700000
43.11599731 -60.11289215 2.15293217 56 17 14855 74.00800000 3187691076 3187691076 1.66700000
37.94548035 -65.59124756 1.32268298 28 18 14855 75.78800000 3187691078 3187691078 1.00000000
19.94789314 -27.81161308 -2.19348788 12 19 14855 34.29600000 3187691078 3187691078 -3.66700000
19.76010895 -38.38307571 -2.51416373 19 20 14856 43.24400000 3187691080 3187691080 -3.33300000
40.95629883 -63.45440292 4.39833307 36 21 14856 75.65200000 3187691080 3187691080 3.33300000
39.73906326 -68.74692535 3.23508906 28 22 14857 79.47200000 3187691082 3187691082 2.33300000
19.89911842 -30.84190941 -1.70973957 12 23 14857 36.74400000 3187691082 3187691082 -2.66700000
19.79481125 -34.25799561 -2.07355070 18 24 14858 39.62000000 3187691085 3187691085 -3.00000000
68.16989136 -118.02614594 11.12675476 28 26 14859 136.75200000 3187691087 3187691087 4.66700000
38.13931656 -53.25279617 -2.66860652 57 27 14859 65.55600000 3187691087 3187691087 -2.33300000
38.57749176 -75.06368256 -2.94719267 28 28 14860 84.44800000 3187691089 3187691089 -2.00000000
38.31052017 -59.46908569 -1.64609981 20 31 14861 70.76000000 3187691092 3187691092 -1.33300000
3.16982746 -5.50804901 -2.96339917 17 0 14868 7.01200000 3187691112 3187691112 -25.00000000
38.20918655 -53.52777100 -1.14794946 28 1 14868 65.77600000 3187691112 3187691112 -1.00000000
38.85146713 -67.53749084 -2.26754904 28 2 14869 77.94800000 3187691115 3187691115 -1.66700000
5.76999187 -8.98423672 -2.98905158 6 3 14869 11.08800000 3187691115 3187691115 -15.63900000
7.48266268 -13.01274872 -3.00216341 3 4 14870 15.30800000 3187691117 3187691117 -11.31000000
38.24037170 -59.56549835 0.00000000 49 5 14870 70.78400000 3187691117 3187691117 0.00000000
37.33393097 -72.95689392 -0.95410317 29 6 14870 81.96000000 3187691119 3187691119 -0.66700000
9.89913273 -15.41948414 -2.85072184 3 7 14870 18.54400000 3187691119 3187691119 -8.84300000
11.55587482 -20.10440063 -2.95164609 5 8 14871 23.37600000 3187691122 3187691122 -7.25400000
38.54626846 -54.05982971 0.38588783 56 9 14871 66.39600000 3187691122 3187691122 0.33300000
37.29749298 -64.91474915 -0.43512636 28 10 14872 74.86800000 3187691124 3187691124 -0.33300000
13.86553097 -21.61437798 -2.76610255 3 11 14872 25.82800000 3187691124 3187691124 -6.14800000
14.73328686 -28.82857895 -3.02216935 4 12 14873 32.51600000 3187691126 3187691126 -5.33300000
40.93595886 -63.83781052 1.76464880 26 13 14873 75.85600000 3187691126 3187691126 1.33300000
36.26039124 -70.98116302 0.92793405 28 14 14874 79.71200000 3187691128 3187691128 0.66700000
19.76131630 -30.82873344 -2.56062055 10 15 14874 36.70800000 3187691128 3187691128 -4.00000000
17.34695244 -30.22828674 -2.84515285 6 16 14875 34.96800000 3187691131 3187691131 -4.66700000
43.42071915 -60.98610687 2.17876458 28 17 14875 74.89600000 3187691131 3187691131 1.66700000
37.83374023 -65.92796326 1.32680178 28 18 14875 76.02400000 3187691133 3187691133 1.00000000
19.94561386 -28.01439857 -2.20397687 12 19 14875 34.46000000 3187691133 3187691133 -3.66700000
19.78757477 -38.76836777 -2.53486133 19 20 14876 43.60000000 3187691135 3187691135 -3.33300000
40.41579056 -63.09931564 4.36391497 36 21 14876 75.06000000 3187691135 3187691135 3.33300000
37.90840149 -66.11150360 3.10482574 28 22 14877 76.27200000 3187691138 3187691138 2.33300000
19.89260101 -31.06933975 -1.71848750 12 23 14877 36.93200000 3187691138 3187691138 -2.66700000
19.78634453 -34.52095795 -2.08527374 18 24 14878 39.84400000 3187691140 3187691140 -3.00000000
68.48287201 -119.52944946 11.24587154 28 26 14879 138.21600000 3187691142 3187691142 4.66700000
38.21256256 -53.75043106 -2.68684340 57 27 14879 66.00400000 3187691142 3187691142 -2.33300000
38.57476044 -75.70722961 -2.96715522 28 28 14880 85.02000000 3187691145 3187691145 -2.00000000
38.53563690 -60.27967453 -1.66480339 21 31 14881 71.56400000 3187691147 3187691147 -1.33300000
3.18113470 -5.57260227 -2.99213719 15 0 14888 7.08000000 3187691168 3187691168 -25.00000000
38.14928055 -53.84030151 -1.15178907 28 1 14888 65.99600000 3187691168 3187691168 -1.00000000
38.78589630 -67.97135162 -2.27755618 28 2 14889 78.29200000 3187691170 3187691170 -1.66700000
5.74273634 -9.01081944 -2.99120831 6 3 14889 11.09600000 3187691170 3187691170 -15.63900000
7.44496727 -13.05241776 -3.00530148 3 4 14890 15.32400000 3187691172 3187691172 -11.31000000
38.19340515 -59.95163727 0.00000000 50 5 14890 71.08400000 3187691172 3187691172 0.00000000
38.08156204 -75.06285858 -0.97989982 29 6 14890 84.17600000 3187691175 3187691175 -0.66700000
9.85799026 -15.47394562 -2.85441136 3 7 14890 18.56800000 3187691175 3187691175 -8.84300000
11.50724602 -20.18253326 -2.95720172 5 8 14891 23.42000000 3187691177 3187691177 -7.25400000
38.56299210 -54.48462677 0.38795686 56 9 14891 66.75200000 3187691177 3187691177 0.33300000
37.42123413 -65.65965271 -0.43924120 56 10 14892 75.57600000 3187691179 3187691179 -0.33300000
13.80494881 -21.68612862 -2.76910138 3 11 14892 25.85600000 3187691179 3187691179 -6.14800000
14.65416718 -28.92246437 -3.02663064 4 12 14893 32.56400000 3187691181 3187691181 -5.33300000
40.77942657 -64.08489990 1.76753342 26 13 14893 75.98000000 3187691181 3187691181 1.33300000
37.18161011 -73.41593933 0.95806116 28 14 14894 82.30000000 3187691184 3187691184 0.66700000
19.76494789 -31.07260323 -2.57512999 10 15 14894 36.91600000 3187691184 3187691184 -4.00000000
17.27091408 -30.34062576 -2.85003471 6 16 14895 35.02800000 3187691186 3187691186 -4.66700000
43.18449783 -61.10464859 2.17760110 56 17 14895 74.85600000 3187691186 3187691186 1.66700000
38.32553101 -67.32826233 1.35228229 28 18 14895 77.48400000 3187691188 3187691188 1.00000000
19.93755531 -28.21098709 -2.21395421 12 19 14895 34.61600000 3187691188 3187691188 -3.66700000
19.76210594 -39.05455017 -2.54904723 19 20 14896 43.84400000 3187691191 3187691191 -3.33300000
40.08818817 -63.07150269 4.35228729 71 21 14896 74.86000000 3187691191 3187691191 3.33300000
37.66554260 -66.22258759 3.10384870 28 22 14897 76.24800000 3187691193 3187691193 2.33300000
19.88259315 -31.29372406 -1.72704923 12 23 14897 37.11600000 3187691193 3187691193 -2.66700000
19.78417969 -34.79816818 -2.09783459 19 24 14898 40.08400000 3187691195 3187691195 -3.00000000
67.31471252 -118.44718933 11.12187290 28 26 14899 136.69200000 3187691198 3187691198 4.66700000
38.25514603 -54.21003723 -2.70312619 57 27 14899 66.40400000 3187691198 3187691198 -2.33300000
38.59683990 -76.40876007 -2.98935127 28 28 14900 85.65600000 3187691200 3187691200 -2.00000000
38.35052872 -60.43076706 -1.66545475 21 31 14900 71.59200000 3187691202 3187691202 -1.33300000
3.16426015 -5.59053421 -2.99551821 19 0 14909 7.08800000 3187691223 3187691223 -25.00000000
38.07820129 -54.15970612 -1.15562856 28 1 14909 66.21600000 3187691223 3187691223 -1.00000000
38.86137009 -68.68724060 -2.29675579 28 2 14910 78.95200000 3187691225 3187691225 -1.66700000
5.71584654 -9.04157448 -2.99444318 6 3 14910 11.10800000 3187691225 3187691225 -15.63900000
7.41059399 -13.10351562 -3.01079273 1 4 14911 15.35200000 3187691228 3187691228 -11.31000000
38.24906540 -60.52742386 0.00000000 50 5 14911 71.60000000 3187691228 3187691228 0.00000000
37.64400101 -74.91190338 -0.97603500 29 6 14912 83.84400000 3187691230 3187691230 -0.66700000
9.81961060 -15.54509926 -2.86056042 3 7 14912 18.60800000 3187691230 3187691230 -8.84300000
11.43710136 -20.23148155 -2.95821190 2 8 14912 23.42800000 3187691232 3187691232 -7.25400000
38.47338104 -54.78272247 0.38907275 56 9 14912 66.94400000 3187691232 3187691232 0.33300000
37.19410324 -65.82074738 -0.43940392 56 10 14913 75.60400000 3187691234 3187691234 -0.33300000
13.78270245 -21.82737541 -2.78066778 3 11 14913 25.96400000 3187691234 3187691234 -6.14800000
14.60346031 -29.08631897 -3.03815579 4 12 14914 32.68800000 3187691237 3187691237 -5.33300000
40.45462418 -64.09190369 1.76362514 52 13 14914 75.81200000 3187691237 3187691237 1.33300000
37.07732773 -73.88060760 0.96234506 28 14 14915 82.66800000 3187691239 3187691239 0.66700000
19.75313187 -31.30681992 -2.58852315 15 15 14915 37.10800000 3187691239 3187691239 -4.00000000
17.23013687 -30.52871323 -2.86175132 6 16 14916 35.17200000 3187691241 3187691241 -4.66700000
43.10716629 -61.47203064 2.18504810 28 17 14916 75.11200000 3187691241 3187691241 1.66700000
37.87807465 -67.14053345 1.34558058 28 18 14917 77.10000000 3187691244 3187691244 1.00000000
19.92073822 -28.41808128 -2.22418737 12 19 14917 34.77600000 3187691244 3187691244 -3.66700000
19.72622490 -39.34089661 -2.56300068 10 20 14917 44.08400000 3187691246 3187691246 -3.33300000
41.12602997 -65.23125458 4.49089050 38 21 14917 77.24400000 3187691246 3187691246 3.33300000
37.47950363 -66.46115112 3.10857081 28 22 14918 76.36400000 3187691248 3187691248 2.33300000
19.87641144 -31.53878593 -1.73654151 12 23 14918 37.32000000 3187691248 3187691248 -2.66700000
19.77223587 -35.07574844 -2.11018586 19 24 14919 40.32000000 3187691251 3187691251 -3.00000000
66.03466034 -117.19264221 10.98127460 28 26 14920 134.96400000 3187691253 3187691253 4.66700000
38.36338043 -54.78858566 -2.72494531 57 27 14920 66.94000000 3187691253 3187691253 -2.33300000
38.56703568 -77.05017090 -3.00889492 28 28 14921 86.21600000 3187691255 3187691255 -2.00000000
38.20334625 -60.68936920 -1.66871154 21 31 14921 71.73200000 3187691258 3187691258 -1.33300000
3.14392877 -5.59783554 -2.99382782 17 0 14928 7.08400000 3187691278 3187691278 -25.00000000
38.03346634 -54.47916031 -1.15974736 28 1 14928 66.45200000 3187691278 3187691278 -1.00000000
38.87021637 -69.23759460 -2.31083560 28 2 14929 79.43600000 3187691281 3187691281 -1.66700000
5.68992710 -9.06700516 -2.99659967 6 3 14929 11.11600000 3187691281 3187691281 -15.63900000
7.39973211 -13.18616772 -3.02412868 1 4 14930 15.42000000 3187691283 3187691283 -11.31000000
38.19692993 -60.89112473 0.00000000 50 5 14930 71.88000000 3187691283 3187691283 0.00000000
37.40965271 -75.06495667 -0.97640747 29 6 14931 83.87600000 3187691285 3187691285 -0.66700000
9.78900433 -15.61106205 -2.86670947 3 7 14931 18.64800000 3187691285 3187691285 -8.84300000
11.38159561 -20.29006195 -2.96124244 5 8 14931 23.45200000 3187691287 3187691287 -7.25400000
38.54317856 -55.27090836 0.39162999 28 9 14931 67.38400000 3187691287 3187691287 0.33300000
36.98345566 -65.95767975 -0.43949690 56 10 14932 75.62000000 3187691290 3187691290 -0.33300000
13.72714233 -21.89991760 -2.78409481 3 11 14932 25.99600000 3187691290 3187691290 -6.14800000
14.52822876 -29.17736626 -3.04261708 4 12 14933 32.73600000 3187691292 3187691292 -5.33300000
40.24610901 -64.23248291 1.76381123 52 13 14933 75.82000000 3187691292 3187691292 1.33300000
36.83568954 -74.01031494 0.96243817 28 14 14934 82.67600000 3187691294 3187691294 0.66700000
19.75087357 -31.53447342 -2.60191655 10 15 14934 37.30000000 3187691294 3187691294 -4.00000000
17.15607834 -30.63438034 -2.86630774 6 16 14935 35.22800000 3187691297 3187691297 -4.66700000
43.45598984 -62.40869141 2.21320772 28 17 14935 76.08000000 3187691297 3187691297 1.66700000
37.71776962 -67.34992218 1.34739554 28 18 14935 77.20400000 3187691299 3187691299 1.00000000
19.92260361 -28.61155891 -2.23442054 13 19 14935 34.93600000 3187691299 3187691299 -3.66700000
19.75568008 -39.72789383 -2.58393073 10 20 14936 44.44400000 3187691301 3187691301 -3.33300000
40.16379547 -64.17576599 4.40903091 74 21 14936 75.83600000 3187691301 3187691301 3.33300000
39.56380081 -70.70412445 3.30087185 28 22 14937 81.08800000 3187691304 3187691304 2.33300000
19.87979317 -31.77728271 -1.74603391 12 23 14937 37.52400000 3187691304 3187691304 -2.66700000
19.77086067 -35.34680939 -2.12253714 19 24 14938 40.55600000 3187691306 3187691306 -3.00000000
65.61065674 -117.34834290 10.97541618 28 26 14939 134.89200000 3187691308 3187691308 4.66700000
38.37769699 -55.19770813 -2.73894858 28 27 14939 67.28400000 3187691308 3187691308 -2.33300000
38.59392929 -77.74697113 -3.03109097 28 28 14940 86.85200000 3187691311 3187691311 -2.00000000
38.13750458 -61.03276443 -1.67466688 21 31 14940 71.98800000 3187691313 3187691313 -1.33300000
3.13142610 -5.62144375 -3.00058961 16 0 14948 7.10000000 3187691334 3187691334 -25.00000000
38.19386673 -55.11782837 -1.17049801 28 1 14948 67.06800000 3187691334 3187691334 -1.00000000
38.62635040 -69.36936188 -2.31071925 28 2 14949 79.43200000 3187691336 3187691336 -1.66700000
5.66435051 -9.09662056 -2.99983454 6 3 14949 11.12800000 3187691336 3187691336 -15.63900000
7.36128902 -13.22562599 -3.02726650 1 4 14950 15.43600000 3187691339 3187691339 -11.31000000
38.14056396 -61.27537918 0.00000000 50 5 14950 72.17600000 3187691339 3187691339 0.00000000
37.30406570 -75.47904205 -0.98017919 29 6 14950 84.20000000 3187691341 3187691341 -0.66700000
9.75180340 -15.66692638 -2.87101388 2 7 14950 18.67600000 3187691341 3187691341 -8.84300000
11.31841755 -20.34353828 -2.96326256 5 8 14951 23.46800000 3187691343 3187691343 -7.25400000
38.49343491 -55.61231613 0.39309460 56 9 14951 67.63600000 3187691343 3187691343 0.33300000
36.76271439 -66.10385132 -0.43961316 56 10 14952 75.64000000 3187691346 3187691346 -0.33300000
13.68422031 -22.00173378 -2.79094911 3 11 14952 26.06000000 3187691346 3187691346 -6.14800000
14.44920826 -29.27433014 -3.04745007 4 12 14953 32.78800000 3187691348 3187691348 -5.33300000
40.09132767 -64.48464966 1.76688206 26 13 14953 75.95200000 3187691348 3187691348 1.33300000
38.45119476 -77.93701172 1.01174986 28 14 14954 86.91200000 3187691350 3187691350 0.66700000
19.74809456 -31.77606773 -2.61614680 15 15 14954 37.50400000 3187691350 3187691350 -4.00000000
17.12453651 -30.83000183 -2.87900043 6 16 14955 35.38400000 3187691352 3187691352 -4.66700000
43.21287155 -62.52382278 2.21192789 28 17 14955 76.03600000 3187691352 3187691352 1.66700000
38.11359406 -68.61745453 1.37008369 28 18 14955 78.50400000 3187691355 3187691355 1.00000000
19.91112328 -28.80899620 -2.24439788 13 19 14955 35.09200000 3187691355 3187691355 -3.66700000
19.71575356 -39.99718857 -2.59695387 10 20 14956 44.66800000 3187691357 3187691357 -3.33300000
39.83841705 -64.15274048 4.39786816 36 21 14956 75.64400000 3187691357 3187691357 3.33300000
39.37493896 -70.94664001 3.30575681 28 22 14957 81.20800000 3187691359 3187691359 2.33300000
19.86147118 -31.99585342 -1.75422335 12 23 14957 37.70000000 3187691359 3187691359 -2.66700000
19.76943779 -35.63566971 -2.13572574 19 24 14958 40.80800000 3187691362 3187691362 -3.00000000
64.47560120 -116.26920319 10.85336971 28 26 14959 133.39200000 3187691364 3187691364 4.66700000
38.44357300 -55.70632935 -2.75751114 57 27 14959 67.74000000 3187691364 3187691364 -2.33300000
38.51821518 -78.27935028 -3.04658651 28 28 14960 87.29600000 3187691366 3187691366 -2.00000000
38.27824783 -61.73649216 -1.69029975 22 31 14960 72.66000000 3187691369 3187691369 -1.33300000
3.12580967 -5.65772581 -3.01411343 14 0 14968 7.13200000 3187691389 3187691389 -25.00000000
38.29133987 -55.67260361 -1.17943358 28 1 14968 67.58000000 3187691389 3187691389 -1.00000000
38.82274246 -70.29827881 -2.33713341 28 2 14969 80.34000000 3187691392 3187691392 -1.66700000
5.63863707 -9.12616825 -3.00306964 6 3 14969 11.14000000 3187691392 3187691392 -15.63900000
7.31886911 -13.25810909 -3.02883554 1 4 14970 15.44400000 3187691394 3187691394 -11.31000000
37.98109055 -61.49662781 0.00000000 51 5 14970 72.28000000 3187691394 3187691394 0.00000000
37.58761597 -76.72586823 -0.99466074 29 6 14970 85.44400000 3187691396 3187691396 -0.66700000
9.70744038 -15.71768570 -2.87408853 3 7 14970 18.69600000 3187691396 3187691396 -8.84300000
11.29909706 -20.47672462 -2.97689962 5 8 14971 23.57600000 3187691399 3187691399 -7.25400000
38.60711670 -56.19471359 0.39625627 56 9 14971 68.18000000 3187691399 3187691399 0.33300000
36.61867905 -66.38938904 -0.44065928 28 10 14972 75.82000000 3187691401 3187691401 -0.33300000
13.65537453 -22.12720871 -2.80080199 3 11 14972 26.15200000 3187691401 3187691401 -6.14800000
14.39594078 -29.42475891 -3.05785990 4 12 14973 32.90000000 3187691403 3187691403 -5.33300000
39.09126282 -63.36833572 1.73254561 25 13 14973 74.47600000 3187691403 3187691403 1.33300000
37.71678162 -77.12577057 0.99950337 28 14 14974 85.86000000 3187691405 3187691405 0.66700000
19.73549271 -32.00444031 -2.62926102 10 15 14974 37.69200000 3187691405 3187691405 -4.00000000
17.03412819 -30.92101669 -2.88192964 6 16 14975 35.42000000 3187691408 3187691408 -4.66700000
43.11649704 -62.85232544 2.21821141 28 17 14975 76.25200000 3187691408 3187691408 1.66700000
37.82752609 -68.66600800 1.36840832 28 18 14975 78.40800000 3187691410 3187691410 1.00000000
19.90753937 -29.01986885 -2.25539875 19 19 14975 35.26400000 3187691410 3187691410 -3.66700000
19.73729515 -40.39585114 -2.61834884 10 20 14976 45.03600000 3187691412 3187691412 -3.33300000
39.40266800 -63.94804382 4.37438011 36 21 14976 75.24000000 3187691412 3187691412 3.33300000
40.49154282 -73.56257629 3.42103982 28 22 14977 84.04000000 3187691415 3187691415 2.33300000
19.85443687 -32.23509598 -1.76352954 12 23 14977 37.90000000 3187691415 3187691415 -2.66700000
19.76431274 -35.92144394 -2.14870501 19 24 14978 41.05600000 3187691417 3187691417 -3.00000000
63.85033035 -116.09532166 10.81626797 28 26 14979 132.93600000 3187691419 3187691419 4.66700000
38.48377991 -56.18310547 -2.77444530 57 27 14979 68.15600000 3187691419 3187691419 -2.33300000
38.74417496 -79.43733215 -3.08637190 28 28 14980 88.43600000 3187691422 3187691422 -2.00000000
38.14423370 -62.00256348 -1.69392884 44 31 14980 72.81600000 3187691424 3187691424 -1.33300000
3.09036303 -5.63998890 -2.99889922 16 0 14988 7.09600000 3187691445 3187691445 -25.00000000
38.25236130 -56.03384018 -1.18425047 28 1 14988 67.85600000 3187691445 3187691445 -1.00000000
38.79415894 -70.82962799 -2.35028243 28 2 14989 80.79200000 3187691447 3187691447 -1.66700000
7.28384686 -13.30421829 -3.03354216 1 4 14990 15.46800000 3187691449 3187691449 -11.31000000
37.86024475 -61.78230667 0.00000000 51 5 14990 72.46000000 3187691449 3187691449 0.00000000
37.31607056 -76.84941101 -0.99456757 29 6 14990 85.43600000 3187691452 3187691452 -0.66700000
9.66284180 -15.76832485 -2.87716293 2 7 14990 18.71600000 3187691452 3187691452 -8.84300000
11.23136044 -20.52300262 -2.97790980 5 8 14991 23.58400000 3187691454 3187691454 -7.25400000
38.64283752 -56.66952133 0.39865080 56 9 14991 68.59200000 3187691454 3187691454 0.33300000
37.63831711 -68.80480194 -0.45581678 28 10 14992 78.42800000 3187691456 3187691456 -0.33300000
13.59466743 -22.20187378 -2.80422902 3 11 14992 26.18400000 3187691456 3187691456 -6.14800000
14.32094574 -29.53216743 -3.06380820 4 12 14993 32.96400000 3187691458 3187691458 -5.33300000
38.83851242 -63.45324326 1.73114979 25 13 14993 74.41600000 3187691458 3187691458 1.33300000
39.15876389 -80.78778076 1.04518306 28 14 14994 89.78400000 3187691461 3187691461 0.66700000
19.72986412 -32.24672318 -2.64349127 10 15 14994 37.89600000 3187691461 3187691461 -4.00000000
16.99872589 -31.11323738 -2.89429712 6 16 14995 35.57200000 3187691463 3187691463 -4.66700000
42.80907822 -62.87355423 2.21367335 28 17 14995 76.09600000 3187691463 3187691463 1.66700000
37.41074371 -68.50232697 1.36240470 28 18 14996 78.06400000 3187691465 3187691465 1.00000000
19.89088249 -29.22463799 -2.26563191 19 19 14996 35.42400000 3187691465 3187691465 -3.66700000
19.69711494 -40.67295074 -2.63183713 10 20 14996 45.26800000 3187691468 3187691468 -3.33300000
39.69992828 -64.93693542 4.43251896 75 21 14996 76.24000000 3187691468 3187691468 3.33300000
40.31877518 -73.85782623 3.42820430 28 22 14997 84.21600000 3187691470 3187691470 2.33300000
19.85639000 -32.49172211 -1.77376640 12 23 14997 38.12000000 3187691470 3187691470 -2.66700000
19.75743103 -36.20761490 -2.16168427 20 24 14998 41.30400000 3187691472 3187691472 -3.00000000
63.40269470 -116.24049377 10.80910778 28 26 14999 132.84800000 3187691475 3187691475 4.66700000
38.51213455 -56.64761734 -2.79072833 57 27 14999 68.55600000 3187691475 3187691475 -2.33300000
38.66151428 -79.97518158 -3.10200691 28 28 15000 88.88400000 3187691477 3187691477 -2.00000000
38.35468292 -62.83505630 -1.71300459 23 31 15000 73.63600000 3187691479 3187691479 -1.33300000
3.03603864 -5.58703566 -2.96508980 16 0 15008 7.01600000 3187691500 3187691500 -25.00000000
38.26965332 -56.48156357 -1.19088244 28 1 15008 68.23600000 3187691500 3187691500 -1.00000000
38.82531357 -71.47757721 -2.36727118 28 2 15009 81.37600000 3187691502 3187691502 -1.66700000
3.58107519 -5.88751888 -1.92908132 219 3 15009 7.15600000 3187691502 3187691502 -15.63900000
7.24297667 -13.33990383 -3.03589559 3 4 15010 15.48000000 3187691504 3187691504 -11.31000000
37.69838333 -62.00294876 0.00000000 51 5 15010 72.56400000 3187691504 3187691504 0.00000000
37.09657288 -77.11542511 -0.99624389 29 6 15011 85.58000000 3187691507 3187691507 -0.66700000
9.61730003 -15.82390022 -2.88085246 2 7 15011 18.74000000 3187691507 3187691507 -8.84300000
11.17479610 -20.58998299 -2.98195028 5 8 15011 23.61600000 3187691509 3187691509 -7.25400000
38.66449738 -57.12870026 0.40092906 56 9 15011 68.98400000 3187691509 3187691509 0.33300000
36.92107010 -68.05679321 -0.45000485 28 10 15012 77.42800000 3187691511 3187691511 -0.33300000
13.52741051 -22.26618576 -2.80637097 3 11 15012 26.20400000 3187691511 3187691511 -6.14800000
14.27125454 -29.69325447 -3.07533336 4 12 15013 33.08800000 3187691514 3187691514 -5.33300000
38.84718704 -63.96782684 1.74147868 51 13 15013 74.86000000 3187691514 3187691514 1.33300000
38.91809082 -81.01050568 1.04630053 28 14 15014 89.88000000 3187691516 3187691516 0.66700000
19.71864319 -32.48253632 -2.65716362 10 15 15014 38.09200000 3187691516 3187691516 -4.00000000
16.97168541 -31.32311058 -2.90829182 6 16 15015 35.74400000 3187691518 3187691518 -4.66700000
42.45502472 -62.82383347 2.20669150 28 17 15015 75.85600000 3187691518 3187691518 1.66700000
37.25958633 -68.76666260 1.36519706 28 18 15015 78.22400000 3187691521 3187691521 1.00000000
19.89220428 -29.43596458 -2.27688837 20 19 15015 35.60000000 3187691521 3187691521 -3.66700000
19.71917343 -41.08346176 -2.65392995 10 20 15016 45.64800000 3187691523 3187691523 -3.33300000
40.75081253 -67.18170166 4.57600594 40 21 15016 78.70800000 3187691523 3187691523 3.33300000
39.97699738 -73.84346771 3.42103982 28 22 15017 84.04000000 3187691525 3187691525 2.33300000
19.84643364 -32.73166656 -1.78307271 12 23 15017 38.32000000 3187691525 3187691525 -2.66700000
19.74689102 -36.49066162 -2.17445421 20 24 15018 41.54800000 3187691528 3187691528 -3.00000000
63.34935760 -117.11332703 10.86964226 28 26 15019 133.59200000 3187691530 3187691530 4.66700000
38.45946884 -56.99704742 -2.80131221 28 27 15019 68.81600000 3187691530 3187691530 -2.33300000
38.70684433 -80.78741455 -3.12825131 28 28 15020 89.63600000 3187691532 3187691532 -2.00000000
38.21524429 -63.12573242 -1.71709895 23 31 15021 73.81200000 3187691534 3187691534 -1.33300000
2.98040199 -5.53058147 -2.92958975 14 0 15028 6.93200000 3187691555 3187691555 -25.00000000
38.28428268 -56.93008804 -1.19751430 28 1 15028 68.61600000 3187691555 3187691555 -1.00000000
38.81259537 -72.05268097 -2.38181663 28 2 15029 81.87600000 3187691557 3187691557 -1.66700000
3.55851197 -5.89668560 -1.92800295 217 3 15029 7.15200000 3187691557 3187691557 -15.63900000
7.24285555 -13.45144272 -3.05550742 3 4 15030 15.58000000 3187691560 3187691560 -11.31000000
37.53957748 -62.23006821 0.00000000 25 5 15030 72.67600000 3187691560 3187691560 0.00000000
36.84954071 -77.29138184 -0.99684924 29 6 15031 85.63200000 3187691562 3187691562 -0.66700000
9.57629299 -15.88106823 -2.88515687 3 7 15031 18.76800000 3187691562 3187691562 -8.84300000
11.10849667 -20.63934708 -2.98346567 5 8 15031 23.62800000 3187691564 3187691564 -7.25400000
38.70126343 -57.61527634 0.40339330 56 9 15031 69.40800000 3187691564 3187691564 0.33300000
36.76856232 -68.34377289 -0.45105100 28 10 15032 77.60800000 3187691567 3187691567 -0.33300000
13.47424126 -22.35414314 -2.81151175 3 11 15032 26.25200000 3187691567 3187691567 -6.14800000
14.17950821 -29.76805878 -3.07793570 4 12 15033 33.11600000 3187691569 3187691569 -5.33300000
38.67731857 -64.19209290 1.74389803 51 13 15033 74.96400000 3187691569 3187691569 1.33300000
38.71932602 -81.32281494 1.04858220 28 14 15034 90.07600000 3187691571 3187691571 0.66700000
19.71836662 -32.73916626 -2.67250991 10 15 15034 38.31200000 3187691571 3187691571 -4.00000000
16.87167931 -31.39972115 -2.90991902 6 16 15035 35.76400000 3187691574 3187691574 -4.66700000
42.09738922 -62.76576996 2.19947720 56 17 15035 75.60800000 3187691574 3187691574 1.66700000
37.12532425 -69.09358978 1.36910641 28 18 15035 78.44800000 3187691576 3187691576 1.00000000
19.88716888 -29.65109062 -2.28814483 20 19 15035 35.77600000 3187691576 3187691576 -3.66700000
19.72145081 -41.45855713 -2.67369723 10 20 15036 45.98800000 3187691578 3187691578 -3.33300000
40.49546814 -67.28932190 4.57368040 40 21 15036 78.66800000 3187691578 3187691578 3.33300000
40.01201630 -74.52836609 3.44627833 28 22 15037 84.66000000 3187691581 3187691581 2.33300000
19.83298492 -32.96851730 -1.79219282 12 23 15037 38.51600000 3187691581 3187691581 -2.66700000
19.73083687 -36.76703262 -2.18680549 20 24 15038 41.78400000 3187691583 3187691583 -3.00000000
63.41130829 -118.21204376 10.95100689 28 26 15039 134.59200000 3187691585 3187691585 4.66700000
38.45598602 -57.42317963 -2.81564116 28 27 15039 69.16800000 3187691585 3187691585 -2.33300000
38.61665344 -81.32648468 -3.14388633 28 28 15040 90.08400000 3187691587 3187691587 -2.00000000
38.18282700 -63.54689789 -1.72510147 23 31 15040 74.15600000 3187691590 3187691590 -1.33300000
2.97548413 -5.57024670 -2.94480395 13 0 15049 6.96800000 3187691610 3187691610 -25.00000000
38.29067230 -57.39273834 -1.20428586 28 1 15049 69.00400000 3187691610 3187691610 -1.00000000
38.74033737 -72.55420685 -2.39368558 28 2 15050 82.28400000 3187691613 3187691613 -1.66700000
3.53885388 -5.91299391 -1.92908132 58 3 15050 7.15600000 3187691613 3187691613 -15.63900000
7.18981123 -13.47097874 -3.05393839 3 4 15051 15.57200000 3187691615 3187691615 -11.31000000
37.66856003 -62.96451187 0.00000000 51 5 15051 73.37200000 3187691615 3187691615 0.00000000
36.68716431 -77.64736938 -0.99978280 29 6 15051 85.88400000 3187691617 3187691617 -0.66700000
9.53500271 -15.93814087 -2.88946104 2 7 15051 18.79600000 3187691617 3187691617 -8.84300000
11.04584980 -20.70442963 -2.98700118 5 8 15052 23.65600000 3187691620 3187691620 -7.25400000
38.68281555 -58.04631805 0.40541586 56 9 15052 69.75600000 3187691620 3187691620 0.33300000
36.96577835 -69.31808472 -0.45658395 28 10 15053 78.56000000 3187691622 3187691622 -0.33300000
13.45547581 -22.50920105 -2.82479167 3 11 15053 26.37600000 3187691622 3187691622 -6.14800000
14.08900166 -29.85944939 -3.08202529 4 12 15054 33.16000000 3187691624 3187691624 -5.33300000
38.34332657 -64.16864777 1.73943150 51 13 15054 74.77200000 3187691624 3187691624 1.33300000
38.55237579 -81.74273682 1.05216765 28 14 15055 90.38400000 3187691627 3187691627 0.66700000
19.72101021 -33.01675797 -2.68925166 10 15 15055 38.55200000 3187691627 3187691627 -4.00000000
16.83331871 -31.60561752 -2.92326283 6 16 15056 35.92800000 3187691629 3187691629 -4.66700000
41.91135406 -62.98621750 2.20180440 56 17 15056 75.68800000 3187691629 3187691629 1.66700000
37.71410370 -70.81061554 1.40038109 28 18 15056 80.24000000 3187691631 3187691631 1.00000000
19.87344551 -29.86668396 -2.29914570 20 19 15056 35.94800000 3187691631 3187691631 -3.66700000
19.68681145 -41.77980804 -2.68974376 10 20 15057 46.26400000 3187691634 3187691634 -3.33300000
40.33247375 -67.57788086 4.58321524 40 21 15057 78.83200000 3187691634 3187691634 3.33300000
39.83434296 -74.85445404 3.45458269 28 22 15058 84.86400000 3187691636 3187691636 2.33300000
19.82256126 -33.22628021 -1.80224347 13 23 15058 38.73200000 3187691636 3187691636 -2.66700000
19.72726059 -37.08596420 -2.20145965 20 24 15059 42.06400000 3187691638 3187691638 -3.00000000
62.83723831 -118.17965698 10.92659760 28 26 15060 134.29200000 3187691640 3187691640 4.66700000
38.35584641 -57.73019028 -2.82378268 28 27 15060 69.36800000 3187691640 3187691640 -2.33300000
38.64159393 -82.15478516 -3.17040992 28 28 15061 90.84400000 3187691643 3187691643 -2.00000000
37.86487198 -63.56935501 -1.72175157 46 31 15062 74.01200000 3187691645 3187691645 -1.33300000
2.98076081 -5.62492847 -2.96847057 13 0 15068 7.02400000 3187691666 3187691666 -25.00000000
38.23265457 -57.71945190 -1.20847440 28 1 15068 69.24400000 3187691666 3187691666 -1.00000000
38.49952698 -72.68227386 -2.39368558 28 2 15069 82.28400000 3187691668 3187691668 -1.66700000
7.15060663 -13.50514603 -3.05629182 3 4 15070 15.58400000 3187691670 3187691670 -11.31000000
37.59842300 -63.32295990 0.00000000 25 5 15070 73.64400000 3187691670 3187691670 0.00000000
37.41864014 -79.88024139 -1.02692974 29 6 15070 88.21600000 3187691673 3187691673 -0.66700000
9.49824142 -15.99686146 -2.89438033 2 7 15070 18.82800000 3187691673 3187691673 -8.84300000
11.03095818 -20.84264946 -3.00164819 5 8 15071 23.77200000 3187691675 3187691675 -7.25400000
38.62916183 -58.38443375 0.40688047 56 9 15071 70.00800000 3187691675 3187691675 0.33300000
37.78503418 -71.42378235 -0.46962586 28 10 15072 80.80400000 3187691677 3187691677 -0.33300000
13.39090538 -22.57079887 -2.82693362 3 11 15072 26.39600000 3187691677 3187691677 -6.14800000
14.04559708 -30.02505302 -3.09429383 4 12 15073 33.29200000 3187691680 3187691680 -5.33300000
38.03241348 -64.13034821 1.73496497 50 13 15073 74.58000000 3187691680 3187691680 1.33300000
38.47931290 -82.29404449 1.05761564 28 14 15074 90.85200000 3187691682 3187691682 0.66700000
19.71315384 -33.25359726 -2.70320296 10 15 15074 38.75200000 3187691682 3187691682 -4.00000000
16.75076675 -31.70356560 -2.92716837 6 16 15075 35.97600000 3187691684 3187691684 -4.66700000
43.67254639 -66.10729218 2.30583215 28 17 15075 79.26400000 3187691684 3187691684 1.66700000
37.39126968 -70.76908875 1.39710009 28 18 15075 80.05200000 3187691687 3187691687 1.00000000
19.87110901 -30.07896996 -2.31040215 20 19 15075 36.12400000 3187691687 3187691687 -3.66700000
19.69519997 -42.15962219 -2.70997596 10 20 15076 46.61200000 3187691689 3187691689 -3.33300000
40.64135742 -68.61141205 4.64414501 42 21 15076 79.88000000 3187691689 3187691689 3.33300000
39.96652985 -75.70716095 3.48779988 28 22 15077 85.68000000 3187691691 3187691691 2.33300000
19.82016563 -33.47405624 -1.81210804 13 23 15077 38.94400000 3187691691 3187691691 -2.66700000
19.72161674 -37.37374878 -2.21464825 21 24 15078 42.31600000 3187691693 3187691693 -3.00000000
63.00299072 -119.44526672 11.02423477 28 26 15079 135.49200000 3187691696 3187691696 4.66700000
38.29403687 -58.05390167 -2.83338952 28 27 15079 69.60400000 3187691696 3187691696 -2.33300000
38.54126740 -82.65201569 -3.18464899 28 28 15080 91.25200000 3187691698 3187691698 -2.00000000
38.10156250 -64.45189667 -1.74222314 24 31 15081 74.89200000 3187691700 3187691700 -1.33300000
2.98134327 -5.67380905 -2.98875642 21 0 15088 7.07200000 3187691721 3187691721 -25.00000000
38.26601410 -58.21014786 -1.21594405 28 1 15088 69.67200000 3187691721 3187691721 -1.00000000
37.53165054 -71.45695496 -2.34900236 28 2 15089 80.74800000 3187691723 3187691723 -1.66700000
5.47756529 -9.29535103 -3.02032232 6 3 15089 11.20400000 3187691723 3187691723 -15.63900000
37.66137695 -63.93632889 0.00000000 52 5 15090 74.20400000 3187691726 3187691726 0.00000000
37.77951050 -81.38898468 -1.04462421 29 6 15090 89.73600000 3187691728 3187691728 -0.66700000
9.45438004 -16.05035210 -2.89806986 2 7 15090 18.85200000 3187691728 3187691728 -8.84300000
10.96182442 -20.88805580 -3.00265837 5 8 15091 23.78000000 3187691730 3187691730 -7.25400000
38.51953125 -58.66269302 0.40788010 84 9 15091 70.18000000 3187691730 3187691730 0.33300000
37.54477692 -71.57295227 -0.46974212 28 10 15092 80.82400000 3187691733 3187691733 -0.33300000
13.33422661 -22.65510559 -2.83164597 3 11 15092 26.44000000 3187691733 3187691733 -6.14800000
13.97587872 -30.14977837 -3.10210133 4 12 15093 33.37600000 3187691735 3187691735 -5.33300000
37.80832291 -64.26271820 1.73496497 50 13 15093 74.58000000 3187691735 3187691735 1.33300000
38.26075745 -82.57665253 1.05952477 28 14 15094 91.01600000 3187691737 3187691737 0.66700000
19.70214272 -33.50106049 -2.71771216 10 15 15094 38.96000000 3187691737 3187691737 -4.00000000
16.65850067 -31.79715729 -2.93042278 6 16 15095 36.01600000 3187691740 3187691740 -4.66700000
41.60880661 -63.46397400 2.20855331 28 17 15095 75.92000000 3187691740 3187691740 1.66700000
37.15328979 -70.91689301 1.39744914 28 18 15095 80.07200000 3187691742 3187691742 1.00000000
19.87104988 -30.30838776 -2.32268190 14 19 15095 36.31600000 3187691742 3187691742 -3.66700000
19.64521027 -42.43829346 -2.72346425 10 20 15096 46.84400000 3187691744 3187691744 -3.33300000
40.58571625 -69.06615448 4.66530752 42 21 15096 80.24400000 3187691744 3187691744 3.33300000
39.75762558 -75.95243835 3.49268460 28 22 15097 85.80000000 3187691746 3187691746 2.33300000
19.82259941 -33.74630737 -1.82308948 13 23 15097 39.18000000 3187691746 3187691746 -2.66700000
19.72067070 -37.69011307 -2.22930241 21 24 15098 42.59600000 3187691749 3187691749 -3.00000000
60.77495956 -116.20237732 10.70528603 28 26 15099 131.57200000 3187691751 3187691751 4.66700000
38.19185257 -58.34103775 -2.84087968 28 27 15099 69.78800000 3187691751 3187691751 -2.33300000
38.43361664 -83.17797089 -3.19972539 28 28 15100 91.68400000 3187691753 3187691753 -2.00000000
38.23442078 -65.19506073 -1.75869346 24 31 15101 75.60000000 3187691756 3187691756 -1.33300000
2.97759271 -5.71259737 -3.00397062 14 0 15107 7.10800000 3187691776 3187691776 -25.00000000
38.18206406 -58.50418472 -1.21943450 28 1 15107 69.87200000 3187691776 3187691776 -1.00000000
38.09812546 -73.12348938 -2.39962006 28 2 15108 82.48800000 3187691779 3187691779 -1.66700000
5.45060015 -9.32011414 -3.02247906 6 3 15108 11.21200000 3187691779 3187691779 -15.63900000
7.01684523 -13.47349262 -3.03824902 26 4 15109 15.49200000 3187691781 3187691781 -11.31000000
37.50163651 -64.15065002 0.00000000 26 5 15109 74.30800000 3187691781 3187691781 0.00000000
37.01617050 -80.44194031 -1.03088772 29 6 15109 88.55600000 3187691783 3187691783 -0.66700000
9.41506577 -16.10550117 -2.90237427 2 7 15109 18.88000000 3187691783 3187691783 -8.84300000
10.89616108 -20.93132973 -3.00366855 5 8 15110 23.78800000 3187691786 3187691786 -7.25400000
38.53885651 -59.11848831 0.41015837 56 9 15110 70.57200000 3187691786 3187691786 0.33300000
37.29799652 -71.67932129 -0.46962586 28 10 15111 80.80400000 3187691788 3187691788 -0.33300000
13.27306747 -22.72323608 -2.83464479 3 11 15111 26.46800000 3187691788 3187691788 -6.14800000
13.93236256 -30.31900024 -3.11474156 4 12 15112 33.51200000 3187691790 3187691790 -5.33300000
37.85915756 -64.84013367 1.74715483 25 13 15112 75.10400000 3187691790 3187691790 1.33300000
37.89990234 -82.51407623 1.05710351 28 14 15113 90.80800000 3187691792 3187691792 0.66700000
19.70357895 -33.75920105 -2.73333764 10 15 15113 39.18400000 3187691792 3187691792 -4.00000000
16.62098694 -31.98311424 -2.94246483 6 16 15114 36.16400000 3187691795 3187691795 -4.66700000
41.38067245 -63.57479858 2.20762253 28 17 15114 75.88800000 3187691795 3187691795 1.66700000
39.82443237 -76.63259888 1.50746906 28 18 15114 86.37600000 3187691797 3187691797 1.00000000
19.85753822 -30.50793839 -2.33291531 14 19 15114 36.47600000 3187691797 3187691797 -3.66700000
19.67424965 -42.87339783 -2.74718499 10 20 15115 47.25200000 3187691799 3187691799 -3.33300000
40.47716141 -69.40733337 4.67926073 42 21 15115 80.48400000 3187691799 3187691799 3.33300000
42.24422073 -81.35829926 3.73481154 28 22 15116 91.74800000 3187691802 3187691802 2.33300000
19.82126045 -34.00171280 -1.83332622 13 23 15116 39.40000000 3187691802 3187691802 -2.66700000
19.71518517 -37.98575592 -2.24290967 21 24 15117 42.85600000 3187691804 3187691804 -3.00000000
60.29748917 -116.22633362 10.68901348 28 26 15118 131.37200000 3187691806 3187691806 4.66700000
38.13756180 -58.68183899 -2.85130072 28 27 15118 70.04400000 3187691806 3187691806 -2.33300000
38.19919586 -83.39582062 -3.20321536 28 28 15119 91.78400000 3187691809 3187691809 -2.00000000
38.09646606 -65.45628357 -1.76232243 24 31 15120 75.75600000 3187691811 3187691811 -1.33300000
2.92834973 -5.66871738 -2.97523260 15 0 15128 7.04000000 3187691832 3187691832 -25.00000000
38.15864944 -58.93917084 -1.22557783 28 1 15128 70.22400000 3187691832 3187691832 -1.00000000
37.88672638 -73.37276459 -2.40322709 28 2 15129 82.61200000 3187691834 3187691834 -1.66700000
5.41640329 -9.34002876 -3.02247906 6 3 15129 11.21200000 3187691834 3187691834 -15.63900000
6.97640991 -13.51654720 -3.04217148 13 4 15130 15.51200000 3187691836 3187691836 -11.31000000
37.70758820 -65.04900360 0.00000000 53 5 15130 75.18800000 3187691836 3187691836 0.00000000
37.61842346 -82.54608917 -1.05607903 29 6 15130 90.72000000 3187691839 3187691839 -0.66700000
9.36984825 -16.16383743 -2.90667868 2 7 15130 18.90800000 3187691839 3187691839 -8.84300000
10.83210564 -20.99581146 -3.00720406 5 8 15131 23.81600000 3187691841 3187691841 -7.25400000
38.42834854 -59.42392349 0.41129750 56 9 15131 70.76800000 3187691841 3187691841 0.33300000
37.03136063 -71.80843353 -0.46957937 28 10 15132 80.79600000 3187691843 3187691843 -0.33300000
13.23753262 -22.85432625 -2.84492588 3 11 15132 26.56400000 3187691843 3187691843 -6.14800000
13.83269215 -30.39523697 -3.11734414 4 12 15133 33.54000000 3187691845 3187691845 -5.33300000
37.77753830 -65.24839020 1.75441301 25 13 15133 75.41600000 3187691845 3187691845 1.33300000
38.13877106 -83.84295654 1.07233000 28 14 15134 92.11600000 3187691848 3187691848 0.66700000
19.67765236 -34.00041580 -2.74700999 11 15 15134 39.38000000 3187691848 3187691848 -4.00000000
16.53285789 -32.10052872 -2.94767213 7 16 15135 36.22800000 3187691850 3187691850 -4.66700000
41.12352371 -63.68909073 2.20634246 28 17 15135 75.84400000 3187691850 3187691850 1.66700000
39.39130402 -76.48294067 1.50167489 28 18 15135 86.04400000 3187691852 3187691852 1.00000000
19.84952354 -30.74148178 -2.34519506 14 19 15135 36.66800000 3187691852 3187691852 -3.66700000
19.66732597 -43.27604294 -2.76834774 10 20 15136 47.61600000 3187691855 3187691855 -3.33300000
40.33044815 -69.74189758 4.69181919 42 21 15136 80.70000000 3187691855 3187691855 3.33300000
39.86098480 -77.46129608 3.54918647 28 22 15137 87.18800000 3187691857 3187691857 2.33300000
19.80448723 -34.26093674 -1.84337699 13 23 15137 39.61600000 3187691857 3187691857 -2.66700000
19.70007324 -38.29930496 -2.25714517 21 24 15138 43.12800000 3187691859 3187691859 -3.00000000
59.85468674 -116.41464233 10.68608475 28 26 15139 131.33600000 3187691862 3187691862 4.66700000
38.21675110 -59.27806473 -2.87344551 28 27 15139 70.58800000 3187691862 3187691862 -2.33300000
38.35402298 -84.55097198 -3.24216318 28 28 15140 92.90000000 3187691864 3187691864 -2.00000000
38.52357101 -66.72478485 -1.79284370 25 31 15140 77.06800000 3187691866 3187691866 -1.33300000
2.89961648 -5.65903902 -2.96508980 16 0 15147 7.01600000 3187691887 3187691887 -25.00000000
38.30032349 -59.59022903 -1.23646808 28 1 15147 70.84800000 3187691887 3187691887 -1.00000000
37.88562012 -73.97130585 -2.41870332 28 2 15148 83.14400000 3187691889 3187691889 -1.66700000
5.39116478 -9.36795425 -3.02571392 7 3 15148 11.22400000 3187691889 3187691889 -15.63900000
37.29421234 -64.83043671 0.00000000 26 5 15149 74.79200000 3187691892 3187691892 0.00000000
37.92259216 -83.98923492 -1.07284224 29 6 15150 92.16000000 3187691894 3187691894 -0.66700000
9.32322025 -16.21357727 -2.90975308 2 7 15150 18.92800000 3187691894 3187691894 -8.84300000
10.76965237 -21.04574585 -3.00922441 5 8 15150 23.83200000 3187691896 3187691896 -7.25400000
38.65462112 -60.21076202 0.41585404 56 9 15150 71.55200000 3187691896 3187691896 0.33300000
36.86042786 -72.06259918 -0.47043955 28 10 15151 80.94400000 3187691898 3187691898 -0.33300000
13.17356396 -22.91878510 -2.84749627 3 11 15151 26.58800000 3187691898 3187691898 -6.14800000
13.80387878 -30.60067749 -3.13370228 4 12 15152 33.71600000 3187691901 3187691901 -5.33300000
37.68049240 -65.58134460 1.75999618 26 13 15152 75.65600000 3187691901 3187691901 1.33300000
44.31830597 -98.29135132 1.25523472 28 14 15153 107.82800000 3187691903 3187691903 0.66700000
19.68204498 -34.26963425 -2.76347256 11 15 15153 39.61600000 3187691903 3187691903 -4.00000000
16.50430489 -32.30783844 -2.96166682 7 16 15154 36.40000000 3187691905 3187691905 -4.66700000
40.94662094 -63.87896729 2.20820427 28 17 15154 75.90800000 3187691905 3187691905 1.66700000
39.22230148 -76.81231689 1.50544453 28 18 15155 86.26000000 3187691908 3187691908 1.00000000
19.84331322 -30.96855164 -2.35721898 21 19 15155 36.85600000 3187691908 3187691908 -3.66700000
19.66967773 -43.66506577 -2.78904510 10 20 15155 47.97200000 3187691910 3187691910 -3.33300000
39.39734650 -68.65264893 4.60972691 41 21 15155 79.28800000 3187691910 3187691910 3.33300000
39.73107910 -77.84223938 3.56058431 28 22 15156 87.46800000 3187691912 3187691912 2.33300000
19.79613686 -34.51011658 -1.85324156 13 23 15156 39.82800000 3187691912 3187691912 -2.66700000
19.70003319 -38.61349487 -2.27179909 22 24 15157 43.40800000 3187691915 3187691915 -3.00000000
59.48280334 -116.64089966 10.68868828 28 26 15158 131.36800000 3187691917 3187691917 4.66700000
38.33882904 -59.90267944 -2.89754415 28 27 15158 71.18000000 3187691917 3187691917 -2.33300000
38.35211563 -85.29750824 -3.26589489 28 28 15159 93.58000000 3187691919 3187691919 -2.00000000
