# .PCD v0.7 - Point Cloud Data file format
VERSION 0.7
FIELDS x y z intensity laser_id azimuth distance_m adjustedtime timestamp vertical_angle
SIZE 4 4 4 1 1 2 8 8 4 8
TYPE F F F U U U F U U F
COUNT 1 1 1 1 1 1 1 1 1 1
WIDTH 508
HEIGHT 1
VIEWPOINT 0 0 0 1 0 0 0
POINTS 508
DATA ascii
41.83155060 -62.91389084 1.75804198 26 13 14778 75.57200000 3177290888 3177290888 1.33300000
37.13360214 -69.80875397 0.92053032 28 14 14779 79.07600000 3177290890 3177290890 0.66700000
19.79485512 -29.78237152 -2.50063014 14 15 14779 35.84800000 3177290890 3177290890 -4.00000000
40.52284622 -54.96385193 1.98734891 28 17 14780 68.31600000 3177290893 3177290893 1.66700000
38.31340408 -64.27133179 1.30606830 28 18 14780 74.83600000 3177290895 3177290895 1.00000000
19.95727348 -27.06938553 -2.15536904 12 19 14780 33.70000000 3177290895 3177290895 -3.66700000
19.79418564 -37.24312592 -2.45625734 9 20 14781 42.24800000 3177290897 3177290897 -3.33300000
42.65824127 -64.23013306 4.49042559 38 21 14781 77.23600000 3177290897 3177290897 3.33300000
38.79887390 -65.13739777 3.08886838 28 22 14782 75.88000000 3177290900 3177290900 2.33300000
19.91658020 -29.99957657 -1.67735398 11 23 14782 36.04800000 3177290900 3177290900 -2.66700000
19.81443214 -33.27862549 -2.02979779 26 24 14783 38.78400000 3177290902 3177290902 -3.00000000
38.24311066 -51.94758224 -2.62806201 57 27 14784 64.56000000 3177290904 3177290904 -2.33300000
38.63677216 -72.81842804 -2.87865019 28 28 14785 82.48400000 3177290907 3177290907 -2.00000000
38.10363770 -57.45930862 -1.60431921 38 31 14785 68.96400000 3177290909 3177290909 -1.33300000
3.24905086 -5.47855759 -2.97016120 17 0 14793 7.02800000 3177290930 3177290930 -25.00000000
38.23699188 -52.11051941 -1.12819338 28 1 14793 64.64400000 3177290930 3177290930 -1.00000000
38.67806244 -65.24499512 -2.20738983 28 2 14794 75.88000000 3177290932 3177290932 -1.66700000
5.86798382 -8.87901783 -2.97934699 6 3 14794 11.05200000 3177290932 3177290932 -15.63900000
7.67834759 -12.95755577 -3.01236153 5 4 14795 15.36000000 3177290934 3177290934 -11.31000000
38.29580307 -57.96849442 0.00000000 49 5 14795 69.47600000 3177290934 3177290934 0.00000000
37.37948227 -70.74678040 -0.93151945 29 6 14795 80.02000000 3177290937 3177290937 -0.66700000
10.05001068 -15.21273804 -2.83657885 3 7 14795 18.45200000 3177290937 3177290937 -8.84300000
11.73108578 -19.80461502 -2.92992783 2 8 14796 23.20400000 3177290939 3177290939 -7.25400000
38.40168381 -52.39245987 0.37754190 84 9 14796 64.96000000 3177290939 3177290939 0.33300000
37.77717590 -63.80144882 -0.43094179 56 10 14797 74.14800000 3177290941 3177290941 -0.33300000
14.96440029 -28.35851288 -2.99317074 4 12 14798 32.20400000 3177290943 3177290943 -5.33300000
41.64252090 -63.10625458 1.75934482 26 13 14798 75.62800000 3177290943 3177290943 1.33300000
37.03898239 -70.22097015 0.92425543 28 14 14799 79.39600000 3177290946 3177290946 0.66700000
19.79184151 -30.00450706 -2.51346517 14 15 14799 36.03200000 3177290946 3177290946 -4.00000000
17.52196503 -29.62802505 -2.81000352 18 16 14800 34.53600000 3177290948 3177290948 -4.66700000
40.64717102 -55.53731537 2.00294137 28 17 14800 68.85200000 3177290948 3177290948 1.66700000
38.06740570 -64.39411163 1.30571926 28 18 14801 74.81600000 3177290950 3177290950 1.00000000
19.95927620 -27.28088188 -2.16636968 12 19 14801 33.87200000 3177290950 3177290950 -3.66700000
19.77576828 -37.52395630 -2.47021079 9 20 14801 42.48800000 3177290953 3177290953 -3.33300000
41.11960220 -62.38484192 4.35135698 35 21 14801 74.84400000 3177290953 3177290953 3.33300000
38.78069305 -65.62683868 3.10563993 28 22 14802 76.29200000 3177290955 3177290955 2.33300000
19.90407181 -30.20905113 -1.68517113 12 23 14802 36.21600000 3177290955 3177290955 -2.66700000
19.80582047 -33.52986908 -2.04089284 27 24 14803 38.99600000 3177290957 3177290957 -3.00000000
38.08512878 -52.11302948 -2.62969041 57 27 14804 64.60000000 3177290960 3177290960 -2.33300000
38.57965088 -73.32785797 -2.89344740 28 28 14805 82.90800000 3177290962 3177290962 -2.00000000
38.25458145 -58.12643051 -1.61920762 39 31 14805 69.60400000 3177290964 3177290964 -1.33300000
3.21520090 -5.46486902 -2.95663738 19 0 14813 6.99600000 3177290985 3177290985 -25.00000000
38.26678467 -52.53461838 -1.13447618 28 1 14813 65.00400000 3177290985 3177290985 -1.00000000
38.10956192 -64.80060577 -2.18784094 28 2 14814 75.20800000 3177290987 3177290987 -1.66700000
5.83695459 -8.89944744 -2.97934699 6 3 14814 11.05200000 3177290987 3177290987 -15.63900000
7.58536386 -12.90312767 -2.99353433 3 4 14815 15.26400000 3177290989 3177290989 -11.31000000
38.26428604 -58.36273956 0.00000000 49 5 14815 69.78800000 3177290989 3177290989 0.00000000
37.13291931 -70.90811157 -0.93184543 29 6 14816 80.04800000 3177290992 3177290992 -0.66700000
10.00718498 -15.26930523 -2.84026837 3 7 14816 18.47600000 3177290992 3177290992 -8.84300000
11.68198681 -19.87965393 -2.93497849 2 8 14816 23.24400000 3177290994 3177290994 -7.25400000
38.36211777 -52.72348404 0.37896001 56 9 14816 65.20400000 3177290994 3177290994 0.33300000
37.66363525 -64.11917114 -0.43219715 28 10 14817 74.36400000 3177290996 3177290996 -0.33300000
13.94814682 -21.29066467 -2.74168444 2 11 14817 25.60000000 3177290996 3177290996 -6.14800000
14.90224743 -28.48115158 -3.00060630 4 12 14818 32.28400000 3177290999 3177290999 -5.33300000
41.61039734 -63.53893280 1.76734734 26 13 14818 75.97200000 3177290999 3177290999 1.33300000
36.91968918 -70.59084320 0.92742181 28 14 14819 79.66800000 3177291001 3177291001 0.66700000
19.77222061 -30.20361328 -2.52434731 9 15 14819 36.18800000 3177291001 3177291001 -4.00000000
17.47694206 -29.78872871 -2.81944180 12 16 14820 34.65200000 3177291003 3177291003 -4.66700000
43.81847000 -60.31095123 2.16957211 28 17 14820 74.58000000 3177291003 3177291003 1.66700000
38.16329956 -65.04777527 1.31640017 28 18 14820 75.42800000 3177291006 3177291006 1.00000000
19.95551491 -27.46640778 -2.17583561 12 19 14820 34.02000000 3177291006 3177291006 -3.66700000
19.79261971 -37.87588882 -2.48881531 9 20 14821 42.80800000 3177291008 3177291008 -3.33300000
40.79884720 -62.37092972 4.34042692 35 21 14821 74.65600000 3177291008 3177291008 3.33300000
38.54935455 -65.75836182 3.10547709 28 22 14822 76.28800000 3177291010 3177291010 2.33300000
19.89471817 -30.42548943 -1.69336069 12 23 14822 36.39200000 3177291010 3177291010 -2.66700000
19.79973412 -33.78835297 -2.05240679 27 24 14823 39.21600000 3177291013 3177291013 -3.00000000
68.99841309 -117.79328156 11.14432907 28 26 14824 136.96800000 3177291015 3177291015 4.66700000
37.99451828 -52.37181854 -2.63604069 57 27 14824 64.75600000 3177291015 3177291015 -2.33300000
38.54718018 -73.89093781 -2.91033888 28 28 14825 83.39200000 3177291017 3177291017 -2.00000000
38.23147583 -58.55756378 -1.62730312 40 31 14826 69.95200000 3177291019 3177291019 -1.33300000
3.19793272 -5.47918987 -2.95832777 16 0 14833 7.00000000 3177291040 3177291040 -25.00000000
38.24018097 -52.88501358 -1.13915348 28 1 14833 65.27200000 3177291040 3177291040 -1.00000000
38.65078735 -66.24903107 -2.23217487 28 2 14834 76.73200000 3177291042 3177291042 -1.66700000
5.81846189 -8.93913746 -2.98581672 6 3 14834 11.07600000 3177291042 3177291042 -15.63900000
7.54620504 -12.93969154 -2.99588776 3 4 14835 15.27600000 3177291045 3177291045 -11.31000000
38.19776535 -58.70717621 0.00000000 49 5 14835 70.04000000 3177291045 3177291045 0.00000000
37.94314957 -73.07484436 -0.95857334 29 6 14836 82.34400000 3177291047 3177291047 -0.66700000
9.96890926 -15.32733727 -2.84457278 3 7 14836 18.50400000 3177291047 3177291047 -8.84300000
11.62451267 -19.94087791 -2.93800902 5 8 14836 23.26800000 3177291049 3177291049 -7.25400000
38.49168015 -53.29157639 0.38207522 56 9 14836 65.74000000 3177291049 3177291049 0.33300000
37.86854172 -64.98637390 -0.43714890 28 10 14837 75.21600000 3177291052 3177291052 -0.33300000
13.92360210 -21.41591072 -2.75153732 3 11 14837 25.69200000 3177291052 3177291052 -6.14800000
14.85042477 -28.62491417 -3.01027250 4 12 14838 32.38800000 3177291054 3177291054 -5.33300000
41.27067947 -63.50273132 1.76232243 52 13 14838 75.75600000 3177291054 3177291054 1.33300000
36.59756088 -70.57370758 0.92551267 28 14 14839 79.50400000 3177291056 3177291056 0.66700000
19.77970886 -30.44644737 -2.53885651 10 15 14839 36.39600000 3177291056 3177291056 -4.00000000
17.41496849 -29.92191124 -2.82627630 6 16 14840 34.73600000 3177291059 3177291059 -4.66700000
43.31064606 -60.05169296 2.15479398 28 17 14840 74.07200000 3177291059 3177291059 1.66700000
38.08689117 -65.43983459 1.32163584 28 18 14840 75.72800000 3177291061 3177291061 1.00000000
19.95525360 -27.66864204 -2.18632460 12 19 14840 34.18400000 3177291061 3177291061 -3.66700000
19.77418518 -38.16457367 -2.50323367 9 20 14841 43.05600000 3177291063 3177291063 -3.33300000
40.67655182 -62.66033936 4.35065937 35 21 14841 74.83200000 3177291063 3177291063 3.33300000
38.36780167 -65.97544098 3.10938501 28 22 14842 76.38400000 3177291066 3177291066 2.33300000
19.89279366 -30.65563583 -1.70229459 12 23 14842 36.58400000 3177291066 3177291066 -2.66700000
19.79609871 -34.05410385 -2.06433940 18 24 14843 39.44400000 3177291068 3177291068 -3.00000000
68.56878662 -118.00238800 11.14140034 28 26 14844 136.93200000 3177291070 3177291070 4.66700000
38.05438232 -52.84141922 -2.65297484 57 27 14844 65.17200000 3177291070 3177291070 -2.33300000
38.56450653 -74.55764771 -2.93127847 28 28 14845 83.99200000 3177291072 3177291072 -2.00000000
38.16106033 -58.87529755 -1.63260722 20 31 14845 70.18000000 3177291075 3177291075 -1.33300000
3.20058465 -5.52796745 -2.97861362 17 0 14853 7.04800000 3177291095 3177291095 -25.00000000
38.13930130 -53.13514328 -1.14166665 28 1 14853 65.41600000 3177291095 3177291095 -1.00000000
38.63359833 -66.75382233 -2.24462557 28 2 14854 77.16000000 3177291098 3177291098 -1.66700000
5.78931284 -8.96262836 -2.98689508 6 3 14854 11.08000000 3177291098 3177291098 -15.63900000
7.51277590 -12.98632431 -3.00059462 3 4 14855 15.30000000 3177291100 3177291100 -11.31000000
38.14882660 -59.08209991 0.00000000 49 5 14855 70.32800000 3177291100 3177291100 0.00000000
37.63468552 -73.07225800 -0.95689702 29 6 14855 82.20000000 3177291102 3177291102 -0.66700000
9.92874718 -15.37691307 -2.84764719 3 7 14855 18.52400000 3177291102 3177291102 -8.84300000
11.60449505 -20.06720924 -2.95063591 2 8 14856 23.36800000 3177291105 3177291105 -7.25400000
38.43827820 -53.61090469 0.38340032 56 9 14856 65.96800000 3177291105 3177291105 0.33300000
37.46530914 -64.81342316 -0.43510312 28 10 14857 74.86400000 3177291107 3177291107 -0.33300000
13.90913391 -21.55795288 -2.76353216 3 11 14857 25.80400000 3177291107 3177291107 -6.14800000
14.76863194 -28.71199417 -3.01399016 4 12 14858 32.42800000 3177291109 3177291109 -5.33300000
40.98373795 -63.54558945 1.75953090 52 13 14858 75.63600000 3177291109 3177291109 1.33300000
36.34550476 -70.69035339 0.92537296 28 14 14859 79.49200000 3177291112 3177291112 0.66700000
19.76195908 -30.65280724 -2.55029678 15 15 14859 36.56000000 3177291112 3177291112 -4.00000000
17.42403603 -30.17931747 -2.84482741 6 16 14860 34.96400000 3177291114 3177291114 -4.66700000
43.06818008 -60.15699387 2.15316486 28 17 14860 74.01600000 3177291114 3177291114 1.66700000
37.92622375 -65.69014740 1.32400942 28 18 14860 75.86400000 3177291116 3177291116 1.00000000
19.94452858 -27.85822105 -2.19579029 12 19 14860 34.33200000 3177291116 3177291116 -3.66700000
19.80141640 -38.54593658 -2.52369857 19 20 14861 43.40800000 3177291119 3177291119 -3.33300000
43.10457993 -66.91085815 4.63530779 41 21 14861 79.72800000 3177291119 3177291119 3.33300000
38.08134842 -66.01203918 3.10482574 28 22 14862 76.27200000 3177291121 3177291121 2.33300000
19.88950157 -30.88613892 -1.71122861 12 23 14862 36.77600000 3177291121 3177291121 -2.66700000
19.78685760 -34.31332016 -2.07585335 18 24 14863 39.66400000 3177291123 3177291123 -3.00000000
67.98723602 -117.94742584 11.11373615 28 26 14864 136.59200000 3177291125 3177291125 4.66700000
38.12537003 -53.33157730 -2.67088604 57 27 14864 65.61200000 3177291125 3177291125 -2.33300000
38.53021240 -75.13288879 -2.94858861 28 28 14865 84.48800000 3177291128 3177291128 -2.00000000
38.26726151 -59.51594925 -1.64647198 20 31 14866 70.77600000 3177291130 3177291130 -1.33300000
3.16417527 -5.50711727 -2.96170878 16 0 14872 7.00800000 3177291151 3177291151 -25.00000000
38.19966507 -53.59351730 -1.14878726 28 1 14872 65.82400000 3177291151 3177291151 -1.00000000
38.86205292 -67.66514587 -2.27092338 28 2 14873 78.06400000 3177291153 3177291153 -1.66700000
5.76371813 -8.98826218 -2.98905158 6 3 14873 11.08800000 3177291153 3177291153 -15.63900000
7.47748184 -13.02477264 -3.00373244 3 4 14874 15.31600000 3177291155 3177291155 -11.31000000
38.25490189 -59.67973709 0.00000000 50 5 14874 70.88800000 3177291155 3177291155 0.00000000
37.31573868 -73.04705811 -0.95494133 29 6 14874 82.03200000 3177291158 3177291158 -0.66700000
9.89263153 -15.43304634 -2.85195160 3 7 14874 18.55200000 3177291158 3177291158 -8.84300000
11.54183578 -20.11246300 -2.95164609 5 8 14875 23.37600000 3177291160 3177291160 -7.25400000
38.50851822 -54.08672714 0.38588783 56 9 14875 66.39600000 3177291160 3177291160 0.33300000
37.30391312 -65.03098297 -0.43573079 28 10 14876 74.97200000 3177291162 3177291162 -0.33300000
13.84614849 -21.61735344 -2.76524568 3 11 14876 25.82000000 3177291162 3177291162 -6.14800000
14.72401714 -28.86014366 -3.02440000 4 12 14877 32.54000000 3177291165 3177291165 -5.33300000
40.91294479 -63.90005112 1.76557934 26 13 14877 75.89600000 3177291165 3177291165 1.33300000
36.27079010 -71.12404633 0.92947066 28 14 14878 79.84400000 3177291167 3177291167 0.66700000
19.76129913 -30.87613106 -2.56341100 10 15 14878 36.74800000 3177291167 3177291167 -4.00000000
17.33575439 -30.25768661 -2.84678030 6 16 14879 34.98800000 3177291169 3177291169 -4.66700000
43.36886597 -61.00336838 2.17829919 28 17 14879 74.88000000 3177291169 3177291169 1.66700000
37.75788116 -65.90230560 1.32575464 28 18 14879 75.96400000 3177291172 3177291172 1.00000000
19.94455528 -28.05434418 -2.20602345 12 19 14879 34.49200000 3177291172 3177291172 -3.66700000
19.77138138 -38.80352020 -2.53625655 19 20 14880 43.62400000 3177291174 3177291174 -3.33300000
40.32009506 -63.04677582 4.35833359 35 21 14880 74.96400000 3177291174 3177291174 3.33300000
37.87216568 -66.15529633 3.10563993 28 22 14881 76.29200000 3177291176 3177291176 2.33300000
19.88597107 -31.10678482 -1.71979034 12 23 14881 36.96000000 3177291176 3177291176 -2.66700000
19.78604698 -34.57636642 -2.08778596 18 24 14882 39.89200000 3177291178 3177291178 -3.00000000
68.47066498 -119.70181274 11.25758839 28 26 14883 138.36000000 3177291181 3177291181 4.66700000
38.27450943 -53.91723251 -2.69384503 28 27 14883 66.17600000 3177291181 3177291181 -2.33300000
38.53458405 -75.75907898 -2.96813250 28 28 14884 85.04800000 3177291183 3177291183 -2.00000000
38.37520981 -60.12117004 -1.65968549 21 31 14885 71.34400000 3177291185 3177291185 -1.33300000
3.17985964 -5.58167601 -2.99551821 16 0 14893 7.08800000 3177291206 3177291206 -25.00000000
38.12768173 -53.90948868 -1.15255690 28 1 14893 66.04000000 3177291206 3177291206 -1.00000000
38.77207184 -68.08508301 -2.28023243 28 2 14894 78.38400000 3177291208 3177291208 -1.66700000
5.73693800 -9.01907730 -2.99228644 6 3 14894 11.10000000 3177291208 3177291208 -15.63900000
7.43939543 -13.06913567 -3.00765467 3 4 14895 15.33600000 3177291211 3177291211 -11.31000000
38.23336029 -60.13008881 0.00000000 50 5 14895 71.25600000 3177291211 3177291211 0.00000000
37.94739532 -74.96046448 -0.97813040 29 6 14895 84.02400000 3177291213 3177291213 -0.66700000
9.85084534 -15.49254799 -2.85625601 3 7 14895 18.58000000 3177291213 3177291213 -8.84300000
11.48374176 -20.18222046 -2.95568657 5 8 14896 23.40800000 3177291215 3177291215 -7.25400000
38.52466202 -54.53132629 0.38804984 56 9 14896 66.76800000 3177291215 3177291215 0.33300000
37.36194229 -65.68880463 -0.43921795 56 10 14897 75.57200000 3177291218 3177291218 -0.33300000
13.79668236 -21.71495247 -2.77124333 3 11 14897 25.87600000 3177291218 3177291218 -6.14800000
14.62532806 -28.92813301 -3.02588701 4 12 14898 32.55600000 3177291220 3177291220 -5.33300000
40.67632294 -64.04619598 1.76548624 26 13 14898 75.89200000 3177291220 3177291220 1.33300000
37.18247223 -73.57687378 0.95973748 28 14 14899 82.44400000 3177291222 3177291222 0.66700000
19.76348877 -31.13026237 -2.57847834 10 15 14899 36.96400000 3177291222 3177291222 -4.00000000
17.25033760 -30.36608696 -2.85101104 6 16 14900 35.04000000 3177291225 3177291225 -4.66700000
43.14728928 -61.16518021 2.17841554 56 17 14900 74.88400000 3177291225 3177291225 1.66700000
38.19762039 -67.23997498 1.34983897 28 18 14900 77.34400000 3177291227 3177291227 1.00000000
19.92903519 -28.25120735 -2.21574497 12 19 14900 34.64400000 3177291227 3177291227 -3.66700000
19.73341751 -39.08247375 -2.54974484 19 20 14901 43.85600000 3177291229 3177291229 -3.33300000
40.03954697 -63.11657715 4.35298491 35 21 14901 74.87200000 3177291229 3177291229 3.33300000
37.61759949 -66.27280426 3.10466290 28 22 14902 76.26800000 3177291231 3177291231 2.33300000
19.87667465 -31.34480858 -1.72891045 12 23 14902 37.15600000 3177291231 3177291231 -2.66700000
19.77351761 -34.85015869 -2.09992790 19 24 14903 40.12400000 3177291234 3177291234 -3.00000000
67.21132660 -118.50588226 11.12187290 28 26 14904 136.69200000 3177291236 3177291236 4.66700000
38.29298019 -54.36429596 -2.70915103 57 27 14904 66.55200000 3177291236 3177291236 -2.33300000
38.54993820 -76.48167419 -2.99088693 28 28 14905 85.70000000 3177291238 3177291238 -2.00000000
38.30861664 -60.50468063 -1.66638529 42 31 14906 71.63200000 3177291241 3177291241 -1.33300000
3.15678954 -5.58642960 -2.99213719 19 0 14913 7.08000000 3177291261 3177291261 -25.00000000
38.05416870 -54.20591736 -1.15604734 28 1 14913 66.24000000 3177291261 3177291261 -1.00000000
38.82913971 -68.74220276 -2.29768682 28 2 14914 78.98400000 3177291264 3177291264 -1.66700000
5.71158886 -9.04882050 -2.99552131 6 3 14914 11.11200000 3177291264 3177291264 -15.63900000
7.40144396 -13.10868645 -3.01079273 1 4 14915 15.35200000 3177291266 3177291266 -11.31000000
38.22387314 -60.58117676 0.00000000 50 5 14915 71.63200000 3177291266 3177291266 0.00000000
37.59580231 -74.91372681 -0.97580218 29 6 14915 83.82400000 3177291268 3177291268 -0.66700000
9.81990623 -15.56360912 -2.86301994 3 7 14915 18.62400000 3177291268 3177291268 -8.84300000
11.42297459 -20.23946190 -2.95821190 2 8 14916 23.42800000 3177291271 3177291271 -7.25400000
38.45120239 -54.83249283 0.38923550 56 9 14916 66.97200000 3177291271 3177291271 0.33300000
37.14028168 -65.83275604 -0.43931094 56 10 14917 75.58800000 3177291273 3177291273 -0.33300000
13.77382374 -21.84708405 -2.78195286 3 11 14917 25.97600000 3177291273 3177291273 -6.14800000
14.58671951 -29.10362625 -3.03889918 4 12 14918 32.69600000 3177291275 3177291275 -5.33300000
40.40773773 -64.11675262 1.76353216 52 13 14918 75.80800000 3177291275 3177291275 1.33300000
37.01319885 -73.88143921 0.96201909 28 14 14919 82.64000000 3177291277 3177291277 0.66700000
19.75041389 -31.35098839 -2.59103441 15 15 14919 37.14400000 3177291277 3177291277 -4.00000000
17.21077728 -30.54420853 -2.86207676 6 16 14920 35.17600000 3177291280 3177291280 -4.66700000
43.13074493 -61.59709167 2.18842268 28 17 14920 75.22800000 3177291280 3177291280 1.66700000
37.83113480 -67.13945007 1.34516168 28 18 14920 77.07600000 3177291282 3177291282 1.00000000
19.92188263 -28.45139694 -2.22597814 12 19 14920 34.80400000 3177291282 3177291282 -3.66700000
19.74522591 -39.44750214 -2.56904697 10 20 14921 44.18800000 3177291284 3177291284 -3.33300000
41.06346130 -65.23291779 4.48902988 38 21 14921 77.21200000 3177291284 3177291284 3.33300000
39.72327805 -70.55503082 3.29875517 28 22 14922 81.03600000 3177291287 3177291287 2.33300000
19.86928558 -31.57632828 -1.73784435 12 23 14922 37.34800000 3177291287 3177291287 -2.66700000
19.76929283 -35.12783813 -2.11248851 19 24 14923 40.36400000 3177291289 3177291289 -3.00000000
65.96651459 -117.26303864 10.98355293 28 26 14924 134.99200000 3177291291 3177291291 4.66700000
38.34115219 -54.83828354 -2.72608519 57 27 14924 66.96800000 3177291291 3177291291 -2.33300000
38.51859283 -77.08780670 -3.00931382 28 28 14925 86.22800000 3177291294 3177291294 -2.00000000
38.05250931 -60.56692505 -1.66443110 21 31 14926 71.54800000 3177291296 3177291296 -1.33300000
3.14258742 -5.60690165 -2.99720860 17 0 14933 7.09200000 3177291317 3177291317 -25.00000000
38.00419998 -54.53857803 -1.16030574 28 1 14933 66.48400000 3177291317 3177291317 -1.00000000
38.83713913 -69.32032013 -2.31246471 28 2 14934 79.49200000 3177291319 3177291319 -1.66700000
5.68405676 -9.07523155 -2.99767804 6 3 14934 11.12000000 3177291319 3177291319 -15.63900000
7.38247252 -13.18235302 -3.02177525 1 4 14935 15.40800000 3177291321 3177291321 -11.31000000
38.18835449 -60.99563217 0.00000000 50 5 14935 71.96400000 3177291321 3177291321 0.00000000
37.42493439 -75.22713470 -0.97817695 29 6 14935 84.02800000 3177291324 3177291324 -0.66700000
9.78229809 -15.62459278 -2.86793923 2 7 14935 18.65600000 3177291324 3177291324 -8.84300000
11.37163830 -20.31383705 -2.96326256 5 8 14936 23.46800000 3177291326 3177291326 -7.25400000
38.58862305 -55.43912506 0.39258313 56 9 14936 67.54800000 3177291326 3177291326 0.33300000
36.90634918 -65.95502472 -0.43926445 28 10 14937 75.58000000 3177291328 3177291328 -0.33300000
13.72068119 -21.93211746 -2.78666520 3 11 14937 26.02000000 3177291328 3177291328 -6.14800000
14.50984955 -29.20430183 -3.04410410 4 12 14938 32.75200000 3177291330 3177291330 -5.33300000
40.19216156 -64.27097321 1.76390433 52 13 14938 75.82400000 3177291330 3177291330 1.33300000
38.74049377 -78.00803375 1.01398492 28 14 14939 87.10400000 3177291333 3177291333 0.66700000
19.74872780 -31.59230042 -2.60526466 15 15 14939 37.34800000 3177291333 3177291333 -4.00000000
17.13711739 -30.66326141 -2.86760950 6 16 14940 35.24400000 3177291335 3177291335 -4.66700000
43.39694977 -62.44002533 2.21297503 28 17 14940 76.07200000 3177291335 3177291335 1.66700000
37.65898132 -67.38281250 1.34739554 28 18 14940 77.20400000 3177291337 3177291337 1.00000000
19.92268753 -28.66499138 -2.23723483 13 19 14940 34.98000000 3177291337 3177291337 -3.66700000
19.72455215 -39.75227356 -2.58439565 10 20 14941 44.45200000 3177291340 3177291340 -3.33300000
40.04431152 -64.10918427 4.40205431 73 21 14941 75.71600000 3177291340 3177291340 3.33300000
39.48649597 -70.71070862 3.29956937 28 22 14942 81.05600000 3177291342 3177291342 2.33300000
19.86898422 -31.82173347 -1.74752283 12 23 14942 37.55600000 3177291342 3177291342 -2.66700000
19.76337051 -35.40590668 -2.12504911 19 24 14943 40.60400000 3177291344 3177291344 -3.00000000
65.70247650 -117.75370026 11.00796223 28 26 14944 135.29200000 3177291347 3177291347 4.66700000
38.38192368 -55.30669785 -2.74269366 28 27 14944 67.37600000 3177291347 3177291347 -2.33300000
38.53671265 -77.80210876 -3.03192878 28 28 14945 86.87600000 3177291349 3177291349 -2.00000000
38.09269333 -61.07959366 -1.67503917 21 31 14945 72.00400000 3177291351 3177291351 -1.33300000
3.13278675 -5.63313341 -3.00566101 15 0 14952 7.11200000 3177291372 3177291372 -25.00000000
38.17585754 -55.17407990 -1.17112625 28 1 14952 67.10400000 3177291372 3177291372 -1.00000000
38.84211731 -69.87158203 -2.32654452 28 2 14953 79.97600000 3177291374 3177291374 -1.66700000
5.66003227 -9.10384369 -3.00091290 6 3 14953 11.13200000 3177291374 3177291374 -15.63900000
7.35205412 -13.23076153 -3.02726650 1 4 14954 15.43600000 3177291377 3177291377 -11.31000000
38.11255646 -61.32577515 0.00000000 50 5 14954 72.20400000 3177291377 3177291377 0.00000000
37.26118088 -75.55820465 -0.98078454 29 6 14955 84.25200000 3177291379 3177291379 -0.66700000
9.73604202 -15.67207336 -2.87039900 2 7 14955 18.67200000 3177291379 3177291379 -8.84300000
11.35430813 -20.44162369 -2.97639465 5 8 14955 23.57200000 3177291381 3177291381 -7.25400000
38.46369553 -55.65233612 0.39318758 28 9 14955 67.65200000 3177291381 3177291381 0.33300000
36.71267319 -66.12250519 -0.43956664 56 10 14956 75.63200000 3177291383 3177291383 -0.33300000
13.66885662 -22.01128197 -2.79094911 3 11 14956 26.06000000 3177291383 3177291383 -6.14800000
14.43756866 -29.30227280 -3.04930902 4 12 14957 32.80800000 3177291386 3177291386 -5.33300000
40.05262756 -64.52281189 1.76716113 26 13 14957 75.96400000 3177291386 3177291386 1.33300000
38.38793945 -77.94589996 1.01151705 28 14 14958 86.89200000 3177291388 3177291388 0.66700000
19.73852921 -31.81019020 -2.61782098 10 15 14958 37.52800000 3177291388 3177291388 -4.00000000
17.09334183 -30.82451630 -2.87737322 6 16 14959 35.36400000 3177291390 3177291390 -4.66700000
43.16921234 -62.55397415 2.21192789 28 17 14959 76.03600000 3177291390 3177291390 1.66700000
38.56557846 -69.57414246 1.38851345 28 18 14960 79.56000000 3177291393 3177291393 1.00000000
19.90864182 -28.85922050 -2.24695635 19 19 14960 35.13200000 3177291393 3177291393 -3.66700000
19.74600601 -40.12918091 -2.60462809 10 20 14960 44.80000000 3177291395 3177291395 -3.33300000
39.79782867 -64.18732452 4.39833307 36 21 14960 75.65200000 3177291395 3177291395 3.33300000
39.34864426 -71.01605988 3.30771089 28 22 14961 81.25600000 3177291397 3177291397 2.33300000
19.86228371 -32.04706955 -1.75627077 12 23 14961 37.74400000 3177291397 3177291397 -2.66700000
19.76390839 -35.68440628 -2.13781905 19 24 14962 40.84800000 3177291400 3177291400 -3.00000000
64.28820801 -116.12235260 10.83546925 28 26 14963 133.17200000 3177291402 3177291402 4.66700000
38.41147995 -55.74303055 -2.75799966 57 27 14963 67.75200000 3177291402 3177291402 -2.33300000
38.53052902 -78.44257355 -3.05189109 28 28 14964 87.44800000 3177291404 3177291404 -2.00000000
38.21829605 -61.73600006 -1.68955529 22 31 14964 72.62800000 3177291407 3177291407 -1.33300000
3.11737037 -5.65410185 -3.01073241 14 0 14973 7.12400000 3177291427 3177291427 -25.00000000
38.29253769 -55.77853394 -1.18096948 28 1 14973 67.66800000 3177291427 3177291427 -1.00000000
38.80770111 -70.41617584 -2.33992624 28 2 14974 80.43600000 3177291430 3177291430 -1.66700000
5.63269234 -9.13436413 -3.00414777 6 3 14974 11.14400000 3177291430 3177291430 -15.63900000
7.31297445 -13.27479744 -3.03118896 1 4 14975 15.45600000 3177291432 3177291432 -11.31000000
37.94000244 -61.55017853 0.00000000 51 5 14975 72.30400000 3177291432 3177291432 0.00000000
37.49846649 -76.74722290 -0.99442786 29 6 14976 85.42400000 3177291434 3177291434 -0.66700000
9.69097519 -15.72784233 -2.87408853 2 7 14976 18.69600000 3177291434 3177291434 -8.84300000
11.27739525 -20.47962570 -2.97588944 5 8 14976 23.56800000 3177291436 3177291436 -7.25400000
38.65533447 -56.37023163 0.39725593 56 9 14976 68.35200000 3177291436 3177291436 0.33300000
37.62736511 -68.35911560 -0.45351526 28 10 14977 78.03200000 3177291439 3177291439 -0.33300000
13.64023113 -22.14588928 -2.80165887 3 11 14977 26.16000000 3177291439 3177291439 -6.14800000
14.38598156 -29.46952057 -3.06120586 4 12 14978 32.93600000 3177291441 3177291441 -5.33300000
39.01917648 -63.37518311 1.73180115 25 13 14978 74.44400000 3177291441 3177291441 1.33300000
37.63893890 -77.13709259 0.99922401 28 14 14979 85.83600000 3177291443 3177291443 0.66700000
19.73474503 -32.06582642 -2.63288832 10 15 14979 37.74400000 3177291443 3177291443 -4.00000000
17.01482201 -30.94984436 -2.88323140 6 16 14980 35.43600000 3177291446 3177291446 -4.66700000
43.07970428 -62.91632080 2.21914220 28 17 14980 76.28400000 3177291446 3177291446 1.66700000
37.70593262 -68.58683777 1.36617434 28 18 14980 78.28000000 3177291448 3177291448 1.00000000
19.89799309 -29.06028557 -2.25718951 19 19 14980 35.29200000 3177291448 3177291448 -3.66700000
19.71603394 -40.44177246 -2.62020946 10 20 14981 45.06800000 3177291450 3177291450 -3.33300000
39.80286026 -64.72393036 4.42507696 37 21 14981 76.11200000 3177291450 3177291450 3.33300000
40.43887711 -73.61890411 3.42201686 28 22 14982 84.06400000 3177291453 3177291453 2.33300000
19.85559273 -32.30006409 -1.76613533 12 23 14982 37.95600000 3177291453 3177291453 -2.66700000
19.74833870 -35.96669006 -2.15037966 20 24 14983 41.08800000 3177291455 3177291455 -3.00000000
63.75858688 -116.16847229 10.81789494 28 26 14984 132.95600000 3177291457 3177291457 4.66700000
38.53398895 -56.36183548 -2.78160977 57 27 14984 68.33200000 3177291457 3177291457 -2.33300000
38.70282745 -79.52862549 -3.08860540 28 28 14985 88.50000000 3177291460 3177291460 -2.00000000
38.17589951 -62.17554855 -1.69774401 22 31 14985 72.98000000 3177291462 3177291462 -1.33300000
3.07500458 -5.62359905 -2.98875642 16 0 14993 7.07200000 3177291483 3177291483 -25.00000000
38.20569992 -56.07050323 -1.18432033 28 1 14993 67.86000000 3177291483 3177291483 -1.00000000
38.81862640 -71.02133942 -2.35551882 28 2 14994 80.97200000 3177291485 3177291485 -1.66700000
7.27599478 -13.31745338 -3.03511119 1 4 14995 15.47600000 3177291488 3177291488 -11.31000000
37.82301331 -61.84262085 0.00000000 51 5 14995 72.49200000 3177291488 3177291488 0.00000000
37.24201584 -76.86754608 -0.99438131 29 6 14995 85.42000000 3177291490 3177291490 -0.66700000
9.65526485 -15.78686714 -2.87900758 2 7 14995 18.72800000 3177291490 3177291490 -8.84300000
11.21725082 -20.53976059 -2.97891998 5 8 14996 23.59200000 3177291492 3177291492 -7.25400000
38.60687256 -56.72306442 0.39879027 56 9 14996 68.61600000 3177291492 3177291492 0.33300000
37.67025375 -69.00614166 -0.45693266 28 10 14997 78.62000000 3177291495 3177291495 -0.33300000
13.57528782 -22.21372795 -2.80422902 3 11 14997 26.18400000 3177291495 3177291495 -6.14800000
14.29343414 -29.54106712 -3.06343651 4 12 14998 32.96000000 3177291497 3177291497 -5.33300000
38.80605698 -63.52465057 1.73217344 25 13 14998 74.46000000 3177291497 3177291497 1.33300000
39.10566330 -80.85793304 1.04564869 28 14 14999 89.82400000 3177291499 3177291499 0.66700000
19.73083115 -32.31160736 -2.64739776 10 15 14999 37.95200000 3177291499 3177291499 -4.00000000
16.97538567 -31.13505936 -2.89494801 6 16 15000 35.58000000 3177291501 3177291501 -4.66700000
42.74520493 -62.89765930 2.21320772 28 17 15000 76.08000000 3177291501 3177291501 1.66700000
37.35142136 -68.50735474 1.36198580 28 18 15000 78.04000000 3177291504 3177291504 1.00000000
19.89515686 -29.27483368 -2.26844597 19 19 15000 35.46800000 3177291504 3177291504 -3.66700000
19.72068405 -40.81237030 -2.63974404 10 20 15001 45.40400000 3177291506 3177291506 -3.33300000
39.64948654 -64.98178864 4.43321657 75 21 15001 76.25200000 3177291506 3177291506 3.33300000
40.24283600 -73.87192535 3.42722726 28 22 15002 84.19200000 3177291508 3177291508 2.33300000
19.84883308 -32.54314804 -1.77562773 12 23 15002 38.16000000 3177291508 3177291508 -2.66700000
19.76212311 -36.29149628 -2.16566181 20 24 15003 41.38000000 3177291511 3177291511 -3.00000000
63.51470184 -116.68795776 10.84555912 28 26 15004 133.29600000 3177291513 3177291513 4.66700000
38.49410248 -56.72750473 -2.79300785 28 27 15004 68.61200000 3177291513 3177291513 -2.33300000
38.64902115 -80.12771606 -3.10661364 28 28 15005 89.01600000 3177291515 3177291515 -2.00000000
38.31439590 -62.89241028 -1.71365595 23 31 15005 73.66400000 3177291518 3177291518 -1.33300000
3.01906490 -5.56737518 -2.95325637 15 0 15013 6.98800000 3177291538 3177291538 -25.00000000
38.30324936 -56.63751602 -1.19346535 28 1 15013 68.38400000 3177291538 3177291538 -1.00000000
38.80865097 -71.59579468 -2.37006402 28 2 15014 81.47200000 3177291541 3177291541 -1.66700000
3.57193851 -5.88405657 -1.92692471 220 3 15014 7.14800000 3177291541 3177291541 -15.63900000
7.27057266 -13.41864014 -3.05236959 3 4 15015 15.56400000 3177291543 3177291543 -11.31000000
37.61936188 -61.99478912 0.00000000 51 5 15015 72.51600000 3177291543 3177291543 0.00000000
37.05657578 -77.17014313 -0.99661642 29 6 15015 85.61200000 3177291545 3177291545 -0.66700000
9.61445236 -15.84412670 -2.88331199 2 7 15015 18.75600000 3177291545 3177291545 -8.84300000
11.15871334 -20.60321617 -2.98245549 5 8 15016 23.62000000 3177291548 3177291548 -7.25400000
38.64149475 -57.20219040 0.40120801 56 9 15016 69.03200000 3177291548 3177291548 0.33300000
36.88642120 -68.13471222 -0.45030707 28 10 15017 77.48000000 3177291550 3177291550 -0.33300000
13.52240849 -22.30178833 -2.80936980 3 11 15017 26.23200000 3177291550 3177291550 -6.14800000
14.24878120 -29.71287918 -3.07607698 4 12 15018 33.09600000 3177291552 3177291552 -5.33300000
38.84524155 -64.09061432 1.74389803 51 13 15018 74.96400000 3177291552 3177291552 1.33300000
38.85429764 -81.05886078 1.04648685 28 14 15019 89.89600000 3177291554 3177291554 0.66700000
19.71923637 -32.54750824 -2.66106987 10 15 15019 38.14800000 3177291554 3177291554 -4.00000000
16.90641975 -31.26777077 -2.90178251 6 16 15020 35.66400000 3177291557 3177291557 -4.66700000
42.38006210 -62.83102798 2.20564437 56 17 15020 75.82000000 3177291557 3177291557 1.66700000
37.21477890 -68.82729340 1.36575556 28 18 15020 78.25600000 3177291559 3177291559 1.00000000
19.88436699 -29.47978592 -2.27893496 20 19 15020 35.63200000 3177291559 3177291559 -3.66700000
19.69021416 -41.11505890 -2.65486026 10 20 15021 45.66400000 3177291561 3177291561 -3.33300000
40.67769623 -67.19332123 4.57437801 40 21 15021 78.68000000 3177291561 3177291561 3.33300000
39.90304184 -73.86074829 3.42022562 28 22 15022 84.02000000 3177291564 3177291564 2.33300000
19.83027458 -32.76948547 -1.78418946 12 23 15022 38.34400000 3177291564 3177291564 -2.66700000
19.74351120 -36.56060028 -2.17759442 20 24 15023 41.60800000 3177291566 3177291566 -3.00000000
63.27364731 -117.21768188 10.87419891 28 26 15024 133.64800000 3177291568 3177291568 4.66700000
38.47446060 -57.12672424 -2.80603433 28 27 15024 68.93200000 3177291568 3177291568 -2.33300000
38.64495087 -80.83919525 -3.12894917 28 28 15025 89.65600000 3177291571 3177291571 -2.00000000
38.17323303 -63.15581894 -1.71719193 23 31 15025 73.81600000 3177291573 3177291573 -1.33300000
2.99028063 -5.55820131 -2.94311357 13 0 15032 6.96400000 3177291594 3177291594 -25.00000000
38.27574158 -57.00328827 -1.19849169 28 1 15032 68.67200000 3177291594 3177291594 -1.00000000
38.81719971 -72.18187714 -2.38519096 28 2 15033 81.99200000 3177291596 3177291596 -1.66700000
3.55439448 -5.89916849 -1.92800295 204 3 15033 7.15200000 3177291596 3177291596 -15.63900000
7.23346329 -13.45649624 -3.05550742 3 4 15034 15.58000000 3177291598 3177291598 -11.31000000
37.60343552 -62.43443680 0.00000000 25 5 15034 72.88400000 3177291598 3177291598 0.00000000
36.80906296 -77.31066132 -0.99684924 29 6 15034 85.63200000 3177291601 3177291601 -0.66700000
9.56797600 -15.88607979 -2.88515687 3 7 15034 18.76800000 3177291601 3177291601 -8.84300000
11.10159779 -20.66107750 -2.98548579 5 8 15035 23.64400000 3177291603 3177291603 -7.25400000
38.68999481 -57.68546677 0.40369552 28 9 15035 69.46000000 3177291603 3177291603 0.33300000
36.71326828 -68.35533142 -0.45095801 28 10 15036 77.59200000 3177291605 3177291605 -0.33300000
13.46273327 -22.37035942 -2.81236839 3 11 15036 26.26000000 3177291605 3177291605 -6.14800000
14.15017128 -29.75996590 -3.07607698 4 12 15037 33.09600000 3177291607 3177291607 -5.33300000
38.57065582 -64.11627960 1.74110651 51 13 15037 74.84400000 3177291607 3177291607 1.33300000
38.67112732 -81.36788940 1.04881501 28 14 15038 90.09600000 3177291610 3177291610 0.66700000
19.72223854 -32.79737854 -2.67613745 10 15 15038 38.36400000 3177291610 3177291610 -4.00000000
16.85917664 -31.42905807 -2.91154623 6 16 15039 35.78400000 3177291612 3177291612 -4.66700000
42.06468201 -62.81175613 2.20005894 56 17 15039 75.62800000 3177291612 3177291612 1.66700000
37.06123734 -69.11891174 1.36896682 28 18 15040 78.44000000 3177291614 3177291614 1.00000000
19.88127136 -29.69828796 -2.29044747 20 19 15040 35.81200000 3177291614 3177291614 -3.66700000
19.70620537 -41.50117111 -2.67555785 10 20 15040 46.02000000 3177291617 3177291617 -3.33300000
40.46493530 -67.34496307 4.57554102 40 21 15040 78.70000000 3177291617 3177291617 3.33300000
40.03738403 -74.70070648 3.45295429 28 22 15041 84.82400000 3177291619 3177291619 2.33300000
19.83670807 -33.02688217 -1.79461241 13 23 15041 38.56800000 3177291619 3177291619 -2.66700000
19.73723221 -36.84065628 -2.19036436 20 24 15042 41.85200000 3177291621 3177291621 -3.00000000
63.18761063 -117.99269867 10.92659760 28 26 15043 134.29200000 3177291624 3177291624 4.66700000
38.42477417 -57.46330261 -2.81629252 28 27 15043 69.18400000 3177291624 3177291624 -2.33300000
38.57870102 -81.39315796 -3.14542174 28 28 15044 90.12800000 3177291626 3177291626 -2.00000000
38.16313934 -63.61468887 -1.72621810 23 31 15044 74.20400000 3177291628 3177291628 -1.33300000
2.98963118 -5.60378885 -2.96170878 13 0 15052 7.00800000 3177291649 3177291649 -25.00000000
38.28279495 -57.44606018 -1.20498395 28 1 15052 69.04400000 3177291649 3177291649 -1.00000000
38.68164825 -72.53567505 -2.39240551 28 2 15053 82.24000000 3177291651 3177291651 -1.66700000
7.18460226 -13.47820187 -3.05472302 3 4 15054 15.57600000 3177291653 3177291653 -11.31000000
37.64994812 -63.00826263 0.00000000 51 5 15054 73.40000000 3177291653 3177291653 0.00000000
36.66024399 -77.73084259 -1.00052786 29 6 15055 85.94800000 3177291656 3177291656 -0.66700000
9.52590084 -15.94818687 -2.89007616 2 7 15055 18.80000000 3177291656 3177291656 -8.84300000
11.03873920 -20.71721268 -2.98801136 5 8 15055 23.66400000 3177291658 3177291658 -7.25400000
38.67679596 -58.10319138 0.40567157 56 9 15055 69.80000000 3177291658 3177291658 0.33300000
36.93323898 -69.34449005 -0.45663044 28 10 15056 78.56800000 3177291660 3177291660 -0.33300000
13.44164944 -22.51282692 -2.82436347 3 11 15056 26.37200000 3177291660 3177291660 -6.14800000
14.08355141 -29.88843918 -3.08425593 4 12 15057 33.18400000 3177291663 3177291663 -5.33300000
38.31177139 -64.19215393 1.73952460 51 13 15057 74.77600000 3177291663 3177291663 1.33300000
38.60501099 -81.96554565 1.05477524 28 14 15058 90.60800000 3177291665 3177291665 0.66700000
19.71803093 -33.05106735 -2.69120479 10 15 15058 38.58000000 3177291665 3177291665 -4.00000000
16.82051277 -31.62146759 -2.92391372 6 16 15059 35.93600000 3177291667 3177291667 -4.66700000
41.87615585 -63.00482559 2.20168805 56 17 15059 75.68400000 3177291667 3177291667 1.66700000
37.67326736 -70.82328796 1.40024149 28 18 15059 80.23200000 3177291670 3177291670 1.00000000
19.87548256 -29.90368080 -2.30119228 13 19 15059 35.98000000 3177291670 3177291670 -3.66700000
19.71934128 -41.90573120 -2.69718552 10 20 15060 46.39200000 3177291672 3177291672 -3.33300000
40.72851944 -68.32272339 4.63228464 41 21 15060 79.67600000 3177291672 3177291672 3.33300000
39.91706467 -75.10469818 3.46516657 28 22 15061 85.12400000 3177291674 3177291674 2.33300000
19.82561493 -33.27098083 -1.80410469 13 23 15061 38.77200000 3177291674 3177291674 -2.66700000
19.73220253 -37.14214706 -2.20418119 20 24 15062 42.11600000 3177291677 3177291677 -3.00000000
38.33887482 -57.77024460 -2.82475972 28 27 15063 69.39200000 3177291679 3177291679 -2.33300000
38.60876846 -82.19671631 -3.17124748 28 28 15064 90.86800000 3177291681 3177291681 -2.00000000
37.91950226 -63.73695374 -1.72575283 23 31 15065 74.18400000 3177291683 3177291683 -1.33300000
2.98361421 -5.63982630 -2.97523260 15 0 15072 7.04000000 3177291704 3177291704 -25.00000000
38.21220398 -57.77615356 -1.20910275 28 1 15072 69.28000000 3177291704 3177291704 -1.00000000
38.43943024 -72.69146729 -2.39310360 28 2 15073 82.26400000 3177291706 3177291706 -1.66700000
5.49564219 -9.26676559 -3.01600909 6 3 15073 11.18800000 3177291706 3177291706 -15.63900000
7.13751078 -13.50319958 -3.05472302 3 4 15074 15.57600000 3177291709 3177291709 -11.31000000
37.59500122 -63.41801071 0.00000000 26 5 15074 73.72400000 3177291709 3177291709 0.00000000
37.34045029 -79.89475250 -1.02669692 29 6 15075 88.19600000 3177291711 3177291711 -0.66700000
9.49233723 -16.01874542 -2.89684010 2 7 15075 18.84400000 3177291711 3177291711 -8.84300000
11.01084328 -20.83982086 -3.00013304 5 8 15075 23.76000000 3177291713 3177291713 -7.25400000
38.58618927 -58.40805054 0.40685719 56 9 15075 70.00400000 3177291713 3177291713 0.33300000
37.72395325 -71.42892456 -0.46948639 28 10 15076 80.78000000 3177291716 3177291716 -0.33300000
13.37717152 -22.58356285 -2.82736206 3 11 15076 26.40000000 3177291716 3177291716 -6.14800000
14.04316711 -30.07454681 -3.09838343 4 12 15077 33.33600000 3177291718 3177291718 -5.33300000
37.99374390 -64.16720581 1.73524415 50 13 15077 74.59200000 3177291718 3177291718 1.33300000
38.42354202 -82.32451630 1.05766225 28 14 15078 90.85600000 3177291720 3177291720 0.66700000
19.71025848 -33.30168915 -2.70599318 10 15 15078 38.79200000 3177291720 3177291720 -4.00000000
16.73234940 -31.72230339 -2.92781925 6 16 15079 35.98400000 3177291723 3177291723 -4.66700000
43.55152893 -66.02428436 2.30187583 28 17 15079 79.12800000 3177291723 3177291723 1.66700000
37.34931564 -70.80932617 1.39737928 28 18 15079 80.06800000 3177291725 3177291725 1.00000000
19.86329269 -30.11282730 -2.31193709 13 19 15079 36.14800000 3177291725 3177291725 -3.66700000
19.68601227 -42.21678925 -2.71276665 10 20 15080 46.66000000 3177291727 3177291727 -3.33300000
40.61580658 -68.67758179 4.64670324 42 21 15080 79.92400000 3177291727 3177291727 3.33300000
39.97329712 -75.84818268 3.49301028 28 22 15081 85.80800000 3177291730 3177291730 2.33300000
19.82525826 -33.53603745 -1.81471384 13 23 15081 39.00000000 3177291730 3177291730 -2.66700000
19.71413803 -37.42284775 -2.21674180 21 24 15082 42.35600000 3177291732 3177291732 -3.00000000
62.88429260 -119.42219543 11.01805115 28 26 15083 135.41600000 3177291734 3177291734 4.66700000
38.26229095 -58.09397507 -2.83404088 28 27 15083 69.62000000 3177291734 3177291734 -2.33300000
38.47174835 -82.65353394 -3.18367171 28 28 15084 91.22400000 3177291736 3177291736 -2.00000000
38.04748154 -64.43740082 -1.74129260 24 31 15084 74.85200000 3177291739 3177291739 -1.33300000
2.97738147 -5.67588902 -2.98875642 17 0 15092 7.07200000 3177291759 3177291759 -25.00000000
38.24950790 -58.27362823 -1.21671200 28 1 15092 69.71600000 3177291759 3177291759 -1.00000000
37.57088089 -71.65311432 -2.35458779 28 2 15093 80.94000000 3177291762 3177291762 -1.66700000
5.46912146 -9.29585266 -3.01924396 6 3 15093 11.20000000 3177291762 3177291762 -15.63900000
37.61875916 -63.96605682 0.00000000 26 5 15094 74.20800000 3177291764 3177291764 0.00000000
37.77816772 -81.53510284 -1.04616082 29 6 15094 89.86800000 3177291766 3177291766 -0.66700000
9.44317245 -16.05694771 -2.89806986 2 7 15094 18.85200000 3177291766 3177291766 -8.84300000
10.94539738 -20.89218903 -3.00215340 5 8 15095 23.77600000 3177291769 3177291769 -7.25400000
38.49830627 -58.71967697 0.40808934 84 9 15095 70.21600000 3177291769 3177291769 0.33300000
37.48737717 -71.58497620 -0.46964914 28 10 15096 80.80800000 3177291771 3177291771 -0.33300000
13.31437778 -22.65755081 -2.83078909 3 11 15096 26.43200000 3177291771 3177291771 -6.14800000
13.96486092 -30.18121529 -3.10433197 4 12 15097 33.40000000 3177291773 3177291773 -5.33300000
37.77155304 -64.30288696 1.73533726 50 13 15097 74.59600000 3177291773 3177291773 1.33300000
38.26186371 -82.73040771 1.06115460 28 14 15098 91.15600000 3177291776 3177291776 0.66700000
19.70299530 -33.55609894 -2.72106051 10 15 15098 39.00800000 3177291776 3177291776 -4.00000000
16.69727135 -31.92535973 -2.94116306 6 16 15099 36.14800000 3177291778 3177291778 -4.66700000
41.55572891 -63.47962570 2.20808792 28 17 15099 75.90400000 3177291778 3177291778 1.66700000
37.11118698 -70.95698547 1.39772832 28 18 15099 80.08800000 3177291780 3177291780 1.00000000
19.86300468 -30.34229279 -2.32421708 14 19 15099 36.34000000 3177291780 3177291780 -3.66700000
19.69095039 -42.61512375 -2.73392940 10 20 15100 47.02400000 3177291783 3177291783 -3.33300000
40.54759216 -69.11169434 4.66647053 42 21 15100 80.26400000 3177291783 3177291783 3.33300000
39.71569824 -76.00142670 3.49366164 28 22 15101 85.82400000 3177291785 3177291785 2.33300000
19.81925011 -33.79460526 -1.82495070 13 23 15101 39.22000000 3177291785 3177291785 -2.66700000
19.71284676 -37.73927689 -2.23139572 21 24 15102 42.63600000 3177291787 3177291787 -3.00000000
60.62554932 -116.11402130 10.69324493 28 26 15103 131.42400000 3177291789 3177291789 4.66700000
38.16641998 -58.39110565 -2.84201956 28 27 15103 69.81600000 3177291789 3177291789 -2.33300000
38.37553787 -83.20478058 -3.19972539 28 28 15104 91.68400000 3177291792 3177291792 -2.00000000
38.14646530 -65.14926910 -1.75673926 24 31 15105 75.51600000 3177291794 3177291794 -1.33300000
2.97260618 -5.71519327 -3.00397062 14 0 15112 7.10800000 3177291815 3177291815 -25.00000000
38.19866180 -58.64136505 -1.22159863 28 1 15112 69.99600000 3177291815 3177291815 -1.00000000
38.00848007 -73.10704041 -2.39799094 28 2 15113 82.43200000 3177291817 3177291817 -1.66700000
5.43858147 -9.31821346 -3.02032232 7 3 15113 11.20400000 3177291817 3177291817 -15.63900000
7.00689316 -13.48309040 -3.03903365 22 4 15114 15.49600000 3177291819 3177291819 -11.31000000
37.88909149 -64.94345093 0.00000000 26 5 15114 75.18800000 3177291819 3177291819 0.00000000
36.91758728 -80.41241455 -1.03009617 29 6 15114 88.48800000 3177291822 3177291822 -0.66700000
9.40698338 -16.12395287 -2.90421891 2 7 15114 18.89200000 3177291822 3177291822 -8.84300000
10.88154888 -20.94787407 -3.00467873 5 8 15115 23.79600000 3177291824 3177291824 -7.25400000
38.50033951 -59.17221069 0.41029787 56 9 15115 70.59600000 3177291824 3177291824 0.33300000
37.24464417 -71.72959137 -0.46974212 28 10 15116 80.82400000 3177291826 3177291826 -0.33300000
13.25323296 -22.73481178 -2.83464479 3 11 15116 26.46800000 3177291826 3177291826 -6.14800000
13.89925957 -30.31666565 -3.11325455 4 12 15117 33.49600000 3177291829 3177291829 -5.33300000
37.93141174 -65.09426880 1.75311029 25 13 15117 75.36000000 3177291829 3177291829 1.33300000
37.83121490 -82.55438995 1.05719662 28 14 15118 90.81600000 3177291831 3177291831 0.66700000
19.68816948 -33.80051804 -2.73529077 10 15 15118 39.21200000 3177291831 3177291831 -4.00000000
16.60408211 -32.01884079 -2.94441748 7 16 15119 36.18800000 3177291833 3177291833 -4.66700000
41.33824539 -63.63100052 2.20832062 28 17 15119 75.91200000 3177291833 3177291833 1.66700000
39.72072220 -76.59631348 1.50607288 28 18 15119 86.29600000 3177291836 3177291836 1.00000000
19.85265350 -30.55872917 -2.33547354 14 19 15119 36.51600000 3177291836 3177291836 -3.66700000
19.65012550 -42.91959763 -2.74904537 10 20 15120 47.28400000 3177291838 3177291838 -3.33300000
40.44670868 -69.49440002 4.68274927 42 21 15120 80.54400000 3177291838 3177291838 3.33300000
39.99991608 -77.20063782 3.54234743 28 22 15121 87.02000000 3177291840 3177291840 2.33300000
19.80966568 -34.05007935 -1.83500135 13 23 15121 39.43600000 3177291840 3177291840 -2.66700000
19.70223618 -38.04196167 -2.24521255 21 24 15122 42.90000000 3177291842 3177291842 -3.00000000
60.19604111 -116.27890778 10.68901348 28 26 15123 131.37200000 3177291845 3177291845 4.66700000
38.15376282 -58.81904221 -2.85634851 28 27 15123 70.16800000 3177291845 3177291845 -2.33300000
38.20948410 -83.61092377 -3.21019530 28 28 15124 91.98400000 3177291847 3177291847 -2.00000000
38.11766434 -65.62435913 -1.76595151 24 31 15125 75.91200000 3177291849 3177291849 -1.33300000
2.93468428 -5.68584681 -2.98368502 14 0 15130 7.06000000 3177291870 3177291870 -25.00000000
38.13807297 -58.95248413 -1.22557783 28 1 15130 70.22400000 3177291870 3177291870 -1.00000000
37.92160797 -73.50324249 -2.40706706 28 2 15131 82.74400000 3177291872 3177291872 -1.66700000
5.41700506 -9.34858418 -3.02463555 6 3 15131 11.22000000 3177291872 3177291872 -15.63900000
6.97528696 -13.52595329 -3.04374027 11 4 15132 15.52000000 3177291875 3177291875 -11.31000000
37.68287659 -65.05870056 0.00000000 26 5 15132 75.18400000 3177291875 3177291875 0.00000000
38.01389694 -83.49110413 -1.06799948 29 6 15132 91.74400000 3177291877 3177291877 -0.66700000
