# .PCD v0.7 - Point Cloud Data file format
VERSION 0.7
FIELDS x y z intensity laser_id azimuth distance_m adjustedtime timestamp vertical_angle
SIZE 4 4 4 1 1 2 8 8 4 8
TYPE F F F U U U F U U F
COUNT 1 1 1 1 1 1 1 1 1 1
WIDTH 522
HEIGHT 1
VIEWPOINT 0 0 0 1 0 0 0
POINTS 522
DATA ascii
16.21707153 22.60172462 -1.45787036 4 24 3426 27.85600000 3183659454 3183659454 -3.00000000
95.23490143 132.67993164 13.33270836 28 26 3427 163.86400000 3183659456 3183659456 4.66700000
15.72617817 27.16184807 -1.27869713 4 27 3427 31.41200000 3183659456 3183659456 -2.33300000
19.60607719 24.66588402 -1.10031128 4 28 3428 31.52800000 3183659458 3183659458 -2.00000000
20.33414841 31.44384003 -0.87134415 4 31 3429 37.45600000 3183659460 3183659460 -1.33300000
3.23926830 4.49797201 -2.58473325 14 0 3436 6.11600000 3183659481 3183659481 -25.00000000
20.72654533 35.66902542 -0.72008628 8 1 3436 41.26000000 3183659481 3183659481 -1.00000000
20.62761688 28.63248253 -1.02701223 6 2 3437 35.30400000 3183659483 3183659483 -1.66700000
4.09180737 6.30805874 -2.10484433 7 3 3437 7.80800000 3183659483 3183659483 -15.63900000
7.02432156 9.74663162 -2.40282893 3 4 3438 12.25200000 3183659486 3183659486 -11.31000000
21.19466591 32.66187668 0.00000000 12 5 3438 38.93600000 3183659486 3183659486 0.00000000
21.02869987 26.35162926 -0.39249077 13 6 3439 33.71600000 3183659488 3183659488 -0.66700000
7.82927322 12.06063175 -2.23704195 1 7 3439 14.55200000 3183659488 3183659488 -8.84300000
9.75555515 13.53138828 -2.12332654 2 8 3439 16.81600000 3183659490 3183659490 -7.25400000
21.30519867 36.62069702 0.24623916 26 9 3439 42.36800000 3183659490 3183659490 0.33300000
21.06982040 29.21402550 -0.20934513 12 10 3440 36.02000000 3183659493 3183659493 -0.33300000
10.00487518 15.40615749 -1.97872508 1 11 3440 18.47600000 3183659493 3183659493 -6.14800000
12.53813362 15.70062733 -1.87561131 2 12 3441 20.18000000 3183659495 3183659495 -5.33300000
40.36856461 62.13839340 1.72426391 25 13 3441 74.12000000 3183659495 3183659495 1.33300000
40.85674286 51.14373016 0.76207185 28 14 3442 65.46400000 3183659497 3183659497 0.66700000
13.08781815 20.13807869 -1.67945683 2 15 3442 24.07600000 3183659497 3183659497 -4.00000000
12.74702740 17.65469742 -1.77765095 2 16 3443 21.84800000 3183659500 3183659500 -4.66700000
40.77608490 69.97602081 2.35703135 28 17 3443 81.02400000 3183659500 3183659500 1.66700000
40.65679932 56.30987549 1.21231401 28 18 3443 69.46400000 3183659502 3183659502 1.00000000
12.82431984 22.00787354 -1.63245225 3 19 3443 25.52400000 3183659502 3183659502 -3.66700000
16.06047440 20.08982658 -1.49789369 4 20 3444 25.76400000 3183659504 3183659504 -3.33300000
40.90104294 62.88592148 4.36879873 36 21 3444 75.14400000 3183659504 3183659504 3.33300000
40.31654739 55.79757309 2.80456877 28 22 3445 68.89600000 3183659507 3183659507 2.33300000
15.70273781 24.13396263 -1.34121311 2 23 3445 28.82400000 3183659507 3183659507 -2.66700000
16.27246857 22.51260376 -1.45577693 4 24 3446 27.81600000 3183659509 3183659509 -3.00000000
42.64407349 58.97546387 5.94123363 28 26 3447 73.02000000 3183659511 3183659511 4.66700000
15.80074787 27.07227135 -1.27706885 4 27 3447 31.37200000 3183659511 3183659511 -2.33300000
19.68955803 24.59417534 -1.10017169 4 28 3448 31.52400000 3183659513 3183659513 -2.00000000
20.41648102 31.34272957 -0.87041366 4 31 3448 37.41600000 3183659516 3183659516 -1.33300000
3.29539680 4.54238987 -2.61685228 13 0 3456 6.19200000 3183659536 3183659536 -25.00000000
20.83879852 35.57575226 -0.71966743 8 1 3456 41.23600000 3183659536 3183659536 -1.00000000
20.70630074 28.53118134 -1.02596498 6 2 3457 35.26800000 3183659539 3183659539 -1.66700000
3.99156761 6.10673094 -2.04230285 15 3 3457 7.57600000 3183659539 3183659539 -15.63900000
7.05138779 9.71253014 -2.40047574 3 4 3458 12.24000000 3183659541 3183659541 -11.31000000
21.19252586 32.41025925 0.00000000 12 5 3458 38.72400000 3183659541 3183659541 0.00000000
21.01826859 26.16014862 -0.39067474 13 6 3458 33.56000000 3183659543 3183659543 -0.66700000
7.85624647 12.01475430 -2.23335242 2 7 3458 14.52800000 3183659543 3183659543 -8.84300000
9.79806614 13.49083138 -2.12231636 2 8 3459 16.80800000 3183659546 3183659546 -7.25400000
21.17793655 36.11135864 0.24330996 17 9 3459 41.86400000 3183659546 3183659546 0.33300000
21.06351662 28.99144363 -0.20827574 12 10 3460 35.83600000 3183659548 3183659548 -0.33300000
10.05641460 15.36781216 -1.97829664 3 11 3460 18.47200000 3183659548 3183659548 -6.14800000
12.58786964 15.65055847 -1.87486780 2 12 3461 20.17200000 3183659550 3183659550 -5.33300000
40.27639771 61.52535248 1.71114349 24 13 3461 73.55600000 3183659550 3183659550 1.33300000
40.92720032 50.86680222 0.76006961 28 14 3462 65.29200000 3183659553 3183659553 0.66700000
13.16896343 20.10896111 -1.68085194 2 15 3462 24.09600000 3183659553 3183659553 -4.00000000
12.80857563 17.61009407 -1.77765095 2 16 3463 21.84800000 3183659555 3183659555 -4.66700000
40.92289352 69.66777802 2.35144615 28 17 3463 80.83200000 3183659555 3183659555 1.66700000
40.40378952 55.54985428 1.19898033 28 18 3463 68.70000000 3183659557 3183659557 1.00000000
12.86264896 21.89757729 -1.62759149 3 19 3463 25.44800000 3183659557 3183659557 -3.66700000
16.13551140 20.03986359 -1.49835885 4 20 3464 25.77200000 3183659560 3183659560 -3.33300000
40.62999725 61.99463654 4.31670618 35 21 3464 74.24800000 3183659560 3183659560 3.33300000
40.34643173 55.43030930 2.79317069 28 22 3465 68.61600000 3183659562 3183659562 2.33300000
15.73868847 24.00548935 -1.33711839 2 23 3465 28.73600000 3183659562 3183659562 -2.66700000
16.35095215 22.45566559 -1.45577693 4 24 3466 27.81600000 3183659564 3183659564 -3.00000000
42.53279114 58.39121246 5.89729691 28 26 3467 72.48000000 3183659566 3183659566 4.66700000
15.84853840 26.93772125 -1.27332377 4 27 3467 31.28000000 3183659566 3183659566 -2.33300000
19.70252037 24.43504906 -1.09612334 4 28 3468 31.40800000 3183659569 3183659569 -2.00000000
20.53780556 31.27771759 -0.87069279 4 31 3469 37.42800000 3183659571 3183659571 -1.33300000
3.35829163 4.59525156 -2.65404272 12 0 3476 6.28000000 3183659592 3183659592 -25.00000000
20.89371681 35.38570404 -0.71729392 8 1 3476 41.10000000 3183659592 3183659592 -1.00000000
20.79160881 28.43936348 -1.02526677 6 2 3477 35.24400000 3183659594 3183659594 -1.66700000
4.00226593 6.07667637 -2.03691149 15 3 3477 7.55600000 3183659594 3183659594 -15.63900000
7.08293247 9.68469143 -2.39969110 3 4 3478 12.23600000 3183659596 3183659596 -11.31000000
21.19329071 32.16574097 0.00000000 12 5 3478 38.52000000 3183659596 3183659596 0.00000000
21.01887894 25.97468758 -0.38899845 13 6 3478 33.41600000 3183659599 3183659599 -0.66700000
7.89596319 11.98395729 -2.23273754 1 7 3478 14.52400000 3183659599 3183659599 -8.84300000
9.83806896 13.44694042 -2.12080097 2 8 3479 16.79600000 3183659601 3183659601 -7.25400000
21.18580055 35.83750534 0.24196158 17 9 3479 41.63200000 3183659601 3183659601 0.33300000
21.06536674 28.78217506 -0.20729934 12 10 3480 35.66800000 3183659603 3183659603 -0.33300000
10.10780811 15.32929516 -1.97786832 3 11 3480 18.46800000 3183659603 3183659603 -6.14800000
12.64994526 15.61580753 -1.87598312 2 12 3481 20.18400000 3183659606 3183659606 -5.33300000
40.53495407 61.45114517 1.71300459 24 13 3481 73.63600000 3183659606 3183659606 1.33300000
40.99119186 50.58379364 0.75797421 28 14 3482 65.11200000 3183659608 3183659608 0.66700000
13.21490192 20.02623558 -1.67778265 2 15 3482 24.05200000 3183659608 3183659608 -4.00000000
12.86761284 17.56206131 -1.77732551 2 16 3483 21.84400000 3183659610 3183659610 -4.66700000
40.21653748 67.92126465 2.29722118 28 17 3483 78.96800000 3183659610 3183659610 1.66700000
40.08214951 54.70518875 1.18376184 28 18 3483 67.82800000 3183659613 3183659613 1.00000000
12.92477131 21.82850075 -1.62580061 3 19 3483 25.42000000 3183659613 3183659613 -3.66700000
16.18021393 19.95240211 -1.49603331 4 20 3484 25.73200000 3183659615 3183659615 -3.33300000
40.62389755 61.51588058 4.29321766 34 21 3484 73.84400000 3183659615 3183659615 3.33300000
40.30570602 54.97005081 2.77705073 28 22 3485 68.22000000 3183659617 3183659617 2.33300000
15.80476761 23.92373276 -1.33562934 2 23 3485 28.70400000 3183659617 3183659617 -2.66700000
16.42214966 22.38879013 -1.45514894 4 24 3486 27.80400000 3183659619 3183659619 -3.00000000
42.76465988 58.28096390 5.90120268 28 26 3487 72.52800000 3183659622 3183659622 4.66700000
15.91393089 26.83411026 -1.27104414 4 27 3487 31.22400000 3183659622 3183659622 -2.33300000
19.78265381 24.35992050 -1.09584415 4 28 3488 31.40000000 3183659624 3183659624 -2.00000000
20.63362122 31.18582535 -0.87013447 4 31 3489 37.40400000 3183659626 3183659626 -1.33300000
3.34852052 4.54846764 -2.63375711 15 0 3496 6.23200000 3183659647 3183659647 -25.00000000
20.99460793 35.27475357 -0.71652597 8 1 3496 41.05600000 3183659647 3183659647 -1.00000000
20.86467361 28.33119965 -1.02398682 6 2 3497 35.20000000 3183659649 3183659649 -1.66700000
5.13102102 7.73158741 -2.59762812 5 3 3497 9.63600000 3183659649 3183659649 -15.63900000
7.11204243 9.65359211 -2.39812231 4 4 3498 12.22800000 3183659652 3183659652 -11.31000000
21.18375969 31.90827942 0.00000000 18 5 3498 38.30000000 3183659652 3183659652 0.00000000
21.02098083 25.79264450 -0.38736868 13 6 3498 33.27600000 3183659654 3183659654 -0.66700000
7.93556070 11.95302868 -2.23212266 1 7 3498 14.52000000 3183659654 3183659654 -8.84300000
9.88259411 13.40932369 -2.12029600 2 8 3499 16.79200000 3183659656 3183659656 -7.25400000
21.20429420 35.58465576 0.24075271 17 9 3499 41.42400000 3183659656 3183659656 0.33300000
21.05652046 28.56036949 -0.20622994 12 10 3500 35.48400000 3183659659 3183659659 -0.33300000
10.15685368 15.28729343 -1.97701156 1 11 3500 18.46000000 3183659659 3183659659 -6.14800000
12.68171787 15.54378223 -1.87263703 2 12 3501 20.14800000 3183659661 3183659661 -5.33300000
40.70715714 61.24600220 1.71123660 24 13 3501 73.56000000 3183659661 3183659661 1.33300000
40.98542404 50.21729279 0.75462157 28 14 3502 64.82400000 3183659663 3183659663 0.66700000
13.29577255 19.99659920 -1.67917788 2 15 3502 24.07200000 3183659663 3183659663 -4.00000000
12.91699982 17.50099945 -1.77569830 2 16 3503 21.82400000 3183659666 3183659666 -4.66700000
40.74435425 68.26799774 2.31374478 28 17 3503 79.53600000 3183659666 3183659666 1.66700000
40.36786270 54.69365692 1.18655419 28 18 3503 67.98800000 3183659668 3183659668 1.00000000
12.99065971 21.76611328 -1.62452149 3 19 3503 25.40000000 3183659668 3183659668 -3.66700000
16.10325432 19.71642113 -1.48254502 4 20 3504 25.50000000 3183659670 3183659670 -3.33300000
40.65698242 61.10109329 4.27414846 34 21 3504 73.51600000 3183659670 3183659670 3.33300000
40.05805969 54.23427582 2.74692726 28 22 3505 67.48000000 3183659672 3183659672 2.33300000
15.88596630 23.86509323 -1.33544326 2 23 3505 28.70000000 3183659672 3183659672 -2.66700000
16.43848228 22.24780083 -1.44970596 4 24 3506 27.70000000 3183659675 3183659675 -3.00000000
43.37779999 58.68597031 5.95750666 28 26 3507 73.22000000 3183659677 3183659677 4.66700000
16.02185631 26.80241013 -1.27218390 4 27 3507 31.25200000 3183659677 3183659677 -2.33300000
19.84225655 24.25977325 -1.09444821 4 28 3508 31.36000000 3183659679 3183659679 -2.00000000
20.66028214 30.99050140 -0.86669153 4 31 3509 37.25600000 3183659682 3183659682 -1.33300000
3.38437748 4.56705189 -2.65066171 14 0 3514 6.27200000 3183659702 3183659702 -25.00000000
21.03335571 35.08856201 -0.71408266 8 1 3514 40.91600000 3183659702 3183659702 -1.00000000
20.89880943 28.19163513 -1.02131045 6 2 3515 35.10800000 3183659705 3183659705 -1.66700000
5.14458513 7.69941616 -2.59223676 4 3 3515 9.61600000 3183659705 3183659705 -15.63900000
7.13532543 9.62174988 -2.39576888 4 4 3516 12.21600000 3183659707 3183659707 -11.31000000
21.17275429 31.67529678 0.00000000 18 5 3516 38.10000000 3183659707 3183659707 0.00000000
21.01058960 25.61514854 -0.38569236 13 6 3516 33.13200000 3183659709 3183659709 -0.66700000
7.96428728 11.91489601 -2.22966290 1 7 3516 14.50400000 3183659709 3183659709 -8.84300000
9.92467117 13.37821007 -2.12029600 2 8 3517 16.79200000 3183659712 3183659712 -7.25400000
21.28304863 35.46298981 0.24038075 8 9 3517 41.36000000 3183659712 3183659712 0.33300000
21.05555916 28.37201881 -0.20534654 12 10 3518 35.33200000 3183659714 3183659714 -0.33300000
10.21146393 15.26522636 -1.97829664 1 11 3518 18.47200000 3183659714 3183659714 -6.14800000
12.72795963 15.50078678 -1.87226534 2 12 3519 20.14400000 3183659716 3183659716 -5.33300000
40.68363571 60.79544067 1.70221055 24 13 3519 73.17200000 3183659716 3183659716 1.33300000
40.83071518 49.70812607 0.74889416 28 14 3520 64.33200000 3183659718 3183659718 0.66700000
13.34520912 19.93483543 -1.67750371 2 15 3520 24.04800000 3183659718 3183659718 -4.00000000
12.97191715 17.46033287 -1.77569830 2 16 3521 21.82400000 3183659721 3183659721 -4.66700000
39.98224258 66.51532745 2.25858903 28 17 3521 77.64000000 3183659721 3183659721 1.66700000
40.43215942 54.42210007 1.18341279 28 18 3521 67.80800000 3183659723 3183659723 1.00000000
13.04663658 21.70466805 -1.62298656 3 19 3521 25.37600000 3183659723 3183659723 -3.66700000
16.24879456 19.76753235 -1.49021935 4 20 3522 25.63200000 3183659725 3183659725 -3.33300000
40.73538589 60.80387115 4.26228809 33 21 3522 73.31200000 3183659725 3183659725 3.33300000
40.16624451 54.02477264 2.74269366 28 22 3523 67.37600000 3183659728 3183659728 2.33300000
15.94751549 23.79515266 -1.33432651 2 23 3523 28.67600000 3183659728 3183659728 -2.66700000
16.48445702 22.16399574 -1.44761252 4 24 3524 27.66000000 3183659730 3183659730 -3.00000000
43.00984192 57.80734253 5.88200045 28 26 3525 72.29200000 3183659732 3183659732 4.66700000
16.08536530 26.71770287 -1.27055562 4 27 3525 31.21200000 3183659732 3183659732 -2.33300000
19.91329193 24.19114494 -1.09416902 4 28 3526 31.35200000 3183659735 3183659735 -2.00000000
20.74639511 30.90884018 -0.86622632 4 31 3527 37.23600000 3183659737 3183659737 -1.33300000
3.33819103 4.47037983 -2.60163808 15 0 3535 6.15600000 3183659758 3183659758 -25.00000000
21.14319992 34.98043060 -0.71345437 8 1 3535 40.88000000 3183659758 3183659758 -1.00000000
20.99242592 28.10203552 -1.02084506 6 2 3536 35.09200000 3183659760 3183659760 -1.66700000
5.17492247 7.68370342 -2.59331489 5 3 3536 9.62000000 3183659760 3183659760 -15.63900000
7.16584730 9.58924961 -2.39419985 3 4 3537 12.20800000 3183659762 3183659762 -11.31000000
21.17248726 31.42498207 0.00000000 11 5 3537 37.89200000 3183659762 3183659762 0.00000000
21.01260757 25.42697334 -0.38401604 13 6 3537 32.98800000 3183659765 3183659765 -0.66700000
8.01011276 11.88890362 -2.23027778 1 7 3537 14.50800000 3183659765 3183659765 -8.84300000
9.97126293 13.33856678 -2.11979103 2 8 3538 16.78800000 3183659767 3183659767 -7.25400000
21.43359375 35.41896439 0.24061322 8 9 3538 41.40000000 3183659767 3183659767 0.33300000
21.05400467 28.15371132 -0.20432363 12 10 3539 35.15600000 3183659769 3183659769 -0.33300000
10.25178146 15.20461464 -1.97529793 1 11 3539 18.44400000 3183659769 3183659769 -6.14800000
12.79484177 15.46630764 -1.87375247 2 12 3540 20.16000000 3183659771 3183659771 -5.33300000
40.79885483 60.48678970 1.69774401 24 13 3540 72.98000000 3183659771 3183659771 1.33300000
40.83922577 49.34860611 0.74572778 28 14 3541 64.06000000 3183659774 3183659774 0.66700000
13.41595268 19.88248062 -1.67722464 2 15 3541 24.04400000 3183659774 3183659774 -4.00000000
13.00476456 17.37118340 -1.77146733 2 16 3542 21.77200000 3183659776 3183659776 -4.66700000
40.23612595 66.38543701 2.25917077 28 17 3542 77.66000000 3183659776 3183659776 1.66700000
40.09685516 53.55958557 1.16784525 28 18 3542 66.91600000 3183659778 3183659778 1.00000000
13.11161709 21.63280678 -1.62119567 3 19 3542 25.34800000 3183659778 3183659778 -3.66700000
16.32623100 19.71399689 -1.49068451 4 20 3543 25.64000000 3183659781 3183659781 -3.33300000
40.63840485 60.18091965 4.22903252 33 21 3543 72.74000000 3183659781 3183659781 3.33300000
40.28011322 53.76523972 2.73699474 28 22 3544 67.23600000 3183659783 3183659783 2.33300000
16.01001930 23.70012093 -1.33227909 2 23 3544 28.63200000 3183659783 3183659783 -2.66700000
16.57037163 22.10982132 -1.44803119 4 24 3545 27.66800000 3183659785 3183659785 -3.00000000
43.09228897 57.47706604 5.86442566 28 26 3546 72.07600000 3183659788 3183659788 4.66700000
16.17488670 26.64490128 -1.26990438 4 27 3546 31.19600000 3183659788 3183659788 -2.33300000
19.98651123 24.09953499 -1.09333146 4 28 3547 31.32800000 3183659790 3183659790 -2.00000000
20.82503891 30.79317093 -0.86501658 4 31 3547 37.18400000 3183659792 3183659792 -1.33300000
3.36467123 4.47318602 -2.61009049 19 0 3555 6.17600000 3183659813 3183659813 -25.00000000
21.23812675 34.86201096 -0.71254683 8 1 3555 40.82800000 3183659813 3183659813 -1.00000000
21.03750420 27.95829964 -1.01828504 13 2 3556 35.00400000 3183659815 3183659815 -1.66700000
5.19522333 7.65603065 -2.59008002 6 3 3556 9.60800000 3183659815 3183659815 -15.63900000
7.19927645 9.56417751 -2.39419985 3 4 3557 12.20800000 3183659818 3183659818 -11.31000000
21.16747475 31.18210030 0.00000000 17 5 3557 37.68800000 3183659818 3183659818 0.00000000
21.01352882 25.23913002 -0.38233975 13 6 3558 32.84400000 3183659820 3183659820 -0.66700000
8.04031086 11.83984661 -2.22658849 2 7 3558 14.48400000 3183659820 3183659820 -8.84300000
10.01060104 13.29416943 -2.11827564 2 8 3558 16.77600000 3183659822 3183659822 -7.25400000
21.48836517 35.23124313 0.23984605 8 9 3558 41.26800000 3183659822 3183659822 0.33300000
21.05588531 27.95225143 -0.20339373 11 10 3559 34.99600000 3183659824 3183659824 -0.33300000
10.30255795 15.16544724 -1.97486961 1 11 3559 18.44000000 3183659824 3183659824 -6.14800000
12.82325840 15.39095211 -1.87003469 2 12 3560 20.12000000 3183659827 3183659827 -5.33300000
40.53997040 59.65275192 1.67829597 24 13 3560 72.14400000 3183659827 3183659827 1.33300000
40.97538757 49.16273499 0.74507588 28 14 3561 64.00400000 3183659829 3183659829 0.66700000
13.48078728 19.82892990 -1.67666662 2 15 3561 24.03600000 3183659829 3183659829 -4.00000000
13.06772232 17.32886505 -1.77179277 2 16 3562 21.77600000 3183659831 3183659831 -4.66700000
40.26751328 65.91702271 2.24800014 28 17 3562 77.27600000 3183659831 3183659831 1.66700000
40.29529953 53.41545868 1.16791499 28 18 3563 66.92000000 3183659834 3183659834 1.00000000
13.19289875 21.58801079 -1.62145150 3 19 3563 25.35200000 3183659834 3183659834 -3.66700000
16.38727188 19.64768791 -1.48998678 4 20 3563 25.62800000 3183659836 3183659836 -3.33300000
40.72019196 59.85050964 4.21577692 32 21 3563 72.51200000 3183659836 3183659836 3.33300000
40.16660690 53.22553253 2.71664119 28 22 3564 66.73600000 3183659838 3183659838 2.33300000
16.08815384 23.63748550 -1.33190691 2 23 3564 28.62400000 3183659838 3183659838 -2.66700000
16.62578773 22.02315331 -1.44614708 4 24 3565 27.63200000 3183659841 3183659841 -3.00000000
43.18934631 57.18949509 5.85043097 28 26 3566 71.90400000 3183659843 3183659843 4.66700000
16.19687653 26.47236633 -1.26436818 4 27 3566 31.06000000 3183659843 3183659843 -2.33300000
20.05257416 24.00814438 -1.09235430 4 28 3567 31.30000000 3183659845 3183659845 -2.00000000
20.86259460 30.61784554 -0.86213195 4 31 3567 37.06000000 3183659848 3183659848 -1.33300000
3.39856195 4.48393679 -2.62361407 13 0 3576 6.20800000 3183659868 3183659868 -25.00000000
21.19411278 34.50448990 -0.70682245 8 1 3576 40.50000000 3183659868 3183659868 -1.00000000
20.98281479 27.67391396 -1.01072156 13 2 3577 34.74400000 3183659871 3183659871 -1.66700000
5.22324896 7.63693762 -2.59008002 6 3 3577 9.60800000 3183659871 3183659871 -15.63900000
7.23191214 9.53460121 -2.39341545 3 4 3578 12.20400000 3183659873 3183659873 -11.31000000
21.17094231 30.94254684 0.00000000 17 5 3578 37.49200000 3183659873 3183659873 0.00000000
21.01592827 25.05468750 -0.38070998 19 6 3579 32.70400000 3183659875 3183659875 -0.66700000
8.08365250 11.81029797 -2.22658849 2 7 3579 14.48400000 3183659875 3183659875 -8.84300000
10.05446243 13.25106716 -2.11726546 4 8 3579 16.76800000 3183659877 3183659877 -7.25400000
21.49163055 34.94781494 0.23845120 8 9 3579 41.02800000 3183659877 3183659877 0.33300000
21.05420303 27.73789024 -0.20239408 11 10 3580 34.82400000 3183659880 3183659880 -0.33300000
10.34683895 15.11117744 -1.97272766 1 11 3580 18.42000000 3183659880 3183659880 -6.14800000
12.88470364 15.34995079 -1.87077820 2 12 3581 20.12800000 3183659882 3183659882 -5.33300000
40.22501373 58.72516251 1.65633559 23 13 3581 71.20000000 3183659882 3183659882 1.33300000
40.92381668 48.73654556 0.74088508 28 14 3582 63.64400000 3183659884 3183659884 0.66700000
13.54209518 19.76292992 -1.67527151 2 15 3582 24.01600000 3183659884 3183659884 -4.00000000
13.11426353 17.25863266 -1.76951456 2 16 3583 21.74800000 3183659887 3183659887 -4.66700000
40.11043930 65.12216187 2.22589135 28 17 3583 76.51600000 3183659887 3183659887 1.66700000
40.10403824 52.77771378 1.15702474 28 18 3583 66.29600000 3183659889 3183659889 1.00000000
13.24933338 21.51123810 -1.61914909 3 19 3583 25.31600000 3183659889 3183659889 -3.66700000
16.46945000 19.59972191 -1.49091709 4 20 3584 25.64400000 3183659891 3183659891 -3.33300000
40.78797150 59.48020935 4.20019531 32 21 3584 72.24400000 3183659891 3183659891 3.33300000
40.17272186 52.82981110 2.70394039 28 22 3585 66.42400000 3183659894 3183659894 2.33300000
16.16790009 23.56847572 -1.33134854 2 23 3585 28.61200000 3183659894 3183659894 -2.66700000
16.69430351 21.94617271 -1.44510043 4 24 3586 27.61200000 3183659896 3183659896 -3.00000000
44.17605591 58.05239105 5.95522833 28 26 3587 73.19200000 3183659898 3183659898 4.66700000
16.27490807 26.38220978 -1.26290262 4 27 3587 31.02400000 3183659898 3183659898 -2.33300000
20.07351494 23.85495949 -1.08872473 4 28 3588 31.19600000 3183659901 3183659901 -2.00000000
20.96562004 30.52798843 -0.86175978 4 31 3588 37.04400000 3183659903 3183659903 -1.33300000
3.43399191 4.49797964 -2.63882852 19 0 3596 6.24400000 3183659923 3183659923 -25.00000000
21.19232941 34.23307037 -0.70277351 17 1 3596 40.26800000 3183659923 3183659923 -1.00000000
20.98464012 27.47657585 -1.00618339 12 2 3597 34.58800000 3183659925 3183659925 -1.66700000
5.24550390 7.61231518 -2.58792353 6 3 3597 9.60000000 3183659925 3183659925 -15.63900000
7.26276875 9.50618267 -2.39263105 3 4 3598 12.20000000 3183659928 3183659928 -11.31000000
21.16985321 30.71037865 0.00000000 17 5 3598 37.30000000 3183659928 3183659928 0.00000000
21.00857735 24.87790298 -0.37908024 19 6 3598 32.56400000 3183659930 3183659930 -0.66700000
8.11828518 11.77691746 -2.22535849 1 7 3598 14.47600000 3183659930 3183659930 -8.84300000
10.01150513 13.09924221 -2.09857798 2 8 3599 16.62000000 3183659932 3183659932 -7.25400000
21.49338150 34.67878723 0.23712608 8 9 3599 40.80000000 3183659932 3183659932 0.33300000
21.06100845 27.54665565 -0.20153391 11 10 3600 34.67600000 3183659935 3183659935 -0.33300000
10.39726543 15.07169437 -1.97229922 1 11 3600 18.41600000 3183659935 3183659935 -6.14800000
12.89192486 15.25013351 -1.86408627 2 12 3601 20.05600000 3183659937 3183659937 -5.33300000
40.43430328 58.59097672 1.65652168 23 13 3601 71.20800000 3183659937 3183659937 1.33300000
40.73210907 48.16582870 0.73436612 28 14 3602 63.08400000 3183659939 3183659939 0.66700000
13.54525566 19.62030983 -1.66717970 2 15 3602 23.90000000 3183659939 3183659939 -4.00000000
13.19381237 17.23807716 -1.77211821 2 16 3603 21.78000000 3183659941 3183659941 -4.66700000
40.18357849 64.73377228 2.21739697 28 17 3603 76.22400000 3183659941 3183659941 1.66700000
40.22725296 52.55800629 1.15527952 28 18 3603 66.19600000 3183659944 3183659944 1.00000000
13.32223511 21.46146774 -1.61889327 3 19 3603 25.31200000 3183659944 3183659944 -3.66700000
16.50938988 19.50858307 -1.48835897 4 20 3604 25.60000000 3183659946 3183659946 -3.33300000
40.83419037 59.10420609 4.18368387 32 21 3604 71.96000000 3183659946 3183659946 3.33300000
40.10657120 52.36244965 2.68716908 28 22 3605 66.01200000 3183659948 3183659948 2.33300000
16.19100571 23.42643356 -1.32650924 2 23 3605 28.50800000 3183659948 3183659948 -2.66700000
16.70278168 21.79898262 -1.43923879 4 24 3606 27.50000000 3183659951 3183659951 -3.00000000
44.33962250 57.84720993 5.95002127 28 26 3607 73.12800000 3183659953 3183659953 4.66700000
16.37323189 26.33542252 -1.26339114 4 27 3607 31.03600000 3183659953 3183659953 -2.33300000
20.13081551 23.75424767 -1.08732867 4 28 3608 31.15600000 3183659955 3183659955 -2.00000000
21.06067657 30.43817711 -0.86129451 4 31 3608 37.02400000 3183659958 3183659958 -1.33300000
3.46514130 4.50608158 -2.65066171 14 0 3616 6.27200000 3183659978 3183659978 -25.00000000
21.19314575 33.96886826 -0.69886416 17 1 3616 40.04400000 3183659978 3183659978 -1.00000000
20.97803307 27.27005577 -1.00129616 12 2 3617 34.42000000 3183659981 3183659981 -1.66700000
5.26545382 7.58446598 -2.58468866 6 3 3617 9.58800000 3183659981 3183659981 -15.63900000
7.29351521 9.47766399 -2.39184642 3 4 3618 12.19600000 3183659983 3183659983 -11.31000000
21.16740227 30.47859573 0.00000000 11 5 3618 37.10800000 3183659983 3183659983 0.00000000
21.01236916 24.70691872 -0.37759018 19 6 3618 32.43600000 3183659985 3183659985 -0.66700000
8.15483570 11.74201488 -2.22412872 1 7 3618 14.46800000 3183659985 3183659985 -8.84300000
10.05474854 13.06107140 -2.09807277 2 8 3619 16.61600000 3183659988 3183659988 -7.25400000
35.36269379 56.61412430 0.38795686 28 9 3619 66.75200000 3183659988 3183659988 0.33300000
21.05209351 27.33670044 -0.20053427 11 10 3620 34.50400000 3183659990 3183659990 -0.33300000
10.43392372 15.01244926 -1.96930051 3 11 3620 18.38800000 3183659990 3183659990 -6.14800000
12.91668034 15.17168236 -1.85999668 2 12 3621 20.01200000 3183659992 3183659992 -5.33300000
40.56781006 58.34769440 1.65363705 23 13 3621 71.08400000 3183659992 3183659992 1.33300000
40.71067429 47.80106354 0.73096687 28 14 3622 62.79200000 3183659994 3183659994 0.66700000
13.60682583 19.56308174 -1.66634262 2 15 3622 23.88800000 3183659994 3183659994 -4.00000000
13.24660206 17.18244553 -1.77114189 2 16 3623 21.76800000 3183659997 3183659997 -4.66700000
40.24177551 64.32533264 2.20820427 28 17 3623 75.90800000 3183659997 3183659997 1.66700000
40.22732925 52.17971039 1.15004373 28 18 3623 65.89600000 3183659999 3183659999 1.00000000
13.36107826 21.35730362 -1.61454415 3 19 3623 25.24400000 3183659999 3183659999 -3.66700000
16.57738686 19.45083618 -1.48835897 4 20 3624 25.60000000 3183660001 3183660001 -3.33300000
40.77334213 58.57784653 4.15647507 31 21 3624 71.49200000 3183660001 3183660001 3.33300000
40.21098328 52.12087250 2.68195844 28 22 3625 65.88400000 3183660004 3183660004 2.33300000
16.26811409 23.36321640 -1.32613707 2 23 3625 28.50000000 3183660004 3183660004 -2.66700000
16.78121376 21.74370956 -1.43944812 4 24 3626 27.50400000 3183660006 3183660006 -3.00000000
43.75677109 56.67595291 5.84522390 28 26 3627 71.84000000 3183660008 3183660008 4.66700000
16.45232582 26.25778770 -1.26241422 4 27 3627 31.01200000 3183660008 3183660008 -2.33300000
20.23437309 23.70815849 -1.08844554 4 28 3628 31.18800000 3183660011 3183660011 -2.00000000
21.15079117 30.34151268 -0.86064315 14 31 3628 36.99600000 3183660013 3183660013 -1.33300000
3.48149943 4.49804020 -2.65235209 21 0 3634 6.27600000 3183660034 3183660034 -25.00000000
21.05933380 33.51944733 -0.69097567 16 1 3634 39.59200000 3183660034 3183660034 -1.00000000
20.96568680 27.07756042 -0.99664170 18 2 3635 34.26000000 3183660036 3183660036 -1.66700000
5.28704834 7.56472969 -2.58361030 7 3 3635 9.58400000 3183660036 3183660036 -15.63900000
7.31604862 9.44540119 -2.38949299 3 4 3636 12.18400000 3183660038 3183660038 -11.31000000
21.15303040 30.25459099 0.00000000 11 5 3636 36.91600000 3183660038 3183660038 0.00000000
21.00405884 24.54050827 -0.37605354 18 6 3636 32.30400000 3183660041 3183660041 -0.66700000
8.18488979 11.70662022 -2.22228408 2 7 3636 14.45600000 3183660041 3183660041 -8.84300000
10.08843994 13.02000904 -2.09655762 2 8 3637 16.60400000 3183660043 3183660043 -7.25400000
35.33166504 56.17093658 0.38567859 28 9 3637 66.36000000 3183660043 3183660043 0.33300000
21.04230118 27.14713287 -0.19962761 11 10 3638 34.34800000 3183660045 3183660045 -0.33300000
10.47875500 14.97633743 -1.96887219 3 11 3638 18.38400000 3183660045 3183660045 -6.14800000
12.97205353 15.14010143 -1.86111200 2 12 3639 20.02400000 3183660047 3183660047 -5.33300000
40.73485947 58.19702530 1.65298569 23 13 3639 71.05600000 3183660047 3183660047 1.33300000
40.65501404 47.43302155 0.72728831 28 14 3640 62.47600000 3183660050 3183660050 0.66700000
13.65906239 19.50716400 -1.66522658 2 15 3640 23.87200000 3183660050 3183660050 -4.00000000
13.29074097 17.12814522 -1.76984000 2 16 3641 21.75200000 3183660052 3183660052 -4.66700000
40.20070267 63.81293106 2.19493890 28 17 3641 75.45200000 3183660052 3183660052 1.66700000
40.24073792 51.84067154 1.14550614 28 18 3642 65.63600000 3183660054 3183660054 1.00000000
13.42331505 21.29936981 -1.61352086 3 19 3642 25.22800000 3183660054 3183660054 -3.66700000
16.63841248 19.39866066 -1.48835897 4 20 3642 25.60000000 3183660057 3183660057 -3.33300000
40.69822311 58.07992554 4.13019609 61 21 3642 71.04000000 3183660057 3183660057 3.33300000
40.25686646 51.84276581 2.67414260 28 22 3643 65.69200000 3183660059 3183660059 2.33300000
16.32308197 23.28581810 -1.32464802 2 23 3643 28.46800000 3183660059 3183660059 -2.66700000
16.83963776 21.67826462 -1.43861079 4 24 3644 27.48800000 3183660061 3183660061 -3.00000000
44.39205551 57.12688828 5.90608454 28 26 3645 72.58800000 3183660064 3183660064 4.66700000
16.51767540 26.17893028 -1.26111150 4 27 3645 30.98000000 3183660064 3183660064 -2.33300000
20.27489281 23.60505104 -1.08663070 4 28 3646 31.13600000 3183660066 3183660066 -2.00000000
21.03467178 29.97377014 -0.85208231 9 31 3646 36.62800000 3183660068 3183660068 -1.33300000
3.46006203 4.43665218 -2.62361407 14 0 3655 6.20800000 3183660089 3183660089 -25.00000000
21.08146667 33.28324127 -0.68769461 16 1 3655 39.40400000 3183660089 3183660089 -1.00000000
20.95657730 26.86182785 -0.99152178 12 2 3656 34.08400000 3183660091 3183660091 -1.66700000
5.31473923 7.54530048 -2.58361030 6 3 3656 9.58400000 3183660091 3183660091 -15.63900000
7.37233734 9.44635201 -2.39655328 3 4 3657 12.22000000 3183660093 3183660093 -11.31000000
21.15318489 30.01990891 0.00000000 16 5 3657 36.72400000 3183660093 3183660093 0.00000000
21.00669670 24.35367393 -0.37442380 12 6 3658 32.16400000 3183660096 3183660096 -0.66700000
8.22750282 11.67187595 -2.22166920 2 7 3658 14.45200000 3183660096 3183660096 -8.84300000
10.12632561 12.97043514 -2.09453726 2 8 3658 16.58800000 3183660098 3183660098 -7.25400000
35.31024551 55.68299484 0.38321435 28 9 3658 65.93600000 3183660098 3183660098 0.33300000
21.04563904 26.94688225 -0.19872095 11 10 3659 34.19200000 3183660100 3183660100 -0.33300000
10.53128433 14.93457985 -1.96844375 3 11 3659 18.38000000 3183660100 3183660100 -6.14800000
13.01704788 15.08039570 -1.85962486 2 12 3660 20.00800000 3183660103 3183660103 -5.33300000
40.90409470 57.98524857 1.65121770 23 13 3660 70.98000000 3183660103 3183660103 1.33300000
40.51490784 46.92041397 0.72170061 28 14 3661 61.99600000 3183660105 3183660105 0.66700000
13.72816753 19.45370865 -1.66494751 2 15 3661 23.86800000 3183660105 3183660105 -4.00000000
13.34851837 17.07303619 -1.76918912 2 16 3662 21.74400000 3183660107 3183660107 -4.66700000
40.10206223 63.14201355 2.17690277 28 17 3662 74.83200000 3183660107 3183660107 1.66700000
40.32291794 51.57386017 1.14271379 28 18 3662 65.47600000 3183660110 3183660110 1.00000000
13.48474121 21.23216629 -1.61198580 3 19 3662 25.20400000 3183660110 3183660110 -3.66700000
16.69112396 19.31639671 -1.48673105 4 20 3663 25.57200000 3183660112 3183660112 -3.33300000
40.75188065 57.70530319 4.11414957 30 21 3663 70.76400000 3183660112 3183660112 3.33300000
40.32100677 51.53433609 2.66583848 28 22 3664 65.48800000 3183660114 3183660114 2.33300000
16.39218140 23.20298958 -1.32334518 2 23 3664 28.44000000 3183660114 3183660114 -2.66700000
16.89682198 21.58808708 -1.43672669 4 24 3665 27.45200000 3183660117 3183660117 -3.00000000
44.57410431 56.92926788 5.90250444 28 26 3666 72.54400000 3183660119 3183660119 4.66700000
16.55345345 26.02379036 -1.25655234 4 27 3666 30.86800000 3183660119 3183660119 -2.33300000
20.36127281 23.53058243 -1.08663070 4 28 3667 31.13600000 3183660121 3183660121 -2.00000000
21.05029297 29.75240898 -0.84808105 9 31 3668 36.45600000 3183660123 3183660123 -1.33300000
3.44193697 4.38178444 -2.59825706 14 0 3675 6.14800000 3183660144 3183660144 -25.00000000
21.09207916 33.04426193 -0.68427396 16 1 3675 39.20800000 3183660144 3183660144 -1.00000000
20.95881081 26.67219162 -0.98721635 12 2 3676 33.93600000 3183660146 3183660146 -1.66700000
5.34104490 7.52670288 -2.58361030 7 3 3676 9.58400000 3183660146 3183660146 -15.63900000
7.42465830 9.44522953 -2.40282893 3 4 3677 12.25200000 3183660149 3183660149 -11.31000000
21.15133667 29.79584885 0.00000000 16 5 3677 36.54000000 3183660149 3183660149 0.00000000
20.99977303 24.17451286 -0.37279406 12 6 3678 32.02400000 3183660151 3183660151 -0.66700000
8.25904083 11.63019562 -2.21920943 2 7 3678 14.43600000 3183660151 3183660151 -8.84300000
10.16172791 12.92253208 -2.09251690 2 8 3678 16.57200000 3183660153 3183660153 -7.25400000
21.03817749 26.74435806 -0.19776779 11 10 3679 34.02800000 3183660156 3183660156 -0.33300000
10.58104801 14.89448547 -1.96801531 3 11 3679 18.37600000 3183660156 3183660156 -6.14800000
13.08267307 15.04989433 -1.86148381 2 12 3680 20.02800000 3183660158 3183660158 -5.33300000
40.57809067 57.09891891 1.63000166 22 13 3680 70.06800000 3183660158 3183660158 1.33300000
40.89628601 47.02921295 0.72556543 28 14 3681 62.32800000 3183660160 3183660160 0.66700000
13.79598999 19.40567017 -1.66494751 2 15 3681 23.86800000 3183660160 3183660160 -4.00000000
13.42036533 17.04199791 -1.77081645 2 16 3682 21.76400000 3183660163 3183660163 -4.66700000
40.06358337 62.59753036 2.16293931 28 17 3682 74.35200000 3183660163 3183660163 1.66700000
40.47547913 51.39823151 1.14194584 28 18 3682 65.43200000 3183660165 3183660165 1.00000000
13.55016518 21.17151833 -1.61096251 3 19 3682 25.18800000 3183660165 3183660165 -3.66700000
16.64573097 19.12848473 -1.47673118 3 20 3683 25.40000000 3183660167 3183660167 -3.33300000
40.69842148 57.20478439 4.08856869 30 21 3683 70.32400000 3183660167 3183660167 3.33300000
40.33737946 51.18609619 2.65509176 28 22 3684 65.22400000 3183660170 3183660170 2.33300000
16.46149063 23.12935257 -1.32241452 2 23 3684 28.42000000 3183660170 3183660170 -2.66700000
16.96712875 21.52270126 -1.43630803 4 24 3685 27.44400000 3183660172 3183660172 -3.00000000
44.76267624 56.76080704 5.90120268 28 26 3686 72.52800000 3183660174 3183660174 4.66700000
16.62693787 25.93893242 -1.25524974 4 27 3686 30.83600000 3183660174 3183660174 -2.33300000
20.43278122 23.44730949 -1.08607233 4 28 3687 31.12000000 3183660176 3183660176 -2.00000000
21.04209709 29.53262901 -0.84380060 9 31 3687 36.27200000 3183660179 3183660179 -1.33300000
3.44371533 4.35268497 -2.58811426 12 0 3695 6.12400000 3183660199 3183660199 -25.00000000
21.09046364 32.78879929 -0.68050420 16 1 3695 38.99200000 3183660199 3183660199 -1.00000000
20.95005035 26.47032738 -0.98244554 12 2 3696 33.77200000 3183660202 3183660202 -1.66700000
5.36056519 7.49861240 -2.58037543 7 3 3696 9.57200000 3183660202 3183660202 -15.63900000
7.42836618 9.38235378 -2.39341545 4 4 3697 12.20400000 3183660204 3183660204 -11.31000000
21.15050888 29.57542229 0.00000000 16 5 3697 36.36000000 3183660204 3183660204 0.00000000
21.00346565 24.01742935 -0.37144369 12 6 3697 31.90800000 3183660206 3183660206 -0.66700000
8.29986191 11.60595798 -2.21982431 2 7 3697 14.44000000 3183660206 3183660206 -8.84300000
10.24372864 12.93364048 -2.10009313 2 8 3698 16.63200000 3183660209 3183660209 -7.25400000
21.03701210 26.55162239 -0.19688439 11 10 3699 33.87600000 3183660211 3183660211 -0.33300000
10.62371731 14.84452438 -1.96630180 3 11 3699 18.36000000 3183660211 3183660211 -6.14800000
13.10627079 14.97117233 -1.85739422 2 12 3700 19.98400000 3183660213 3183660213 -5.33300000
40.39305496 56.42042542 1.61464798 22 13 3700 69.40800000 3183660213 3183660213 1.33300000
40.85202408 46.64846420 0.72188687 28 14 3701 62.01200000 3183660216 3183660216 0.66700000
13.86364460 19.35739517 -1.66494751 2 15 3701 23.86800000 3183660216 3183660216 -4.00000000
13.45747471 16.96693611 -1.76788723 2 16 3702 21.72800000 3183660218 3183660218 -4.66700000
40.13231659 62.22545624 2.15491033 28 17 3702 74.07600000 3183660218 3183660218 1.66700000
40.66458893 51.26916504 1.14222515 28 18 3702 65.44800000 3183660220 3183660220 1.00000000
13.60883999 21.10060692 -1.60917175 3 19 3702 25.16000000 3183660220 3183660220 -3.66700000
16.73345375 19.09428978 -1.47859156 4 20 3703 25.43200000 3183660223 3183660223 -3.33300000
40.77688980 56.89359665 4.07647562 29 21 3703 70.11600000 3183660223 3183660223 3.33300000
40.31703186 50.79454422 2.64206529 28 22 3704 64.90400000 3183660225 3183660225 2.33300000
16.49556160 23.00680542 -1.31869209 2 23 3704 28.34000000 3183660225 3183660225 -2.66700000
17.03221893 21.45083046 -1.43547058 4 24 3705 27.42800000 3183660227 3183660227 -3.00000000
45.02500916 56.68537521 5.90966463 28 26 3706 72.63200000 3183660229 3183660229 4.66700000
16.71087456 25.87066269 -1.25476122 4 27 3706 30.82400000 3183660229 3183660229 -2.33300000
20.50659180 23.36682892 -1.08565354 4 28 3707 31.10800000 3183660232 3183660232 -2.00000000
21.04757309 29.31238365 -0.83970630 9 31 3708 36.09600000 3183660234 3183660234 -1.33300000
3.46942401 4.35541916 -2.59656668 14 0 3714 6.14400000 3183660255 3183660255 -25.00000000
21.08599472 32.54414368 -0.67687416 15 1 3714 38.78400000 3183660255 3183660255 -1.00000000
20.93804359 26.27563095 -0.97779101 18 2 3715 33.61200000 3183660257 3183660257 -1.66700000
5.38315153 7.47766876 -2.57929707 6 3 3715 9.56800000 3183660257 3183660257 -15.63900000
7.41543007 9.30246067 -2.37929487 21 4 3716 12.13200000 3183660259 3183660259 -11.31000000
21.13626480 29.34931946 0.00000000 16 5 3716 36.16800000 3183660259 3183660259 0.00000000
20.99313545 23.84557533 -0.36986050 12 6 3716 31.77200000 3183660262 3183660262 -0.66700000
8.32906437 11.56554222 -2.21736479 2 7 3716 14.42400000 3183660262 3183660262 -8.84300000
10.27666569 12.88719082 -2.09807277 2 8 3717 16.61600000 3183660264 3183660264 -7.25400000
21.03015900 26.36289406 -0.19600098 11 10 3718 33.72400000 3183660266 3183660266 -0.33300000
10.67055988 14.80598640 -1.96587348 3 11 3718 18.35600000 3183660266 3183660266 -6.14800000
13.15584469 14.92762852 -1.85739422 2 12 3719 19.98400000 3183660269 3183660269 -5.33300000
40.38348770 56.01368713 1.60683167 22 13 3719 69.07200000 3183660269 3183660269 1.33300000
40.28174210 45.69067001 0.70912820 28 14 3720 60.91600000 3183660271 3183660271 0.66700000
13.92309093 19.30484200 -1.66438949 2 15 3720 23.86000000 3183660271 3183660271 -4.00000000
13.53356647 16.94713974 -1.77049088 2 16 3721 21.76000000 3183660273 3183660273 -4.66700000
40.04002762 61.63268280 2.13896871 28 17 3721 73.52800000 3183660273 3183660273 1.66700000
40.69961166 50.96527481 1.13845539 28 18 3721 65.23200000 3183660276 3183660276 1.00000000
13.68091202 21.05871010 -1.60942757 3 19 3721 25.16400000 3183660276 3183660276 -3.66700000
16.77290535 19.01174355 -1.47649860 3 20 3722 25.39600000 3183660278 3183660278 -3.33300000
40.82043457 56.55730820 4.06205702 29 21 3722 69.86800000 3183660278 3183660278 3.33300000
40.22077179 50.32961655 2.62480545 28 22 3723 64.48000000 3183660280 3183660280 2.33300000
16.56007004 22.93577957 -1.31776142 2 23 3723 28.32000000 3183660280 3183660280 -2.66700000
17.10076523 21.39111137 -1.43526125 4 24 3724 27.42400000 3183660282 3183660282 -3.00000000
44.98863983 56.25553894 5.88037300 28 26 3725 72.27200000 3183660285 3183660285 4.66700000
16.71592522 25.69115639 -1.24873650 4 27 3725 30.67600000 3183660285 3183660285 -2.33300000
20.50456429 23.20882225 -1.08146560 4 28 3726 30.98800000 3183660287 3183660287 -2.00000000
21.04156113 29.09984207 -0.83561200 9 31 3727 35.92000000 3183660289 3183660289 -1.33300000
3.52847743 4.39639187 -2.62868547 15 0 3735 6.22000000 3183660310 3183660310 -25.00000000
21.09578323 32.29921722 -0.67338365 23 1 3735 38.58400000 3183660310 3183660310 -1.00000000
20.94910049 26.09270859 -0.97383469 18 2 3736 33.47600000 3183660312 3183660312 -1.66700000
5.41278410 7.46100616 -2.58037543 6 3 3736 9.57200000 3183660312 3183660312 -15.63900000
7.45930004 9.28745174 -2.38243294 25 4 3737 12.14800000 3183660315 3183660315 -11.31000000
21.14031792 29.12921333 0.00000000 10 5 3737 35.99200000 3183660315 3183660315 0.00000000
20.99281120 23.66972351 -0.36832386 12 6 3737 31.64000000 3183660317 3183660317 -0.66700000
8.36211205 11.52214146 -2.21490502 1 7 3737 14.40800000 3183660317 3183660317 -8.84300000
10.32134533 12.84634495 -2.09756780 2 8 3738 16.61200000 3183660319 3183660319 -7.25400000
21.03643227 26.17339897 -0.19516405 11 10 3739 33.58000000 3183660322 3183660322 -0.33300000
10.67333889 14.69598484 -1.95644891 3 11 3739 18.26800000 3183660322 3183660322 -6.14800000
13.20253658 14.87037468 -1.85627890 2 12 3740 19.97200000 3183660324 3183660324 -5.33300000
40.68488693 55.99794388 1.61064672 22 13 3740 69.23600000 3183660324 3183660324 1.33300000
40.84734344 45.99130249 0.71611285 28 14 3741 61.51600000 3183660326 3183660326 0.66700000
13.98671532 19.24399948 -1.66355240 2 15 3741 23.84800000 3183660326 3183660326 -4.00000000
13.58059502 16.87878609 -1.76853824 2 16 3742 21.73600000 3183660329 3183660329 -4.66700000
40.10355759 61.23799515 2.13035798 28 17 3742 73.23200000 3183660329 3183660329 1.66700000
40.91622162 50.85315323 1.13929307 28 18 3742 65.28000000 3183660331 3183660331 1.00000000
13.74707031 20.99172783 -1.60814834 3 19 3742 25.14400000 3183660331 3183660331 -3.66700000
16.83716774 18.94417191 -1.47603345 3 20 3743 25.38800000 3183660333 3183660333 -3.33300000
40.69626617 55.95197296 4.02926683 28 21 3743 69.30400000 3183660333 3183660333 3.33300000
40.12173080 49.83009338 2.60640574 28 22 3744 64.02800000 3183660335 3183660335 2.33300000
16.62051392 22.84262085 -1.31590021 2 23 3744 28.28000000 3183660335 3183660335 -2.66700000
17.17905235 21.32829094 -1.43526125 4 24 3745 27.42400000 3183660338 3183660338 -3.00000000
45.19202423 56.08716583 5.88004780 28 26 3746 72.26800000 3183660340 3183660340 4.66700000
16.80778313 25.62637520 -1.24857366 4 27 3746 30.67200000 3183660340 3183660340 -2.33300000
20.58683395 23.13052750 -1.08132601 4 28 3747 30.98400000 3183660342 3183660342 -2.00000000
21.04445457 28.88032150 -0.83151770 9 31 3748 35.74400000 3183660345 3183660345 -1.33300000
3.51645446 4.35021639 -2.60839987 15 0 3755 6.17200000 3183660365 3183660365 -25.00000000
21.05229378 31.98818779 -0.66842717 23 1 3755 38.30000000 3183660365 3183660365 -1.00000000
20.94703293 25.90438843 -0.96952933 17 2 3756 33.32800000 3183660368 3183660368 -1.66700000
5.43197632 7.43273687 -2.57714057 6 3 3756 9.56000000 3183660368 3183660368 -15.63900000
7.48180628 9.24915981 -2.37929487 18 4 3757 12.13200000 3183660370 3183660370 -11.31000000
21.15924263 28.94222450 0.00000000 10 5 3757 35.85200000 3183660370 3183660370 0.00000000
20.99537468 23.50680733 -0.36692694 12 6 3757 31.52000000 3183660372 3183660372 -0.66700000
8.39528275 11.48330975 -2.21306038 2 7 3757 14.39600000 3183660372 3183660372 -8.84300000
10.34865284 12.78864670 -2.09403229 2 8 3758 16.58400000 3183660375 3183660375 -7.25400000
21.03958321 25.99099541 -0.19435039 10 10 3759 33.44000000 3183660377 3183660377 -0.33300000
10.71517944 14.64579964 -1.95473528 3 11 3759 18.25200000 3183660377 3183660377 -6.14800000
13.25170898 14.82122993 -1.85590720 2 12 3760 19.96800000 3183660379 3183660379 -5.33300000
40.23534012 54.97462082 1.58524346 21 13 3760 68.14400000 3183660379 3183660379 1.33300000
41.08496475 45.93489456 0.71746325 28 14 3761 61.63200000 3183660381 3183660381 0.66700000
14.04673290 19.18540001 -1.66271532 2 15 3761 23.83600000 3183660381 3183660381 -4.00000000
13.56663990 16.74145317 -1.75909996 2 16 3762 21.62000000 3183660384 3183660384 -4.66700000
40.21136856 60.93744659 2.12477255 28 17 3762 73.04000000 3183660384 3183660384 1.66700000
40.55966949 50.05128860 1.12449348 28 18 3762 64.43200000 3183660386 3183660386 1.00000000
13.81366539 20.93361855 -1.60738087 3 19 3762 25.13200000 3183660386 3183660386 -3.66700000
16.92183495 18.90611076 -1.47766137 3 20 3763 25.41600000 3183660388 3183660388 -3.33300000
40.84884644 55.75159454 4.02508068 28 21 3763 69.23200000 3183660388 3183660388 3.33300000
40.04872513 49.38552094 2.59044862 28 22 3764 63.63600000 3183660391 3183660391 2.33300000
16.69306183 22.77479744 -1.31534183 2 23 3764 28.26800000 3183660391 3183660391 -2.66700000
17.19048309 21.19064140 -1.43002772 4 24 3765 27.32400000 3183660393 3183660393 -3.00000000
45.36743164 55.90430832 5.87744427 28 26 3766 72.23600000 3183660395 3183660395 4.66700000
16.86408043 25.51753426 -1.24613130 4 27 3766 30.61200000 3183660395 3183660395 -2.33300000
20.65410805 23.04364014 -1.08062804 4 28 3767 30.96400000 3183660398 3183660398 -2.00000000
21.04102135 28.66484642 -0.82742339 9 31 3768 35.56800000 3183660400 3183660400 -1.33300000
3.49270844 4.29012203 -2.57966185 23 0 3775 6.10400000 3183660421 3183660421 -25.00000000
21.09530640 31.81118011 -0.66626304 22 1 3775 38.17600000 3183660421 3183660421 -1.00000000
20.93885803 25.71020317 -0.96499121 17 2 3776 33.17200000 3183660423 3183660423 -1.66700000
5.45788860 7.41373062 -2.57714057 6 3 3776 9.56000000 3183660423 3183660423 -15.63900000
21.20558548 28.79410934 0.00000000 10 5 3777 35.76000000 3183660425 3183660425 0.00000000
20.99170685 23.33821678 -0.36543688 17 6 3777 31.39200000 3183660428 3183660428 -0.66700000
8.43297195 11.45075226 -2.21244550 1 7 3777 14.39200000 3183660428 3183660428 -8.84300000
10.38320255 12.74014187 -2.09201193 2 8 3778 16.56800000 3183660430 3183660430 -7.25400000
21.04171562 25.80888939 -0.19353673 10 10 3779 33.30000000 3183660432 3183660432 -0.33300000
10.76623821 14.60830688 -1.95473528 3 11 3779 18.25200000 3183660432 3183660432 -6.14800000
13.30869389 14.78080177 -1.85665071 2 12 3780 19.97600000 3183660434 3183660434 -5.33300000
40.33681870 54.71152878 1.58170748 21 13 3780 67.99200000 3183660434 3183660434 1.33300000
41.14065933 45.67529678 0.71564722 28 14 3781 61.47600000 3183660437 3183660437 0.66700000
14.11361694 19.13625145 -1.66271532 2 15 3781 23.83600000 3183660437 3183660437 -4.00000000
13.61743355 16.68472862 -1.75812352 2 16 3782 21.60800000 3183660439 3183660439 -4.66700000
40.45925903 60.84998703 2.12663436 28 17 3782 73.10400000 3183660439 3183660439 1.66700000
40.77712250 49.96207428 1.12568021 28 18 3782 64.50000000 3183660441 3183660441 1.00000000
13.87339211 20.86532784 -1.60584593 3 19 3782 25.10800000 3183660441 3183660441 -3.66700000
16.95297050 18.80836868 -1.47463810 3 20 3783 25.36400000 3183660444 3183660444 -3.33300000
40.64482117 55.06890106 3.98601127 27 21 3783 68.56000000 3183660444 3183660444 3.33300000
40.10457230 49.10303497 2.58295846 28 22 3784 63.45200000 3183660446 3183660446 2.33300000
16.75109863 22.68745995 -1.31366670 2 23 3784 28.23200000 3183660446 3183660446 -2.66700000
17.22643661 21.08410645 -1.42688751 4 24 3785 27.26400000 3183660448 3183660448 -3.00000000
45.78936386 56.02342224 5.90673542 28 26 3786 72.59600000 3183660451 3183660451 4.66700000
16.97298622 25.48845100 -1.24759674 4 27 3786 30.64800000 3183660451 3183660451 -2.33300000
20.72370529 22.95953369 -1.08006966 4 28 3787 30.94800000 3183660453 3183660453 -2.00000000
21.03375244 28.45663452 -0.82342213 9 31 3787 35.39600000 3183660455 3183660455 -1.33300000
3.49616957 4.26388741 -2.57120943 20 0 3795 6.08400000 3183660476 3183660476 -25.00000000
21.04846191 31.50124741 -0.66130656 22 1 3795 37.89200000 3183660476 3183660476 -1.00000000
