# .PCD v0.7 - Point Cloud Data file format
VERSION 0.7
FIELDS x y z intensity laser_id azimuth distance_m adjustedtime timestamp vertical_angle
SIZE 4 4 4 1 1 2 8 8 4 8
TYPE F F F U U U F U U F
COUNT 1 1 1 1 1 1 1 1 1 1
WIDTH 509
HEIGHT 1
VIEWPOINT 0 0 0 1 0 0 0
POINTS 509
DATA ascii
39.96650314 -49.70830536 1.48418832 38 13 14260 63.80000000 3186689384 3186689384 1.33300000
39.19679260 -59.92180252 0.83359468 28 14 14261 71.60800000 3186689386 3186689386 0.66700000
19.94064140 -24.81002235 -2.22578955 12 15 14261 31.90800000 3186689386 3186689386 -4.00000000
18.86189461 -25.98023605 -2.62091231 5 16 14262 32.21200000 3186689389 3186689389 -4.66700000
41.25984955 -46.50477219 1.80931485 28 17 14262 62.19600000 3186689389 3186689389 1.66700000
40.46337891 -55.73396683 1.20219159 28 18 14262 68.88400000 3186689391 3186689391 1.00000000
20.05993462 -22.60993958 -1.93714595 13 19 14262 30.28800000 3186689391 3186689391 -3.66700000
19.99527359 -30.59092712 -2.12835336 15 20 14263 36.60800000 3186689393 3186689393 -3.33300000
40.03123856 -49.84223557 3.72299027 66 21 14263 64.03600000 3186689393 3186689393 3.33300000
43.60134506 -60.10029221 3.02503943 28 22 14264 74.31200000 3186689396 3186689396 2.33300000
20.34490967 -25.34016991 -1.51375055 3 23 14264 32.53200000 3186689396 3186689396 -2.66700000
19.96381760 -27.52832413 -1.78214395 21 24 14265 34.05200000 3186689398 3186689398 -3.00000000
24.84724045 -28.04521942 -1.52652299 6 27 14266 37.50000000 3186689400 3186689400 -2.33300000
38.99485016 -59.74957275 -2.49154496 25 28 14267 71.39200000 3186689403 3186689403 -2.00000000
24.88417053 -31.02721596 -0.92550075 5 31 14267 39.78400000 3186689405 3186689405 -1.33300000
3.62425447 -5.01592064 -2.88563752 22 0 14275 6.82800000 3186689426 3186689426 -25.00000000
38.57351303 -43.67617035 -1.01712620 50 1 14275 58.28000000 3186689426 3186689426 -1.00000000
34.47041321 -47.72414398 -1.71331608 26 2 14276 58.89600000 3186689428 3186689428 -1.66700000
6.49413061 -8.12341881 -2.91141391 6 3 14276 10.80000000 3186689428 3186689428 -15.63900000
8.51837349 -11.79799080 -2.91038060 1 4 14277 14.84000000 3186689430 3186689430 -11.31000000
38.43620682 -48.09653473 0.00000000 43 5 14277 61.56800000 3186689430 3186689430 0.00000000
38.17032242 -58.70981979 -0.81524831 29 6 14277 70.03200000 3186689433 3186689433 -0.66700000
10.98271751 -13.74304771 -2.73696351 2 7 14277 17.80400000 3186689433 3186689433 -8.84300000
12.92086697 -17.90205002 -2.81022549 2 8 14278 22.25600000 3186689435 3186689435 -7.25400000
38.47382736 -43.60929489 0.33799765 49 9 14278 58.15600000 3186689435 3186689435 0.33300000
38.20633316 -52.95490646 -0.37951797 84 10 14279 65.30000000 3186689437 3186689437 -0.33300000
15.14090061 -18.95989037 -2.61359644 2 11 14279 24.40400000 3186689437 3186689437 -6.14800000
16.36822319 -25.20485497 -2.80542374 4 12 14280 30.18400000 3186689439 3186689439 -5.33300000
39.87258148 -49.94752121 1.48716605 38 13 14280 63.92800000 3186689439 3186689439 1.33300000
40.73617935 -62.75218964 0.87098587 28 14 14281 74.82000000 3186689442 3186689442 0.66700000
19.93853951 -24.98551941 -2.23527646 12 15 14281 32.04400000 3186689442 3186689442 -4.00000000
18.84335136 -26.14618301 -2.63100171 5 16 14282 32.33600000 3186689444 3186689444 -4.66700000
41.28756714 -46.86451721 1.81769288 56 17 14282 62.48400000 3186689444 3186689444 1.66700000
43.85433197 -60.87268448 1.30955875 28 18 14283 75.03600000 3186689446 3186689446 1.00000000
20.05607796 -22.77318192 -1.94482088 14 19 14283 30.40800000 3186689446 3186689446 -3.66700000
19.93400383 -30.73089027 -2.13323689 15 20 14283 36.69200000 3186689449 3186689449 -3.33300000
39.99643326 -50.15650558 3.73601341 44 21 14283 64.26000000 3186689449 3186689449 3.33300000
43.57580566 -60.50833511 3.03790283 28 22 14284 74.62800000 3186689451 3186689451 2.33300000
23.53400803 -29.52279091 -1.75869036 12 23 14284 37.79600000 3186689451 3186689451 -2.66700000
19.96095657 -27.72751808 -1.79051769 14 24 14285 34.21200000 3186689453 3186689453 -3.00000000
24.99998474 -28.41685104 -1.54199183 7 27 14286 37.88000000 3186689456 3186689456 -2.33300000
39.04899597 -60.29131699 -2.50843620 25 28 14287 71.87600000 3186689458 3186689458 -2.00000000
3.55563021 -4.95365429 -2.84337568 15 0 14293 6.72800000 3186689481 3186689481 -25.00000000
38.67089844 -44.06466675 -1.02333927 25 1 14293 58.63600000 3186689481 3186689481 -1.00000000
34.32031250 -47.83220291 -1.71331608 26 2 14294 58.89600000 3186689483 3186689483 -1.66700000
6.47336960 -8.14981365 -2.91357040 6 3 14294 10.80800000 3186689483 3186689483 -15.63900000
8.47440910 -11.81513214 -2.90802717 1 4 14295 14.82800000 3186689485 3186689485 -11.31000000
38.39187241 -48.35174942 0.00000000 43 5 14295 61.74000000 3186689485 3186689485 0.00000000
38.16196060 -59.12508011 -0.81925285 29 6 14296 70.37600000 3186689488 3186689488 -0.66700000
10.94445515 -13.78868008 -2.73880816 2 7 14296 17.81600000 3186689488 3186689488 -8.84300000
12.86687469 -17.94577789 -2.81073070 2 8 14296 22.26000000 3186689490 3186689490 -7.25400000
38.58713150 -44.01568604 0.34020618 50 9 14296 58.53600000 3186689490 3186689490 0.33300000
38.22153473 -53.32826233 -0.38133129 84 10 14297 65.61200000 3186689492 3186689492 -0.33300000
15.09856510 -19.02917099 -2.61659503 2 11 14297 24.43200000 3186689492 3186689492 -6.14800000
16.34724236 -25.34651947 -2.81546164 4 12 14298 30.29200000 3186689495 3186689495 -5.33300000
41.05986023 -51.76752090 1.53750741 20 13 14298 66.09200000 3186689495 3186689495 1.33300000
40.12705612 -62.24114227 0.86213863 28 14 14299 74.06000000 3186689497 3186689497 0.66700000
19.93927765 -25.14808846 -2.24420524 12 15 14299 32.17200000 3186689497 3186689497 -4.00000000
18.78896713 -26.24415016 -2.63490701 5 16 14300 32.38400000 3186689499 3186689499 -4.66700000
40.52912903 -46.29605103 1.79069686 56 17 14300 61.55600000 3186689499 3186689499 1.66700000
43.76665115 -61.13261414 1.31235111 28 18 14300 75.19600000 3186689502 3186689502 1.00000000
20.05415535 -22.90767670 -1.95121658 14 19 14300 30.50800000 3186689502 3186689502 -3.66700000
19.93467903 -30.94442558 -2.14370203 15 20 14301 36.87200000 3186689504 3186689504 -3.33300000
39.93785858 -50.40710831 3.74531579 22 21 14301 64.42000000 3186689504 3186689504 3.33300000
43.49014282 -60.79120636 3.04523015 28 22 14302 74.80800000 3186689506 3186689506 2.33300000
23.51804733 -29.69367790 -1.76446021 12 23 14302 37.92000000 3186689506 3186689506 -2.66700000
19.96436882 -27.91680717 -1.79868209 21 24 14303 34.36800000 3186689509 3186689509 -3.00000000
24.89743614 -28.48020554 -1.54117763 7 27 14304 37.86000000 3186689511 3186689511 -2.33300000
38.86588287 -60.42378235 -2.50885510 25 28 14305 71.88800000 3186689513 3186689513 -2.00000000
3.60475016 -5.06114340 -2.89747071 18 0 14314 6.85600000 3186689536 3186689536 -25.00000000
38.66149902 -44.38101578 -1.02738822 52 1 14314 58.86800000 3186689536 3186689536 -1.00000000
6.44584036 -8.17650986 -2.91464877 6 3 14315 10.81200000 3186689538 3186689538 -15.63900000
8.44014454 -11.85889530 -2.91116500 1 4 14316 14.84400000 3186689541 3186689541 -11.31000000
38.36542130 -48.68378067 0.00000000 43 5 14316 61.98400000 3186689541 3186689541 0.00000000
38.15851212 -59.59803009 -0.82386273 29 6 14317 70.77200000 3186689543 3186689543 -0.66700000
10.90851879 -13.84732914 -2.74249768 2 7 14317 17.84000000 3186689543 3186689543 -8.84300000
12.81711578 -18.01544952 -2.81426620 2 8 14317 22.28800000 3186689545 3186689545 -7.25400000
38.60672760 -44.36502075 0.34181026 51 9 14317 58.81200000 3186689545 3186689545 0.33300000
38.29009628 -53.83959198 -0.38398153 56 10 14318 66.06800000 3186689548 3186689548 -0.33300000
15.10499382 -19.18124199 -2.62987518 2 11 14318 24.55600000 3186689548 3186689548 -6.14800000
16.27140427 -25.43310547 -2.81843591 4 12 14319 30.32400000 3186689550 3186689550 -5.33300000
40.97621155 -52.05277634 1.54150867 20 13 14319 66.26400000 3186689550 3186689550 1.33300000
39.89435196 -62.38105774 0.86204547 28 14 14320 74.05200000 3186689552 3186689552 0.66700000
19.92593384 -25.32134628 -2.25313401 12 15 14320 32.30000000 3186689552 3186689552 -4.00000000
18.77807999 -26.43309402 -2.64694905 5 16 14321 32.53200000 3186689555 3186689555 -4.66700000
40.45358658 -46.55293655 1.79488599 28 17 14321 61.70000000 3186689555 3186689555 1.66700000
43.63031006 -61.41651154 1.31500387 28 18 14321 75.34800000 3186689557 3186689557 1.00000000
20.05122757 -23.07443237 -1.95914733 14 19 14321 30.63200000 3186689557 3186689557 -3.66700000
19.91573906 -31.16533661 -2.15393448 24 20 14322 37.04800000 3186689559 3186689559 -3.33300000
41.49549866 -52.76926422 3.90950036 26 21 14322 67.24400000 3186689559 3186689559 3.33300000
43.33644485 -61.04796982 3.05011511 28 22 14323 74.92800000 3186689562 3186689562 2.33300000
23.49548340 -29.88962173 -1.77097452 8 23 14323 38.06000000 3186689562 3186689562 -2.66700000
19.95207024 -28.11684036 -1.80684650 14 24 14324 34.52400000 3186689564 3186689564 -3.00000000
24.73001671 -28.49882126 -1.53726971 7 27 14325 37.76400000 3186689566 3186689566 -2.33300000
38.94089127 -61.03088760 -2.52811956 25 28 14326 72.44000000 3186689568 3186689568 -2.00000000
3.56194806 -5.03817368 -2.87718511 19 0 14334 6.80800000 3186689591 3186689591 -25.00000000
38.74444199 -44.79095459 -1.03374100 53 1 14334 59.23200000 3186689591 3186689591 -1.00000000
6.42200804 -8.20502663 -2.91680551 6 3 14335 10.82000000 3186689594 3186689594 -15.63900000
8.41001415 -11.90430260 -2.91508746 1 4 14336 14.86400000 3186689596 3186689596 -11.31000000
38.29138184 -48.94026947 0.00000000 43 5 14336 62.14000000 3186689596 3186689596 0.00000000
38.15161896 -60.02466583 -0.82800698 29 6 14336 71.12800000 3186689598 3186689598 -0.66700000
10.88202381 -13.90832996 -2.74741697 2 7 14336 17.87200000 3186689598 3186689598 -8.84300000
12.81366444 -18.14435196 -2.82739806 2 8 14337 22.39200000 3186689601 3186689601 -7.25400000
38.57977295 -44.64781570 0.34294939 52 9 14337 59.00800000 3186689601 3186689601 0.33300000
38.22188568 -54.14284134 -0.38519040 56 10 14338 66.27600000 3186689603 3186689603 -0.33300000
15.04284573 -19.24011803 -2.63073182 2 11 14338 24.56400000 3186689603 3186689603 -6.14800000
16.21881485 -25.54690742 -2.82475615 4 12 14339 30.39200000 3186689605 3186689605 -5.33300000
40.76224899 -52.15453339 1.54029906 20 13 14339 66.21200000 3186689605 3186689605 1.33300000
39.22629166 -61.81074905 0.85226697 28 14 14340 73.21200000 3186689608 3186689608 0.66700000
19.92586327 -25.50394249 -2.26317906 13 15 14340 32.44400000 3186689608 3186689608 -4.00000000
18.70637321 -26.52780342 -2.64987826 5 16 14341 32.56800000 3186689610 3186689610 -4.66700000
40.30128860 -46.70597076 1.79535139 28 17 14341 61.71600000 3186689610 3186689610 1.66700000
43.24971771 -61.33310318 1.30997765 28 18 14341 75.06000000 3186689612 3186689612 1.00000000
20.04097176 -23.22588348 -1.96605480 14 19 14341 30.74000000 3186689612 3186689612 -3.66700000
19.83463097 -31.27850533 -2.15695763 16 20 14342 37.10000000 3186689615 3186689615 -3.33300000
42.43406677 -54.35222626 4.01577854 28 21 14342 69.07200000 3186689615 3186689615 3.33300000
44.46290970 -63.10030746 3.14488173 28 22 14343 77.25600000 3186689617 3186689617 2.33300000
23.48933792 -30.09745216 -1.77841949 8 23 14343 38.22000000 3186689617 3186689617 -2.66700000
19.94811440 -28.32020950 -1.81542969 21 24 14344 34.68800000 3186689619 3186689619 -3.00000000
24.40341377 -28.32155609 -1.52310359 6 27 14345 37.41600000 3186689621 3186689621 -2.33300000
38.84095383 -61.34545135 -2.53551817 25 28 14346 72.65200000 3186689624 3186689624 -2.00000000
3.49436092 -4.97935820 -2.83661366 24 0 14354 6.71200000 3186689647 3186689647 -25.00000000
38.59827805 -44.93806076 -1.03402019 53 1 14354 59.24800000 3186689647 3186689647 -1.00000000
23.59796524 -33.63887024 -1.19585371 8 2 14355 41.10800000 3186689649 3186689649 -1.66700000
6.40041876 -8.23651791 -2.92004037 6 3 14355 10.83200000 3186689649 3186689649 -15.63900000
8.42470932 -12.01387215 -2.93469906 1 4 14356 14.96400000 3186689651 3186689651 -11.31000000
38.26263428 -49.25684738 0.00000000 44 5 14356 62.37200000 3186689651 3186689651 0.00000000
38.21711349 -60.59389114 -0.83401376 58 6 14356 71.64400000 3186689654 3186689654 -0.66700000
10.84068203 -13.95559502 -2.74926162 2 7 14356 17.88400000 3186689654 3186689654 -8.84300000
12.75708389 -18.19871521 -2.82891321 2 8 14357 22.40400000 3186689656 3186689656 -7.25400000
38.57215500 -44.95524597 0.34427452 53 9 14357 59.23600000 3186689656 3186689656 0.33300000
38.12447357 -54.40695953 -0.38612029 56 10 14358 66.43600000 3186689658 3186689658 -0.33300000
14.98778725 -19.30821800 -2.63287377 2 11 14358 24.58400000 3186689658 3186689658 -6.14800000
16.17624474 -25.67749977 -2.83293509 4 12 14359 30.48000000 3186689661 3186689661 -5.33300000
40.81039047 -52.59348297 1.54904592 41 13 14359 66.58800000 3186689661 3186689661 1.33300000
39.02947617 -61.97775650 0.85268605 28 14 14360 73.24800000 3186689663 3186689663 0.66700000
19.92965126 -25.69315338 -2.27378201 13 15 14360 32.59600000 3186689663 3186689663 -4.00000000
18.64795303 -26.64193153 -2.65476012 5 16 14361 32.62800000 3186689665 3186689665 -4.66700000
39.97671890 -46.65811539 1.78813696 56 17 14361 61.46800000 3186689665 3186689665 1.66700000
43.05141449 -61.50663376 1.31046629 28 18 14361 75.08800000 3186689668 3186689668 1.00000000
20.04548454 -23.39573097 -1.97449720 14 19 14361 30.87200000 3186689668 3186689668 -3.66700000
19.82528305 -31.50640106 -2.16788793 16 20 14362 37.28800000 3186689670 3186689670 -3.33300000
42.50340271 -54.83456802 4.04042959 29 21 14362 69.49600000 3186689670 3186689670 3.33300000
44.11639023 -63.07499695 3.13592601 28 22 14363 77.03600000 3186689672 3186689672 2.33300000
20.24177742 -26.12377548 -1.53943574 6 23 14363 33.08400000 3186689672 3186689672 -2.66700000
19.94069290 -28.52061844 -1.82380342 14 24 14364 34.84800000 3186689674 3186689674 -3.00000000
24.33818245 -28.44604683 -1.52522039 6 27 14365 37.46800000 3186689677 3186689677 -2.33300000
38.82436371 -61.79545975 -2.54850078 26 28 14366 73.02400000 3186689679 3186689679 -2.00000000
23.80296707 -30.76413536 -0.90512228 5 31 14367 38.90800000 3186689681 3186689681 -1.33300000
3.47161174 -4.98199558 -2.83154225 17 0 14373 6.70000000 3186689702 3186689702 -25.00000000
38.71641541 -45.37918854 -1.04121053 55 1 14373 59.66000000 3186689702 3186689702 -1.00000000
6.38013029 -8.26684570 -2.92327523 7 3 14374 10.84400000 3186689704 3186689704 -15.63900000
8.38482380 -12.04174328 -2.93469906 1 4 14375 14.96400000 3186689707 3186689707 -11.31000000
38.17971420 -49.48797226 0.00000000 44 5 14375 62.50400000 3186689707 3186689707 0.00000000
38.19001007 -60.99827957 -0.83783203 29 6 14375 71.97200000 3186689709 3186689709 -0.66700000
10.80641556 -14.00711346 -2.75233626 2 7 14375 17.90400000 3186689709 3186689709 -8.84300000
12.70573235 -18.25394630 -2.83093357 2 8 14376 22.42000000 3186689711 3186689711 -7.25400000
38.61486435 -45.30818558 0.34599486 54 9 14376 59.53200000 3186689711 3186689711 0.33300000
38.09919357 -54.75635529 -0.38770112 56 10 14377 66.70800000 3186689714 3186689714 -0.33300000
14.94067383 -19.37985992 -2.63587260 2 11 14377 24.61200000 3186689714 3186689714 -6.14800000
16.13957405 -25.80866623 -2.84148598 4 12 14378 30.57200000 3186689716 3186689716 -5.33300000
40.75048828 -52.87739563 1.55341947 62 13 14378 66.77600000 3186689716 3186689716 1.33300000
38.90854263 -62.24250793 0.85454863 28 14 14379 73.40800000 3186689718 3186689718 0.66700000
19.91983223 -25.85709190 -2.28243184 13 15 14379 32.72000000 3186689718 3186689718 -4.00000000
18.63913727 -26.81820297 -2.66615105 5 16 14380 32.76800000 3186689721 3186689721 -4.66700000
39.95652390 -46.94875717 1.79418778 84 17 14380 61.67600000 3186689721 3186689721 1.66700000
42.92025375 -61.75415039 1.31270015 28 18 14380 75.21600000 3186689723 3186689723 1.00000000
20.04281998 -23.55023384 -1.98191619 15 19 14380 30.98800000 3186689723 3186689723 -3.66700000
19.82224083 -31.73453903 -2.17905045 16 20 14381 37.48000000 3186689725 3186689725 -3.33300000
42.31158447 -54.96255493 4.03949928 28 21 14381 69.48000000 3186689725 3186689725 3.33300000
45.80150986 -65.94884491 3.27123713 28 22 14382 80.36000000 3186689727 3186689727 2.33300000
20.22083092 -26.27625275 -1.54446101 7 23 14382 33.19200000 3186689727 3186689727 -2.66700000
19.93484688 -28.71455765 -1.83196783 14 24 14383 35.00400000 3186689730 3186689730 -3.00000000
23.98230934 -28.21900940 -1.50877464 20 27 14384 37.06400000 3186689732 3186689732 -2.33300000
38.69961166 -62.05276108 -2.55380559 26 28 14385 73.17600000 3186689734 3186689734 -2.00000000
3.43477321 -4.96784925 -2.81632805 21 0 14394 6.66400000 3186689757 3186689757 -25.00000000
25.52068520 -30.13558388 -0.68930024 8 1 14394 39.49600000 3186689757 3186689757 -1.00000000
6.35447264 -8.29629040 -2.92543173 6 3 14395 10.85200000 3186689760 3186689760 -15.63900000
8.34509087 -12.07884789 -2.93626809 1 4 14396 14.97200000 3186689762 3186689762 -11.31000000
38.12695694 -49.79590225 0.00000000 44 5 14396 62.71600000 3186689762 3186689762 0.00000000
38.09489822 -61.34511185 -0.84067243 29 6 14396 72.21600000 3186689764 3186689764 -0.66700000
10.76461601 -14.05918026 -2.75479579 2 7 14396 17.92000000 3186689764 3186689764 -8.84300000
12.65001774 -18.31671906 -2.83345890 2 8 14397 22.44000000 3186689767 3186689767 -7.25400000
38.60871124 -45.63874435 0.34743619 54 9 14397 59.78000000 3186689767 3186689767 0.33300000
38.36410522 -55.57042694 -0.39246690 56 10 14398 67.52800000 3186689769 3186689769 -0.33300000
14.88887501 -19.45975876 -2.63929963 2 11 14398 24.64400000 3186689769 3186689769 -6.14800000
16.03647423 -25.85411072 -2.83999896 4 12 14399 30.55600000 3186689771 3186689771 -5.33300000
40.55154800 -53.02004623 1.55323339 41 13 14399 66.76800000 3186689771 3186689771 1.33300000
38.72230530 -62.45268250 0.85547990 28 14 14400 73.48800000 3186689773 3186689773 0.66700000
19.91217613 -26.04404449 -2.29247665 13 15 14400 32.86400000 3186689773 3186689773 -4.00000000
18.55429840 -26.90603065 -2.66810369 5 16 14401 32.79200000 3186689776 3186689776 -4.66700000
41.16717148 -48.73201752 1.85655785 28 17 14401 63.82000000 3186689776 3186689776 1.66700000
42.82758331 -62.10530090 1.31681895 28 18 14401 75.45200000 3186689778 3186689778 1.00000000
20.02849770 -23.70891953 -1.98907948 15 19 14401 31.10000000 3186689778 3186689778 -3.66700000
19.81515312 -31.98349380 -2.19114351 16 20 14402 37.68800000 3186689780 3186689780 -3.33300000
41.84075928 -54.76504898 4.01368523 28 21 14402 69.03600000 3186689780 3186689780 3.33300000
44.25325394 -64.22065735 3.17744756 28 22 14403 78.05600000 3186689783 3186689783 2.33300000
20.20199394 -26.45180511 -1.55041707 7 23 14403 33.32000000 3186689783 3186689783 -2.66700000
19.92237473 -28.92230225 -1.84055090 14 24 14404 35.16800000 3186689785 3186689785 -3.00000000
23.89160538 -28.32199478 -1.50958884 6 27 14405 37.08400000 3186689787 3186689787 -2.33300000
38.75582123 -62.65314484 -2.57265139 26 28 14406 73.71600000 3186689790 3186689790 -2.00000000
3.53728414 -5.15255785 -2.91437554 30 0 14413 6.89600000 3186689813 3186689813 -25.00000000
38.13668823 -55.57229996 -1.96151650 28 2 14414 67.42800000 3186689815 3186689815 -1.66700000
6.33625412 -8.32957935 -2.92974496 5 3 14414 10.86800000 3186689815 3186689815 -15.63900000
8.31608391 -12.12262726 -2.94019032 1 4 14415 14.99200000 3186689817 3186689817 -11.31000000
38.23521042 -50.28185272 0.00000000 66 5 14415 63.16800000 3186689817 3186689817 0.00000000
37.99620056 -61.64134216 -0.84300065 29 6 14415 72.41600000 3186689820 3186689820 -0.66700000
10.72989655 -14.11053085 -2.75787044 2 7 14415 17.94000000 3186689820 3186689820 -8.84300000
12.59369564 -18.36511230 -2.83446908 2 8 14416 22.44800000 3186689822 3186689822 -7.25400000
38.51891327 -45.84002304 0.34799415 55 9 14416 59.87600000 3186689822 3186689822 0.33300000
38.31078720 -55.88869476 -0.39381528 56 10 14417 67.76000000 3186689824 3186689824 -0.33300000
14.89163494 -19.59768867 -2.65129447 2 11 14417 24.75600000 3186689824 3186689824 -6.14800000
16.03834915 -26.04958725 -2.85561347 4 12 14418 30.72400000 3186689826 3186689826 -5.33300000
40.40453339 -53.19244003 1.55435002 21 13 14418 66.81600000 3186689826 3186689826 1.33300000
38.62609863 -62.76128006 0.85794783 28 14 14419 73.70000000 3186689829 3186689829 0.66700000
19.91015816 -26.22116089 -2.30224276 13 15 14419 33.00400000 3186689829 3186689829 -4.00000000
18.54830933 -27.08912277 -2.68014574 5 16 14420 32.94000000 3186689831 3186689831 -4.66700000
41.02847290 -48.89583206 1.85760510 56 17 14420 63.85600000 3186689831 3186689831 1.66700000
42.92869186 -62.69577408 1.32631314 28 18 14420 75.99600000 3186689833 3186689833 1.00000000
20.03187370 -23.87305832 -1.99726605 15 19 14420 31.22800000 3186689833 3186689833 -3.66700000
19.87005234 -32.31094360 -2.20905018 17 20 14421 37.99600000 3186689836 3186689836 -3.33300000
41.68064499 -54.93212509 4.01577854 28 21 14421 69.07200000 3186689836 3186689836 3.33300000
44.05133057 -64.38354492 3.17826152 28 22 14422 78.07600000 3186689838 3186689838 2.33300000
20.18660736 -26.61415672 -1.55600083 7 23 14422 33.44000000 3186689838 3186689838 -2.66700000
19.92557716 -29.13328171 -1.84976208 15 24 14423 35.34400000 3186689840 3186689840 -3.00000000
38.75073624 -63.11176300 -2.58619237 26 28 14425 74.10400000 3186689845 3186689845 -2.00000000
23.48308563 -30.99394798 -0.90484309 20 31 14425 38.89600000 3186689847 3186689847 -1.33300000
3.54989696 -5.20981169 -2.93973255 26 0 14433 6.95600000 3186689868 3186689868 -25.00000000
38.30710983 -56.24042511 -1.98036718 28 2 14434 68.07600000 3186689870 3186689870 -1.66700000
6.31178284 -8.35779476 -2.93190169 5 3 14434 10.87600000 3186689870 3186689870 -15.63900000
8.27813244 -12.15806580 -2.94175935 1 4 14435 15.00000000 3186689873 3186689873 -11.31000000
38.23057556 -50.64167786 0.00000000 67 5 14435 63.45200000 3186689873 3186689873 0.00000000
37.87433243 -61.95081711 -0.84532887 29 6 14436 72.61600000 3186689875 3186689875 -0.66700000
10.69477272 -14.17184734 -2.76217484 2 7 14436 17.96800000 3186689875 3186689875 -8.84300000
12.54960632 -18.43848228 -2.83901477 2 8 14436 22.48400000 3186689877 3186689877 -7.25400000
38.72254562 -46.41032410 0.35129532 56 9 14436 60.44400000 3186689877 3186689877 0.33300000
38.20096588 -56.14775467 -0.39469868 56 10 14437 67.91200000 3186689879 3186689879 -0.33300000
14.84229565 -19.67494965 -2.65472174 2 11 14437 24.78800000 3186689879 3186689879 -6.14800000
15.96185589 -26.12920380 -2.85821605 4 12 14438 30.75200000 3186689882 3186689882 -5.33300000
40.23787308 -53.35869598 1.55509436 42 13 14438 66.84800000 3186689882 3186689882 1.33300000
38.66943359 -63.32584381 0.86381495 28 14 14439 74.20400000 3186689884 3186689884 0.66700000
19.91218376 -26.41476822 -2.31312466 13 15 14439 33.16000000 3186689884 3186689884 -4.00000000
18.47156525 -27.18008232 -2.68274951 5 16 14440 32.97200000 3186689886 3186689886 -4.66700000
40.47108459 -48.57490158 1.84003448 56 17 14440 63.25200000 3186689886 3186689886 1.66700000
43.29417801 -63.72937012 1.34481263 28 18 14441 77.05600000 3186689889 3186689889 1.00000000
20.01321602 -24.02913475 -2.00417352 10 19 14441 31.33600000 3186689889 3186689889 -3.66700000
19.81330299 -32.47214508 -2.21532917 17 20 14441 38.10400000 3186689891 3186689891 -3.33300000
106.95794678 -141.98954773 10.35269928 42 21 14441 178.06800000 3186689891 3186689891 3.33300000
41.75838470 -61.49176025 3.02829599 28 22 14442 74.39200000 3186689893 3186689893 2.33300000
20.15126801 -26.76106644 -1.56046772 7 23 14442 33.53600000 3186689893 3186689893 -2.66700000
19.92471886 -29.35138130 -1.85918248 15 24 14443 35.52400000 3186689896 3186689896 -3.00000000
38.82345200 -63.72801208 -2.60587573 26 28 14445 74.66800000 3186689900 3186689900 -2.00000000
3.44842386 -5.09904957 -2.87042332 28 0 14453 6.79200000 3186689923 3186689923 -25.00000000
38.30313873 -56.65866470 -1.99037433 28 2 14454 68.42000000 3186689926 3186689926 -1.66700000
6.28257036 -8.37977600 -2.93190169 6 3 14454 10.87600000 3186689926 3186689926 -15.63900000
8.24003506 -12.19338799 -2.94332838 3 4 14455 15.00800000 3186689928 3186689928 -11.31000000
38.16151810 -50.91885757 0.00000000 45 5 14455 63.63200000 3186689928 3186689928 0.00000000
37.77401352 -62.27415466 -0.84793651 29 6 14456 72.84000000 3186689930 3186689930 -0.66700000
10.66182709 -14.23123455 -2.76647925 3 7 14456 17.99600000 3186689930 3186689930 -8.84300000
12.53847599 -18.56109047 -2.85113645 2 8 14456 22.58000000 3186689932 3186689932 -7.25400000
38.69045258 -46.70229721 0.35248095 56 9 14456 60.64800000 3186689932 3186689932 0.33300000
38.16814804 -56.52274704 -0.39639577 56 10 14457 68.20400000 3186689935 3186689935 -0.33300000
14.78783131 -19.74573898 -2.65729189 2 11 14457 24.81200000 3186689935 3186689935 -6.14800000
15.87674332 -26.19497871 -2.85933137 4 12 14458 30.76400000 3186689937 3186689937 -5.33300000
40.19036865 -53.68449783 1.56049144 42 13 14458 67.08000000 3186689937 3186689937 1.33300000
38.86680603 -64.15145111 0.87322092 28 14 14459 75.01200000 3186689939 3186689939 0.66700000
19.90831947 -26.60231781 -2.32344866 13 15 14459 33.30800000 3186689939 3186689939 -4.00000000
18.46352196 -27.37329674 -2.69544220 5 16 14460 33.12800000 3186689942 3186689942 -4.66700000
40.54849625 -49.01470947 1.85132158 84 17 14460 63.64000000 3186689942 3186689942 1.66700000
45.03948212 -66.77378082 1.40589607 28 18 14460 80.55600000 3186689944 3186689944 1.00000000
20.01993561 -24.19994545 -2.01287174 10 19 14460 31.47200000 3186689944 3186689944 -3.66700000
19.85493469 -32.79730988 -2.23277092 17 20 14461 38.40400000 3186689946 3186689946 -3.33300000
106.61471558 -142.56669617 10.36758232 42 21 14461 178.32400000 3186689946 3186689946 3.33300000
41.58145905 -61.69348907 3.03106403 28 22 14462 74.46000000 3186689949 3186689949 2.33300000
20.13668060 -26.93685341 -1.56660986 10 23 14462 33.66800000 3186689949 3186689949 -2.66700000
19.91142082 -29.55326271 -1.86755621 22 24 14463 35.68400000 3186689951 3186689951 -3.00000000
44.28929138 -65.76055908 6.47238111 28 26 14464 79.54800000 3186689953 3186689953 4.66700000
38.03830338 -62.93258286 -2.56790495 26 28 14465 73.58000000 3186689956 3186689956 -2.00000000
3.41557264 -5.09058189 -2.85858989 19 0 14474 6.76400000 3186689978 3186689978 -25.00000000
38.33575058 -57.15729523 -2.00294137 28 2 14475 68.85200000 3186689980 3186689980 -1.66700000
6.25641298 -8.40892696 -2.93405819 7 3 14475 10.88400000 3186689980 3186689980 -15.63900000
8.19965744 -12.23002243 -2.94489717 1 4 14476 15.01600000 3186689983 3186689983 -11.31000000
38.12025070 -51.25416946 0.00000000 45 5 14476 63.87600000 3186689983 3186689983 0.00000000
37.98538971 -63.11844635 -0.85762191 29 6 14476 73.67200000 3186689985 3186689985 -0.66700000
10.62623882 -14.28739357 -2.77016854 3 7 14476 18.02000000 3186689985 3186689985 -8.84300000
12.48803425 -18.63329124 -2.85517716 2 8 14477 22.61200000 3186689987 3186689987 -7.25400000
38.70447540 -47.06932831 0.35417801 56 9 14477 60.94000000 3186689987 3186689987 0.33300000
38.52843475 -57.50965118 -0.40232390 56 10 14478 69.22400000 3186689990 3186689990 -0.33300000
14.73196602 -19.82214928 -2.66029072 2 11 14478 24.84000000 3186689990 3186689990 -6.14800000
15.86475277 -26.39294624 -2.87457418 4 12 14479 30.92800000 3186689992 3186689992 -5.33300000
39.95040894 -53.77366257 1.55881655 42 13 14479 67.00800000 3186689992 3186689992 1.33300000
38.63965988 -64.30718994 0.87340719 28 14 14480 75.02800000 3186689994 3186689994 0.66700000
19.88919258 -26.78082085 -2.33265638 13 15 14480 33.44000000 3186689994 3186689994 -4.00000000
18.37193871 -27.45403862 -2.69674420 5 16 14481 33.14400000 3186689996 3186689996 -4.66700000
40.10469437 -48.84163284 1.83921993 56 17 14481 63.22400000 3186689996 3186689996 1.66700000
42.51457214 -63.53149414 1.33434117 28 18 14481 76.45600000 3186689999 3186689999 1.00000000
20.01469803 -24.37496567 -2.02131414 10 19 14481 31.60400000 3186689999 3186689999 -3.66700000
19.78598022 -32.95545197 -2.23858476 17 20 14482 38.50400000 3186690001 3186690001 -3.33300000
105.95581818 -142.77372742 10.35432720 42 21 14482 178.09600000 3186690001 3186690001 3.33300000
43.82992172 -65.54656982 3.21245575 28 22 14483 78.91600000 3186690003 3186690003 2.33300000
20.10447311 -27.10033035 -1.57182133 10 23 14483 33.78000000 3186690003 3186690003 -2.66700000
19.89398193 -29.76220131 -1.87613940 23 24 14484 35.84800000 3186690006 3186690006 -3.00000000
42.49753189 -63.60205078 6.24456072 28 26 14485 76.74800000 3186690008 3186690008 4.66700000
23.56479645 -28.73934937 -1.51414800 40 27 14485 37.19600000 3186690008 3186690008 -2.33300000
38.74255371 -64.63165283 -2.63142204 26 28 14486 75.40000000 3186690010 3186690010 -2.00000000
3.47815585 -5.22317028 -2.92620873 23 0 14494 6.92400000 3186690033 3186690033 -25.00000000
38.25785446 -57.47382355 -2.00934148 28 2 14495 69.07200000 3186690036 3186690036 -1.66700000
6.23388815 -8.44001007 -2.93729305 7 3 14495 10.89600000 3186690036 3186690036 -15.63900000
8.15474319 -12.25530529 -2.94411278 3 4 14496 15.01200000 3186690038 3186690038 -11.31000000
38.05990601 -51.54781723 0.00000000 45 5 14496 64.07600000 3186690038 3186690038 0.00000000
37.86530304 -63.41893005 -0.85990351 29 6 14496 73.86800000 3186690040 3186690040 -0.66700000
10.59508324 -14.34983635 -2.77508783 3 7 14496 18.05200000 3186690040 3186690040 -8.84300000
12.41852093 -18.67016029 -2.85416698 2 8 14497 22.60400000 3186690043 3186690043 -7.25400000
38.68666077 -47.38385391 0.35552639 56 9 14497 61.17200000 3186690043 3186690043 0.33300000
38.40939713 -57.76703262 -0.40318409 56 10 14498 69.37200000 3186690045 3186690045 -0.33300000
14.72879601 -19.96306038 -2.67228556 2 11 14498 24.95200000 3186690045 3186690045 -6.14800000
15.84800339 -26.57472610 -2.88832998 4 12 14499 31.07600000 3186690047 3186690047 -5.33300000
39.73397827 -53.87416840 1.55769992 42 13 14499 66.96000000 3186690047 3186690047 1.33300000
38.31869125 -64.28020477 0.87121868 28 14 14500 74.84000000 3186690049 3186690049 0.66700000
19.89030457 -26.97855186 -2.34381747 13 15 14500 33.60000000 3186690049 3186690049 -4.00000000
18.32672310 -27.59438324 -2.70422959 5 16 14501 33.23600000 3186690052 3186690052 -4.66700000
40.09060287 -49.17345810 1.84643435 56 17 14501 63.47200000 3186690052 3186690052 1.66700000
41.85665512 -63.02319336 1.32058871 28 18 14501 75.66800000 3186690054 3186690054 1.00000000
20.01273155 -24.54677963 -2.02975655 10 19 14501 31.73600000 3186690054 3186690054 -3.66700000
19.82612991 -33.28505325 -2.25625920 17 20 14502 38.80800000 3186690056 3186690056 -3.33300000
106.12236023 -144.04611206 10.41967487 42 21 14502 179.22000000 3186690056 3186690056 3.33300000
42.46050262 -63.98084641 3.12843585 28 22 14503 76.85200000 3186690059 3186690059 2.33300000
20.09031487 -27.27973175 -1.57814956 10 23 14503 33.91600000 3186690059 3186690059 -2.66700000
19.88271713 -29.97126770 -1.88493180 15 24 14504 36.01600000 3186690061 3186690061 -3.00000000
42.34576797 -63.85632706 6.25497532 28 26 14505 76.87600000 3186690063 3186690063 4.66700000
23.53750992 -28.91131401 -1.51887000 40 27 14505 37.31200000 3186690063 3186690063 -2.33300000
38.77416992 -65.19941711 -2.64901137 27 28 14506 75.90400000 3186690066 3186690066 -2.00000000
3.45281887 -5.22257948 -2.91944695 17 0 14513 6.90800000 3186690089 3186690089 -25.00000000
38.36245346 -58.04735565 -2.02493382 28 2 14514 69.60800000 3186690091 3186690091 -1.66700000
6.21725655 -8.47616577 -2.94268465 6 3 14514 10.91600000 3186690091 3186690091 -15.63900000
8.13351727 -12.31173325 -2.95117307 3 4 14515 15.04800000 3186690093 3186690093 -11.31000000
38.22225571 -52.12857819 0.00000000 45 5 14515 64.64000000 3186690093 3186690093 0.00000000
37.94025421 -64.02587891 -0.86642253 29 6 14515 74.42800000 3186690096 3186690096 -0.66700000
10.55912495 -14.40082932 -2.77816248 3 7 14515 18.07200000 3186690096 3186690096 -8.84300000
12.37840652 -18.74435043 -2.85921764 2 8 14516 22.64400000 3186690098 3186690098 -7.25400000
38.67040253 -47.68586349 0.35682824 56 9 14516 61.39600000 3186690098 3186690098 0.33300000
38.27932358 -57.98755264 -0.40383500 56 10 14517 69.48400000 3186690100 3186690100 -0.33300000
14.67191696 -20.02462387 -2.67399907 2 11 14517 24.96800000 3186690100 3186690100 -6.14800000
15.76384830 -26.63398933 -2.88907337 4 12 14518 31.08400000 3186690102 3186690102 -5.33300000
40.41048050 -55.17350006 1.59138489 43 13 14518 68.40800000 3186690102 3186690102 1.33300000
38.13383102 -64.45510864 0.87187058 28 14 14519 74.89600000 3186690105 3186690105 0.66700000
19.89266205 -27.16992569 -2.35469961 13 15 14519 33.75600000 3186690105 3186690105 -4.00000000
18.29656601 -27.74819946 -2.71334243 5 16 14520 33.34800000 3186690107 3186690107 -4.66700000
40.10848618 -49.52985382 1.85481250 56 17 14520 63.76000000 3186690107 3186690107 1.66700000
41.61880112 -63.14220047 1.32003021 28 18 14521 75.63600000 3186690109 3186690109 1.00000000
20.00478363 -24.71266937 -2.03768730 10 19 14521 31.86000000 3186690109 3186690109 -3.66700000
19.81318474 -33.51561737 -2.26742172 17 20 14521 39.00000000 3186690112 3186690112 -3.33300000
44.08734512 -60.25978088 4.34833384 35 21 14521 74.79200000 3186690112 3186690112 3.33300000
41.06946945 -62.33245468 3.04115963 28 22 14522 74.70800000 3186690114 3186690114 2.33300000
20.07993698 -27.45586014 -1.58447778 10 23 14522 34.05200000 3186690114 3186690114 -2.66700000
19.88428879 -30.19049072 -1.89456165 15 24 14523 36.20000000 3186690116 3186690116 -3.00000000
42.14693069 -64.01638031 6.25692797 28 26 14524 76.90000000 3186690119 3186690119 4.66700000
23.53448868 -29.10419464 -1.52489471 34 27 14524 37.46000000 3186690119 3186690119 -2.33300000
38.75484467 -65.66157532 -2.66255236 27 28 14525 76.29200000 3186690121 3186690121 -2.00000000
3.42462373 -5.21944523 -2.91099453 27 0 14533 6.88800000 3186690144 3186690144 -25.00000000
38.28458786 -58.37148285 -2.03156662 28 2 14534 69.83600000 3186690146 3186690146 -1.66700000
6.18989897 -8.50092983 -2.94376302 6 3 14534 10.92000000 3186690146 3186690146 -15.63900000
8.09694290 -12.34989071 -2.95352650 3 4 14535 15.06000000 3186690148 3186690148 -11.31000000
38.20248413 -52.48482895 0.00000000 68 5 14535 64.91600000 3186690148 3186690148 0.00000000
37.81678391 -64.35417175 -0.86898357 29 6 14536 74.64800000 3186690151 3186690151 -0.66700000
10.52022457 -14.45860958 -2.78185201 3 7 14536 18.09600000 3186690151 3186690151 -8.84300000
12.33030128 -18.81399536 -2.86325836 2 8 14536 22.67600000 3186690153 3186690153 -7.25400000
38.66676712 -48.02306747 0.35833934 56 9 14536 61.65600000 3186690153 3186690153 0.33300000
38.31341171 -58.48217392 -0.40634575 56 10 14537 69.91600000 3186690155 3186690155 -0.33300000
14.62064362 -20.10144806 -2.67742610 2 11 14537 25.00000000 3186690155 3186690155 -6.14800000
15.71514702 -26.76441002 -2.89725256 4 12 14538 31.17200000 3186690158 3186690158 -5.33300000
40.45045471 -55.63442612 1.60059714 22 13 14538 68.80400000 3186690158 3186690158 1.33300000
38.16370773 -65.02246094 0.87773764 28 14 14539 75.40000000 3186690160 3186690160 0.66700000
19.88684845 -27.36185455 -2.36530256 13 15 14539 33.90800000 3186690160 3186690160 -4.00000000
18.22360802 -27.84859276 -2.71692252 5 16 14540 33.39200000 3186690162 3186690162 -4.66700000
40.01301575 -49.76615524 1.85841966 28 17 14540 63.88400000 3186690162 3186690162 1.66700000
41.41575241 -63.28990555 1.32023966 28 18 14540 75.64800000 3186690165 3186690165 1.00000000
20.00776863 -24.88464546 -2.04638553 10 19 14540 31.99600000 3186690165 3186690165 -3.66700000
19.80919838 -33.77746964 -2.28044486 18 20 14541 39.22400000 3186690167 3186690167 -3.33300000
45.00778961 -61.97065353 4.46042585 38 21 14541 76.72000000 3186690167 3186690167 3.33300000
42.45272064 -64.92401123 3.16035032 28 22 14542 77.63600000 3186690169 3186690169 2.33300000
20.05674744 -27.62601852 -1.59024763 10 23 14542 34.17600000 3186690169 3186690169 -2.66700000
19.88150024 -30.41686630 -1.90440083 15 24 14543 36.38800000 3186690172 3186690172 -3.00000000
42.39423752 -64.88401031 6.32722712 28 26 14544 77.76400000 3186690174 3186690174 4.66700000
23.53534126 -29.31394577 -1.53157067 34 27 14544 37.62400000 3186690174 3186690174 -2.33300000
38.74961472 -66.17937469 -2.67804790 27 28 14545 76.73600000 3186690176 3186690176 -2.00000000
3.38858032 -5.20402575 -2.89578032 22 0 14553 6.85200000 3186690199 3186690199 -25.00000000
38.22237396 -58.72257614 -2.03912997 28 2 14554 70.09600000 3186690201 3186690201 -1.66700000
6.17146969 -8.53809357 -2.94915438 6 3 14554 10.94000000 3186690201 3186690201 -15.63900000
8.05592346 -12.38136673 -2.95431089 3 4 14555 15.06400000 3186690204 3186690204 -11.31000000
38.15491867 -52.80590820 0.00000000 46 5 14555 65.14800000 3186690204 3186690204 0.00000000
38.04716110 -65.26671600 -0.87950712 29 6 14556 75.55200000 3186690206 3186690206 -0.66700000
10.48589039 -14.51767254 -2.78615642 3 7 14556 18.12400000 3186690206 3186690206 -8.84300000
12.31647491 -18.93675232 -2.87538004 2 8 14556 22.77200000 3186690208 3186690208 -7.25400000
38.57882690 -48.25772476 0.35908327 84 9 14556 61.78400000 3186690208 3186690208 0.33300000
38.26601410 -58.85700607 -0.40801960 56 10 14557 70.20400000 3186690211 3186690211 -0.33300000
14.56901169 -20.17815590 -2.68085337 2 11 14557 25.03200000 3186690211 3186690211 -6.14800000
15.64367676 -26.85695839 -2.90134215 4 12 14558 31.21600000 3186690213 3186690213 -5.33300000
43.28205490 -59.96791458 1.72091401 25 13 14558 73.97600000 3186690213 3186690213 1.33300000
37.98682022 -65.24169922 0.87890178 28 14 14559 75.50000000 3186690215 3186690215 0.66700000
19.87759972 -27.55083656 -2.37562656 13 15 14559 34.05600000 3186690215 3186690215 -4.00000000
18.20662689 -28.03574753 -2.72896433 5 16 14560 33.54000000 3186690218 3186690218 -4.66700000
40.70962524 -50.99606323 1.89903009 28 17 14560 65.28000000 3186690218 3186690218 1.66700000
40.62606049 -62.55865097 1.30201936 28 18 14560 74.60400000 3186690220 3186690220 1.00000000
19.99798584 -25.05104256 -2.05431628 10 19 14560 32.12000000 3186690220 3186690220 -3.66700000
19.79760170 -34.02934265 -2.29277039 18 20 14561 39.43600000 3186690222 3186690222 -3.33300000
43.60252762 -60.47864151 4.34205484 71 21 14561 74.68400000 3186690222 3186690222 3.33300000
43.47026825 -66.98952484 3.25348878 28 22 14562 79.92400000 3186690225 3186690225 2.33300000
20.03728676 -27.80283356 -1.59638977 10 23 14562 34.30800000 3186690225 3186690225 -2.66700000
19.86650467 -30.62683105 -1.91319323 16 24 14563 36.55600000 3186690227 3186690227 -3.00000000
42.32149124 -65.26909637 6.35033417 28 26 14564 78.04800000 3186690229 3186690229 4.66700000
23.53750610 -29.52717972 -1.53840959 35 27 14564 37.79200000 3186690229 3186690229 -2.33300000
38.72718430 -66.67372894 -2.69256592 27 28 14565 77.15200000 3186690231 3186690231 -2.00000000
3.37720871 -5.22436762 -2.90085173 18 0 14572 6.86400000 3186690254 3186690254 -25.00000000
38.69145966 -59.87661362 -2.07473683 28 2 14573 71.32000000 3186690257 3186690257 -1.66700000
6.14761448 -8.56477070 -2.95131111 5 3 14573 10.94800000 3186690257 3186690257 -15.63900000
8.06802654 -12.49038124 -2.97392249 3 4 14574 15.16400000 3186690259 3186690259 -11.31000000
38.16148758 -53.18564224 0.00000000 46 5 14574 65.46000000 3186690259 3186690259 0.00000000
37.65360641 -65.06051636 -0.87513006 29 6 14574 75.17600000 3186690261 3186690261 -0.66700000
10.45405483 -14.56981087 -2.78984571 3 7 14574 18.14800000 3186690261 3186690261 -8.84300000
12.26222038 -18.99082565 -2.87740040 2 8 14575 22.78800000 3186690264 3186690264 -7.25400000
38.44345856 -48.41671753 0.35931575 56 9 14575 61.82400000 3186690264 3186690264 0.33300000
38.11400986 -59.05079269 -0.40848455 28 10 14576 70.28400000 3186690266 3186690266 -0.33300000
14.57153893 -20.32331848 -2.69370508 2 11 14576 25.15200000 3186690266 3186690266 -6.14800000
15.59439278 -26.97764969 -2.90877748 4 12 14577 31.29600000 3186690268 3186690268 -5.33300000
43.07596588 -60.10136414 1.72063494 25 13 14577 73.96400000 3186690268 3186690268 1.33300000
38.27252960 -66.23656464 0.89058942 28 14 14578 76.50400000 3186690271 3186690271 0.66700000
19.87908745 -27.74634743 -2.38678741 13 15 14578 34.21600000 3186690271 3186690271 -4.00000000
18.14163971 -28.13952827 -2.73319530 6 16 14579 33.59200000 3186690273 3186690273 -4.66700000
41.03462219 -51.75425339 1.92218614 56 17 14579 66.07600000 3186690273 3186690273 1.66700000
40.44005585 -62.72663879 1.30271745 28 18 14579 74.64400000 3186690275 3186690275 1.00000000
20.00160408 -25.22669792 -2.06327033 10 19 14579 32.26000000 3186690275 3186690275 -3.66700000
19.79246330 -34.28155518 -2.30532837 18 20 14580 39.65200000 3186690278 3186690278 -3.33300000
43.39011002 -60.60666656 4.34089184 35 21 14580 74.66400000 3186690278 3186690278 3.33300000
42.90157318 -66.59573364 3.22743607 28 22 14581 79.28400000 3186690280 3186690280 2.33300000
20.03101921 -27.98934937 -1.60327637 10 23 14581 34.45600000 3186690280 3186690280 -2.66700000
19.86864281 -30.85374641 -1.92324173 16 24 14582 36.74800000 3186690282 3186690282 -3.00000000
42.99387360 -66.79020691 6.48442316 28 26 14583 79.69600000 3186690284 3186690284 4.66700000
23.53621674 -29.72727585 -1.54475987 35 27 14583 37.94800000 3186690284 3186690284 -2.33300000
38.06667328 -66.03984070 -2.66185451 27 28 14584 76.27200000 3186690287 3186690287 -2.00000000
3.37173605 -5.25807238 -2.91268516 16 0 14593 6.89200000 3186690310 3186690310 -25.00000000
23.67854881 -30.01454163 -0.66731024 22 1 14593 38.23600000 3186690310 3186690310 -1.00000000
38.52352524 -60.09880829 -2.07752967 28 2 14594 71.41600000 3186690312 3186690312 -1.66700000
6.11171293 -8.58097076 -2.94915438 6 3 14594 10.94000000 3186690312 3186690312 -15.63900000
8.02430916 -12.52317047 -2.97470713 3 4 14595 15.16800000 3186690314 3186690314 -11.31000000
38.11709213 -53.53695679 0.00000000 46 5 14595 65.72000000 3186690314 3186690314 0.00000000
37.13817215 -64.71588898 -0.86865765 29 6 14595 74.62000000 3186690317 3186690317 -0.66700000
10.41204643 -14.62412834 -2.79292035 3 7 14595 18.16800000 3186690317 3186690317 -8.84300000
12.20537472 -19.05568886 -2.88043070 2 8 14596 22.81200000 3186690319 3186690319 -7.25400000
38.41181564 -48.74264908 0.36068738 56 9 14596 62.06000000 3186690319 3186690319 0.33300000
38.27692032 -59.78296661 -0.41257614 28 10 14597 70.98800000 3186690321 3186690321 -0.33300000
14.50617409 -20.38955307 -2.69541860 2 11 14597 25.16800000 3186690321 3186690321 -6.14800000
15.57462978 -27.17283821 -2.92364860 4 12 14598 31.45600000 3186690324 3186690324 -5.33300000
43.35832214 -60.96600342 1.74082732 51 13 14598 74.83200000 3186690324 3186690324 1.33300000
38.13091278 -66.55339050 0.89296418 28 14 14599 76.70800000 3186690326 3186690326 0.66700000
19.86511612 -27.94260406 -2.39739060 13 15 14599 34.36800000 3186690326 3186690326 -4.00000000
18.06845284 -28.25285149 -2.73775172 6 16 14600 33.64800000 3186690328 3186690328 -4.66700000
40.93120193 -52.01427841 1.92625880 56 17 14600 66.21600000 3186690328 3186690328 1.66700000
40.30469131 -63.02268982 1.30578899 28 18 14600 74.82000000 3186690331 3186690331 1.00000000
19.99294090 -25.40649605 -2.07196856 11 19 14600 32.39600000 3186690331 3186690331 -3.66700000
19.76984787 -34.53407288 -2.31742144 18 20 14601 39.86000000 3186690333 3186690333 -3.33300000
43.38507080 -61.07129669 4.36275196 36 21 14601 75.04000000 3186690333 3186690333 3.33300000
43.63856506 -68.28823090 3.30168605 28 22 14602 81.10800000 3186690335 3186690335 2.33300000
20.01621056 -28.18637466 -1.61034918 10 23 14602 34.60800000 3186690335 3186690335 -2.66700000
19.85649300 -31.08457756 -1.93308091 24 24 14603 36.93600000 3186690337 3186690337 -3.00000000
42.71016312 -66.88685608 6.47856474 28 26 14604 79.62400000 3186690340 3186690340 4.66700000
23.52834702 -29.94218636 -1.55143583 35 27 14604 38.11200000 3186690340 3186690340 -2.33300000
38.92926788 -68.11209106 -2.73961043 28 28 14605 78.50000000 3186690342 3186690342 -2.00000000
3.37282372 -5.30039501 -2.92958975 16 0 14613 6.93200000 3186690365 3186690365 -25.00000000
23.56130409 -30.08126831 -0.66696119 22 1 14613 38.21600000 3186690365 3186690365 -1.00000000
38.34998703 -60.29026794 -2.07950783 28 2 14614 71.48400000 3186690367 3186690367 -1.66700000
6.08839321 -8.61168766 -2.95238948 6 3 14614 10.95200000 3186690367 3186690367 -15.63900000
7.93424511 -12.47828674 -2.95744872 3 4 14615 15.08000000 3186690370 3186690370 -11.31000000
38.02001572 -53.79708099 0.00000000 46 5 14615 65.87600000 3186690370 3186690370 0.00000000
36.88632584 -64.79994202 -0.86805230 29 6 14615 74.56800000 3186690372 3186690372 -0.66700000
10.38146496 -14.68943310 -2.79845452 3 7 14615 18.20400000 3186690372 3186690372 -8.84300000
12.15155411 -19.11827087 -2.88346124 2 8 14616 22.83600000 3186690374 3186690374 -7.25400000
38.45587540 -49.15050888 0.36270991 56 9 14616 62.40800000 3186690374 3186690374 0.33300000
38.36831284 -60.38887405 -0.41583079 56 10 14617 71.54800000 3186690377 3186690377 -0.33300000
14.45785522 -20.47254944 -2.69970250 2 11 14617 25.20800000 3186690377 3186690377 -6.14800000
15.50527382 -27.27204704 -2.92848182 4 12 14618 31.50800000 3186690379 3186690379 -5.33300000
43.11065292 -61.06797791 1.73943150 51 13 14618 74.77200000 3186690379 3186690379 1.33300000
37.78374100 -66.48439789 0.89026350 28 14 14619 76.47600000 3186690381 3186690381 0.66700000
19.85028076 -28.12914276 -2.40743542 9 15 14619 34.51200000 3186690381 3186690381 -4.00000000
18.02953529 -28.41000175 -2.74686456 6 16 14620 33.76000000 3186690384 3186690384 -4.66700000
41.02754974 -52.51286697 1.93940771 56 17 14620 66.66800000 3186690384 3186690384 1.66700000
40.17446136 -63.30482101 1.30872107 28 18 14620 74.98800000 3186690386 3186690386 1.00000000
19.99506569 -25.59251595 -2.08143425 11 19 14620 32.54400000 3186690386 3186690386 -3.66700000
19.83847427 -34.93622971 -2.33974671 19 20 14621 40.24400000 3186690388 3186690388 -3.33300000
42.84254837 -60.75569534 4.32949638 35 21 14621 74.46800000 3186690388 3186690388 3.33300000
40.64957428 -64.10292816 3.09245062 28 22 14622 75.96800000 3186690390 3186690390 2.33300000
19.99827194 -28.37037849 -1.61686349 11 23 14622 34.74800000 3186690390 3186690390 -2.66700000
19.84624100 -31.30889511 -1.94271064 24 24 14623 37.12000000 3186690393 3186690393 -3.00000000
42.49136353 -67.05910492 6.48084307 28 26 14624 79.65200000 3186690395 3186690395 4.66700000
23.51710510 -30.14387512 -1.55762339 28 27 14624 38.26400000 3186690395 3186690395 -2.33300000
38.88251114 -68.58489227 -2.75315142 28 28 14625 78.88800000 3186690397 3186690397 -2.00000000
3.34268808 -5.29374456 -2.91944695 13 0 14633 6.90800000 3186690420 3186690420 -25.00000000
38.32924271 -60.72468567 -2.08986402 28 2 14634 71.84000000 3186690423 3186690423 -1.66700000
6.06272125 -8.63919353 -2.95454597 6 3 14634 10.96000000 3186690423 3186690423 -15.63900000
7.90319777 -12.52581024 -2.96215558 3 4 14635 15.10400000 3186690425 3186690425 -11.31000000
38.12144089 -54.34206772 0.00000000 46 5 14635 66.38000000 3186690425 3186690425 0.00000000
36.76216507 -65.10941315 -0.87047362 29 6 14635 74.77600000 3186690427 3186690427 -0.66700000
10.34147549 -14.74176025 -2.80152917 3 7 14635 18.22400000 3186690427 3186690427 -8.84300000
12.09744549 -19.18070793 -2.88649154 2 8 14636 22.86000000 3186690430 3186690430 -7.25400000
38.48773956 -49.54663086 0.36463946 56 9 14636 62.74000000 3186690430 3186690430 0.33300000
38.19781494 -60.58672333 -0.41627249 56 10 14637 71.62400000 3186690432 3186690432 -0.33300000
14.40000153 -20.54243279 -2.70227265 2 11 14637 25.23200000 3186690432 3186690432 -6.14800000
15.42954540 -27.36069489 -2.93219948 4 12 14638 31.54800000 3186690434 3186690434 -5.33300000
42.95459366 -61.29996490 1.74175787 25 13 14638 74.87200000 3186690434 3186690434 1.33300000
