# .PCD v0.7 - Point Cloud Data file format
VERSION 0.7
FIELDS x y z intensity laser_id azimuth distance_m adjustedtime timestamp vertical_angle
SIZE 4 4 4 1 1 2 8 8 4 8
TYPE F F F U U U F U U F
COUNT 1 1 1 1 1 1 1 1 1 1
WIDTH 524
HEIGHT 1
VIEWPOINT 0 0 0 1 0 0 0
POINTS 524
DATA ascii
40.21549606 18.21717453 2.57114005 14 21 6703 44.22400000 3178168389 3178168389 3.33300000
40.39317703 15.96017838 1.76946402 9 22 6704 43.46800000 3178168392 3178168392 2.33300000
20.68942070 9.36772728 -1.05793166 22 23 6704 22.73600000 3178168392 3178168392 -2.66700000
20.66073227 8.15931320 -1.16416097 26 24 6705 22.24400000 3178168394 3178168394 -3.00000000
42.58251953 16.80805206 3.73723292 31 26 6706 45.93200000 3178168396 3178168396 4.66700000
20.71735573 10.61986446 -0.94847965 26 27 6706 23.30000000 3178168396 3178168396 -2.33300000
20.70487595 7.02029943 -0.76346141 15 28 6707 21.87600000 3178168399 3178168399 -2.00000000
20.93872261 9.46299553 -0.53468001 6 31 6708 22.98400000 3178168401 3178168401 -1.33300000
5.45597935 2.14366937 -2.73349500 6 0 6715 6.46800000 3178168422 3178168422 -25.00000000
37.62432098 19.21192551 -0.73739910 8 1 6715 42.25200000 3178168422 3178168422 -1.00000000
20.74063110 8.14487267 -0.64848620 15 2 6716 22.29200000 3178168424 3178168424 -1.66700000
8.08533287 3.64047956 -2.48224998 2 3 6716 9.20800000 3178168424 3178168424 -15.63900000
10.72342968 4.20894432 -2.30398583 2 4 6717 11.74800000 3178168426 3178168426 -11.31000000
40.44847488 18.20372772 0.00000000 22 5 6717 44.35600000 3178168426 3178168426 0.00000000
40.40298080 13.62065983 -0.49637580 32 6 6717 42.64000000 3178168429 3178168429 -0.66700000
12.43831253 5.59782934 -2.12205362 2 7 6717 13.80400000 3178168429 3178168429 -8.84300000
14.74239254 5.78341770 -2.01574588 2 8 6718 15.96400000 3178168431 3178168431 -7.25400000
40.81084061 20.81210899 0.26625538 9 9 6718 45.81200000 3178168431 3178168431 0.33300000
40.35596466 15.82345581 -0.25193483 24 10 6719 43.34800000 3178168433 3178168433 -0.33300000
15.73121834 7.07319021 -1.85791957 2 11 6719 17.34800000 3178168433 3178168433 -6.14800000
18.24672318 6.14070082 -1.79716647 6 12 6720 19.33600000 3178168435 3178168435 -5.33300000
40.38139725 18.14811897 1.03018486 15 13 6720 44.28400000 3178168435 3178168435 1.33300000
40.30253983 13.55547237 0.49502543 21 14 6721 42.52400000 3178168438 3178168438 0.66700000
19.98657227 8.97812939 -1.53213120 6 15 6721 21.96400000 3178168438 3178168438 -4.00000000
18.97398949 7.42818546 -1.66341531 5 16 6722 20.44400000 3178168440 3178168440 -4.66700000
40.69831085 20.71893501 1.32908833 18 17 6722 45.68800000 3178168440 3178168440 1.66700000
40.39601898 15.81476307 0.75722504 20 18 6722 43.38800000 3178168442 3178168442 1.00000000
20.31964874 10.34444523 -1.46130180 8 19 6722 22.84800000 3178168442 3178168442 -3.66700000
20.64138985 6.93456554 -1.26812828 20 20 6723 21.81200000 3178168445 3178168445 -3.33300000
40.15861511 18.02272987 2.56346560 14 21 6723 44.09200000 3178168445 3178168445 3.33300000
40.45236588 15.82053852 1.76962686 18 22 6724 43.47200000 3178168447 3178168447 2.33300000
20.68189240 9.27746201 -1.05588424 24 23 6724 22.69200000 3178168447 3178168447 -2.66700000
20.66676521 8.07841873 -1.16290498 26 24 6725 22.22000000 3178168449 3178168449 -3.00000000
41.98351669 18.82412148 5.64937544 19 25 6725 46.35600000 3178168449 3178168449 7.00000000
42.58523178 16.63754654 3.73235106 21 26 6726 45.87200000 3178168452 3178168452 4.66700000
20.71510887 10.52756500 -0.94668853 26 27 6726 23.25600000 3178168452 3178168452 -2.33300000
20.69514275 6.93654919 -0.76220500 15 28 6727 21.84000000 3178168454 3178168454 -2.00000000
20.97363663 9.39514351 -0.53477305 6 31 6727 22.98800000 3178168456 3178168456 -1.33300000
5.46042061 2.12234449 -2.73180437 7 0 6736 6.46400000 3178168477 3178168477 -25.00000000
38.03349686 19.24544144 -0.74403101 9 1 6736 42.63200000 3178168477 3178168477 -1.00000000
20.74425507 8.05866432 -0.64767164 13 2 6737 22.26400000 3178168479 3178168479 -1.66700000
8.10213947 3.61238933 -2.48332834 6 3 6737 9.21200000 3178168479 3178168479 -15.63900000
10.73512745 4.16819334 -2.30320144 2 4 6738 11.74400000 3178168482 3178168482 -11.31000000
40.41262054 18.00976372 0.00000000 15 5 6738 44.24400000 3178168482 3178168482 0.00000000
40.09825134 13.34668541 -0.49199873 21 6 6739 42.26400000 3178168484 3178168484 -0.66700000
12.46332550 5.55163670 -2.12266874 2 7 6739 13.80800000 3178168484 3178168484 -8.84300000
14.76718998 5.73078108 -2.01625109 3 8 6739 15.96800000 3178168486 3178168486 -7.25400000
40.75832748 20.59744263 0.26541847 19 9 6739 45.66800000 3178168486 3178168486 0.33300000
40.36148071 15.65518665 -0.25160936 24 10 6740 43.29200000 3178168488 3178168488 -0.33300000
15.75340366 7.01386738 -1.85749125 2 11 6740 17.34400000 3178168488 3178168488 -6.14800000
18.23131371 6.06121683 -1.79344869 16 12 6741 19.29600000 3178168491 3178168491 -5.33300000
40.36726379 17.96422195 1.02813780 15 13 6741 44.19600000 3178168491 3178168491 1.33300000
40.29501724 13.38874722 0.49432695 21 14 6742 42.46400000 3178168493 3178168493 0.66700000
20.01205254 8.90157127 -1.53157318 6 15 6742 21.95600000 3178168493 3178168493 -4.00000000
19.00108719 7.35859251 -1.66341531 5 16 6743 20.44400000 3178168495 3178168495 -4.66700000
40.75255966 20.55882263 1.32839012 18 17 6743 45.66400000 3178168495 3178168495 1.66700000
40.43406677 15.65087509 0.75680614 20 18 6744 43.36400000 3178168498 3178168498 1.00000000
20.35565567 10.26455021 -1.46104598 8 19 6744 22.84400000 3178168498 3178168498 -3.66700000
20.64013863 6.85005999 -1.26650047 20 20 6744 21.78400000 3178168500 3178168500 -3.33300000
40.19520950 17.86244583 2.56160522 21 21 6744 44.06000000 3178168500 3178168500 3.33300000
40.49889374 15.66784096 1.76913846 18 22 6745 43.46000000 3178168502 3178168502 2.33300000
20.68289185 9.18699837 -1.05420911 21 23 6745 22.65600000 3178168502 3178168502 -2.66700000
20.66642952 7.99109221 -1.16123021 26 24 6746 22.18800000 3178168505 3178168505 -3.00000000
41.88894272 18.59762192 5.62743902 18 25 6746 46.17600000 3178168505 3178168505 7.00000000
41.58609772 16.07176208 3.63959551 30 26 6747 44.73200000 3178168507 3178168507 4.66700000
20.71428871 10.43179512 -0.94489741 26 27 6747 23.21200000 3178168507 3178168507 -2.33300000
20.70145226 6.85436821 -0.76150703 17 28 6748 21.82000000 3178168509 3178168509 -2.00000000
21.00061989 9.31496525 -0.53458697 6 31 6748 22.98000000 3178168512 3178168512 -1.33300000
5.47117949 2.10457253 -2.73349500 6 0 6756 6.46800000 3178168532 3178168532 -25.00000000
38.28633499 19.20581055 -0.74766111 9 1 6756 42.84000000 3178168532 3178168532 -1.00000000
20.73493958 7.97185659 -0.64650804 10 2 6757 22.22400000 3178168535 3178168535 -1.66700000
8.11470032 3.58408570 -2.48332834 3 3 6757 9.21200000 3178168535 3178168535 -15.63900000
10.74961185 4.13069534 -2.30320144 4 4 6758 11.74400000 3178168537 3178168537 -11.31000000
40.41669083 17.84274101 0.00000000 15 5 6758 44.18000000 3178168537 3178168537 0.00000000
40.25097656 13.24163342 -0.49330255 21 6 6759 42.37600000 3178168539 3178168539 -0.66700000
12.49347591 5.51288462 -2.12451339 2 7 6759 13.82000000 3178168539 3178168539 -8.84300000
14.79451275 5.68204403 -2.01726103 4 8 6759 15.97600000 3178168541 3178168541 -7.25400000
40.76560593 20.42279434 0.26500002 19 9 6759 45.59600000 3178168541 3178168541 0.33300000
40.32252502 15.47836685 -0.25102818 16 10 6760 43.19200000 3178168544 3178168544 -0.33300000
15.77415180 6.95723009 -1.85706282 2 11 6760 17.34000000 3178168544 3178168544 -6.14800000
18.21074104 5.98386478 -1.78935921 20 12 6761 19.25200000 3178168546 3178168546 -5.33300000
40.36020279 17.79255676 1.02636969 15 13 6761 44.12000000 3178168546 3178168546 1.33300000
40.29970551 13.23428345 0.49381474 21 14 6762 42.42000000 3178168548 3178168548 0.66700000
20.04300308 8.83166122 -1.53157318 6 15 6762 21.95600000 3178168548 3178168548 -4.00000000
19.03410339 7.29507494 -1.66406620 5 16 6763 20.45200000 3178168551 3178168551 -4.66700000
40.67030334 20.33954430 1.32338655 18 17 6763 45.49200000 3178168551 3178168551 1.66700000
40.37371063 15.47376537 0.75471187 30 18 6763 43.24400000 3178168553 3178168553 1.00000000
20.38244057 10.19342136 -1.46053433 8 19 6763 22.83600000 3178168553 3178168553 -3.66700000
20.63736343 6.76925850 -1.26487255 20 20 6764 21.75600000 3178168555 3178168555 -3.33300000
39.85163498 17.54344177 2.53579164 20 21 6764 43.61600000 3178168555 3178168555 3.33300000
40.57573318 15.53495216 1.77011538 18 22 6765 43.48400000 3178168558 3178168558 2.33300000
20.68557739 9.10187149 -1.05272019 24 23 6765 22.62400000 3178168558 3178168558 -2.66700000
20.66808319 7.90891123 -1.15976477 30 24 6766 22.16000000 3178168560 3178168560 -3.00000000
42.15711975 18.54079628 5.65473747 19 25 6766 46.40000000 3178168560 3178168560 7.00000000
42.42019653 16.22415352 3.70761633 31 26 6767 45.56800000 3178168562 3178168562 4.66700000
20.71481895 10.34157372 -0.94326913 25 27 6767 23.17200000 3178168562 3178168562 -2.33300000
20.69485855 6.77211905 -0.76039022 15 28 6768 21.78800000 3178168565 3178168565 -2.00000000
21.03666878 9.24321175 -0.53468001 6 31 6768 22.98400000 3178168567 3178168567 -1.33300000
5.47474051 2.08512759 -2.73180437 6 0 6775 6.46400000 3178168588 3178168588 -25.00000000
38.38562012 19.09655762 -0.74835920 9 1 6775 42.88000000 3178168588 3178168588 -1.00000000
20.74257660 7.89594078 -0.64592624 10 2 6776 22.20400000 3178168590 3178168590 -1.66700000
8.12301159 3.55561209 -2.48224998 4 3 6776 9.20800000 3178168590 3178168590 -15.63900000
10.75958443 4.09363079 -2.30241704 4 4 6777 11.74000000 3178168593 3178168593 -11.31000000
40.40600967 17.67815208 0.00000000 15 5 6777 44.10400000 3178168593 3178168593 0.00000000
40.31139374 13.12130547 -0.49353537 32 6 6777 42.39600000 3178168595 3178168595 -0.66700000
12.50711250 5.47202349 -2.12389851 2 7 6777 13.81600000 3178168595 3178168595 -8.84300000
14.80956459 5.63154221 -2.01675606 4 8 6778 15.97200000 3178168597 3178168597 -7.25400000
40.68265533 20.21274757 0.26402360 9 9 6778 45.42800000 3178168597 3178168597 0.33300000
40.34371948 15.33319950 -0.25084218 16 10 6779 43.16000000 3178168600 3178168600 -0.33300000
15.80442429 6.90806818 -1.85791957 2 11 6779 17.34800000 3178168600 3178168600 -6.14800000
18.23048401 5.92344332 -1.78935921 30 12 6780 19.25200000 3178168602 3178168602 -5.33300000
40.34935760 17.62820053 1.02460170 14 13 6780 44.04400000 3178168602 3178168602 1.33300000
40.30152512 13.08698273 0.49330255 21 14 6781 42.37600000 3178168604 3178168604 0.66700000
20.07217979 8.76514816 -1.53157318 6 15 6781 21.95600000 3178168604 3178168604 -4.00000000
19.06191635 7.23332977 -1.66439164 5 16 6782 20.45600000 3178168606 3178168606 -4.66700000
40.69096375 20.18146896 1.32187390 18 17 6782 45.44000000 3178168606 3178168606 1.66700000
40.38740921 15.32560730 0.75401378 30 18 6782 43.20400000 3178168609 3178168609 1.00000000
20.41613197 10.12577438 -1.46053433 5 19 6782 22.83600000 3178168609 3178168609 -3.66700000
20.62931061 6.69092941 -1.26301205 20 20 6783 21.72400000 3178168611 3178168611 -3.33300000
39.97913361 17.44153214 2.54021001 20 21 6783 43.69200000 3178168611 3178168611 3.33300000
40.60086823 15.39039612 1.76897562 18 22 6784 43.45600000 3178168613 3178168613 2.33300000
20.68268204 9.01885223 -1.05104506 24 23 6784 22.58800000 3178168613 3178168613 -2.66700000
20.65684319 7.82617760 -1.15767133 30 24 6785 22.12000000 3178168616 3178168616 -3.00000000
42.64783478 18.58807755 5.71225977 19 25 6785 46.87200000 3178168616 3178168616 7.00000000
42.52968979 16.10457039 3.71249819 31 26 6786 45.62800000 3178168618 3178168618 4.66700000
20.71676254 10.25686359 -0.94180363 25 27 6786 23.13600000 3178168618 3178168618 -2.33300000
20.69438171 6.69607115 -0.75955266 17 28 6787 21.76400000 3178168620 3178168620 -2.00000000
21.05620575 9.16861057 -0.53440088 4 31 6787 22.97200000 3178168623 3178168623 -1.33300000
5.48234606 2.06504774 -2.73180437 8 0 6796 6.46400000 3178168643 3178168643 -25.00000000
38.45894241 18.95750809 -0.74842900 9 1 6796 42.88400000 3178168643 3178168643 -1.00000000
20.75641060 7.81422758 -0.64546078 7 2 6797 22.18800000 3178168646 3178168646 -1.66700000
8.13598919 3.52581573 -2.48224998 4 3 6797 9.20800000 3178168646 3178168646 -15.63900000
10.77451611 4.05416727 -2.30241704 4 4 6798 11.74000000 3178168648 3178168648 -11.31000000
40.40446472 17.50131989 0.00000000 22 5 6798 44.03200000 3178168648 3178168648 0.00000000
40.34779358 12.96979713 -0.49339566 21 6 6798 42.38400000 3178168650 3178168650 -0.66700000
12.52345753 5.42457485 -2.12328362 2 7 6798 13.81200000 3178168650 3178168650 -8.84300000
14.83010578 5.57722473 -2.01675606 4 8 6799 15.97200000 3178168653 3178168653 -7.25400000
40.75646210 20.06350327 0.26402360 9 9 6799 45.42800000 3178168653 3178168653 0.33300000
40.35471725 15.16834068 -0.25056323 16 10 6800 43.11200000 3178168655 3178168655 -0.33300000
15.82963753 6.85009575 -1.85791957 2 11 6800 17.34800000 3178168655 3178168655 -6.14800000
18.24448776 5.85415173 -1.78861570 22 12 6801 19.24400000 3178168657 3178168657 -5.33300000
40.35497284 17.45479393 1.02311289 14 13 6801 43.98000000 3178168657 3178168657 1.33300000
40.28828049 12.91964054 0.49255753 20 14 6802 42.31200000 3178168659 3178168659 0.66700000
20.10783386 8.69310474 -1.53185213 4 15 6802 21.96000000 3178168659 3178168659 -4.00000000
19.08456802 7.16201544 -1.66406620 5 16 6803 20.45200000 3178168662 3178168662 -4.66700000
40.76107025 20.03042984 1.32175756 27 17 6803 45.43600000 3178168662 3178168662 1.66700000
40.40961075 15.16483021 0.75338548 30 18 6803 43.16800000 3178168664 3178168664 1.00000000
20.45310783 10.05087757 -1.46053433 8 19 6803 22.83600000 3178168664 3178168664 -3.66700000
20.63467979 6.60918379 -1.26184928 16 20 6804 21.70400000 3178168666 3178168666 -3.33300000
39.97314072 17.26479912 2.53579164 20 21 6804 43.61600000 3178168666 3178168666 3.33300000
40.55221558 15.20220089 1.76441634 9 22 6805 43.34400000 3178168669 3178168669 2.33300000
20.68992043 8.93190002 -1.04974210 24 23 6805 22.56000000 3178168669 3178168669 -2.66700000
20.65546417 7.73920155 -1.15599656 30 24 6806 22.08800000 3178168671 3178168671 -3.00000000
42.79222870 18.46467209 5.72249699 28 25 6806 46.95600000 3178168671 3178168671 7.00000000
42.81244278 16.03247070 3.73202562 31 26 6807 45.86800000 3178168673 3178168673 4.66700000
20.71474648 10.16150188 -0.94001251 25 27 6807 23.09200000 3178168673 3178168673 -2.33300000
20.69974518 6.61409378 -0.75885463 17 28 6808 21.74400000 3178168676 3178168676 -2.00000000
21.07130623 9.08345890 -0.53393561 4 31 6808 22.95200000 3178168678 3178168678 -1.33300000
5.48952103 2.04589820 -2.73180437 7 0 6816 6.46400000 3178168699 3178168699 -25.00000000
38.54285049 18.83192444 -0.74877805 9 1 6816 42.90400000 3178168699 3178168699 -1.00000000
20.79105377 7.74451780 -0.64569348 7 2 6817 22.19600000 3178168701 3178168701 -1.66700000
8.15532684 3.50043297 -2.48440647 4 3 6817 9.21600000 3178168701 3178168701 -15.63900000
10.78860283 4.01653242 -2.30241704 4 4 6818 11.74000000 3178168703 3178168703 -11.31000000
40.41017151 17.33652115 0.00000000 22 5 6818 43.97200000 3178168703 3178168703 0.00000000
40.38900757 12.82766724 -0.49334911 21 6 6818 42.38000000 3178168706 3178168706 -0.66700000
12.54958153 5.38394356 -2.12451339 2 7 6818 13.82000000 3178168706 3178168706 -8.84300000
14.84576511 5.52404022 -2.01625109 3 8 6819 15.96800000 3178168708 3178168708 -7.25400000
40.82624817 19.92111397 0.26402360 9 9 6819 45.42800000 3178168708 3178168708 0.33300000
40.33993530 15.00228786 -0.25014478 16 10 6820 43.04000000 3178168710 3178168710 -0.33300000
15.84614182 6.79166508 -1.85706282 2 11 6820 17.34000000 3178168710 3178168710 -6.14800000
18.26481056 5.79043055 -1.78861570 18 12 6821 19.24400000 3178168712 3178168712 -5.33300000
40.36051941 17.29020309 1.02171707 14 13 6821 43.92000000 3178168712 3178168712 1.33300000
40.28356552 12.76322460 0.49195218 20 14 6822 42.26000000 3178168715 3178168715 0.66700000
20.13438797 8.62129116 -1.53157318 6 15 6822 21.95600000 3178168715 3178168715 -4.00000000
19.10571480 7.09396648 -1.66374075 5 16 6823 20.44800000 3178168717 3178168717 -4.66700000
40.52161026 19.73745155 1.31175041 18 17 6823 45.09200000 3178168717 3178168717 1.66700000
40.44992065 15.01105404 0.75310624 30 18 6824 43.15200000 3178168719 3178168719 1.00000000
20.48621941 9.97409821 -1.46027851 8 19 6824 22.83200000 3178168719 3178168719 -3.66700000
20.63858986 6.53109121 -1.26068652 13 20 6824 21.68400000 3178168722 3178168722 -3.33300000
39.90098953 17.06862259 2.52741957 20 21 6824 43.47200000 3178168722 3178168722 3.33300000
40.55632019 15.04248619 1.76229954 9 22 6825 43.29200000 3178168724 3178168724 2.33300000
20.69158173 8.84705734 -1.04825318 24 23 6825 22.52800000 3178168724 3178168724 -2.66700000
20.65987968 7.65872288 -1.15474057 30 24 6826 22.06400000 3178168726 3178168726 -3.00000000
43.02800751 18.38851547 5.74540854 29 25 6826 47.14400000 3178168726 3178168726 7.00000000
42.68496323 15.81506062 3.71607828 31 26 6827 45.67200000 3178168729 3178168729 4.66700000
20.70336342 10.06641293 -0.93789572 25 27 6827 23.04000000 3178168729 3178168729 -2.33300000
20.69983292 6.53457737 -0.75801706 15 28 6828 21.72000000 3178168731 3178168731 -2.00000000
49.35690308 18.27726173 9.59623432 17 30 6828 53.50000000 3178168733 3178168733 10.33300000
21.07714081 8.99886036 -0.53328425 2 31 6828 22.92400000 3178168733 3178168733 -1.33300000
5.49627542 2.02768302 -2.73180437 7 0 6835 6.46400000 3178168754 3178168754 -25.00000000
38.59428787 18.69877625 -0.74856859 9 1 6835 42.89200000 3178168754 3178168754 -1.00000000
20.83162689 7.68106270 -0.64615893 7 2 6836 22.21200000 3178168756 3178168756 -1.66700000
8.15980053 3.47035456 -2.48224998 3 3 6836 9.20800000 3178168756 3178168756 -15.63900000
10.80554295 3.98209047 -2.30320144 4 4 6837 11.74400000 3178168758 3178168758 -11.31000000
40.39749527 17.17268753 0.00000000 22 5 6837 43.89600000 3178168758 3178168758 0.00000000
40.35721207 12.66265678 -0.49241781 21 6 6838 42.30000000 3178168761 3178168761 -0.66700000
12.56829834 5.34010458 -2.12451339 2 7 6838 13.82000000 3178168761 3178168761 -8.84300000
14.87144852 5.47752237 -2.01726103 4 8 6838 15.97600000 3178168763 3178168763 -7.25400000
40.85607910 19.76819801 0.26379114 9 9 6838 45.38800000 3178168763 3178168763 0.33300000
40.33691025 14.84908772 -0.24981929 16 10 6839 42.98400000 3178168765 3178168765 -0.33300000
15.86857605 6.73907995 -1.85706282 2 11 6839 17.34000000 3178168765 3178168765 -6.14800000
18.27631187 5.72744846 -1.78787208 6 12 6840 19.23600000 3178168768 3178168768 -5.33300000
40.35137558 17.12814140 1.02004218 14 13 6840 43.84800000 3178168768 3178168768 1.33300000
40.28368378 12.61641979 0.49143997 20 14 6841 42.21600000 3178168770 3178168770 0.66700000
20.16286659 8.55447578 -1.53157318 6 15 6841 21.95600000 3178168770 3178168770 -4.00000000
19.13287544 7.03194571 -1.66406620 5 16 6842 20.45200000 3178168772 3178168772 -4.66700000
40.51123047 19.56645012 1.30930674 18 17 6842 45.00800000 3178168772 3178168772 1.66700000
40.35423279 14.83147621 0.75045347 30 18 6842 43.00000000 3178168775 3178168775 1.00000000
20.51745224 9.90968990 -1.46027851 8 19 6842 22.83200000 3178168775 3178168775 -3.66700000
20.63345528 6.45427036 -1.25905859 16 20 6843 21.65600000 3178168777 3178168777 -3.33300000
39.97575760 16.94400406 2.52858233 20 21 6843 43.49200000 3178168777 3178168777 3.33300000
40.56846237 14.89414024 1.76067126 18 22 6844 43.25200000 3178168779 3178168779 2.33300000
20.67665672 8.75968838 -1.04601967 24 23 6844 22.48000000 3178168779 3178168779 -2.66700000
20.65141296 7.57778597 -1.15285647 30 24 6845 22.02800000 3178168782 3178168782 -3.00000000
43.41778183 18.38505554 5.78928137 29 25 6845 47.50400000 3178168782 3178168782 7.00000000
41.95489502 15.38653183 3.64805746 30 26 6846 44.83600000 3178168784 3178168784 4.66700000
20.70423126 9.98208141 -0.93643028 27 27 6846 23.00400000 3178168784 3178168784 -2.33300000
20.69467735 6.45756292 -0.75703990 15 28 6847 21.69200000 3178168786 3178168786 -2.00000000
49.42040253 18.10486221 9.59623432 17 30 6848 53.50000000 3178168788 3178168788 10.33300000
34.66260529 14.65631866 -0.87571764 9 31 6848 37.64400000 3178168788 3178168788 -1.33300000
5.50707579 2.00876689 -2.73349500 7 0 6856 6.46800000 3178168809 3178168809 -25.00000000
38.61569214 18.53469849 -0.74766111 9 1 6856 42.84000000 3178168809 3178168809 -1.00000000
20.88969231 7.61561489 -0.64708984 5 2 6857 22.24400000 3178168811 3178168811 -1.66700000
8.16536427 3.43743515 -2.48009324 3 3 6857 9.20000000 3178168811 3178168811 -15.63900000
10.82375050 3.94380236 -2.30398583 4 4 6858 11.74800000 3178168814 3178168814 -11.31000000
40.40854645 17.00279045 0.00000000 15 5 6858 43.84000000 3178168814 3178168814 0.00000000
40.38806915 12.50992107 -0.49223155 21 6 6859 42.28400000 3178168816 3178168816 -0.66700000
12.59507275 5.29706812 -2.12574315 2 7 6859 13.82800000 3178168816 3178168816 -8.84300000
14.88769627 5.42162132 -2.01675606 4 8 6859 15.97200000 3178168818 3178168818 -7.25400000
40.80201721 19.55780792 0.26297748 9 9 6859 45.24800000 3178168818 3178168818 0.33300000
40.34596252 14.68472862 -0.24954033 16 10 6860 42.93600000 3178168821 3178168821 -0.33300000
15.90416813 6.68549681 -1.85834801 2 11 6860 17.35200000 3178168821 3178168821 -6.14800000
18.31239891 5.66513252 -1.78935921 4 12 6861 19.25200000 3178168823 3178168823 -5.33300000
40.35120773 16.95379829 1.01846027 14 13 6861 43.78000000 3178168823 3178168823 1.33300000
40.27997589 12.45333004 0.49083462 20 14 6862 42.16400000 3178168825 3178168825 0.66700000
20.19040489 8.47897243 -1.53129411 6 15 6862 21.95200000 3178168825 3178168825 -4.00000000
19.16226768 6.96313477 -1.66439164 5 16 6863 20.45600000 3178168828 3178168828 -4.66700000
40.54299927 19.39885521 1.30802679 9 17 6863 44.96400000 3178168828 3178168828 1.66700000
40.29179764 14.64112759 0.74828941 20 18 6863 42.87600000 3178168830 3178168830 1.00000000
20.54643440 9.83097744 -1.45976686 8 19 6863 22.82400000 3178168830 3178168830 -3.66700000
20.63789558 6.37271070 -1.25789583 13 20 6864 21.63600000 3178168832 3178168832 -3.33300000
40.01181412 16.78655815 2.52695441 20 21 6864 43.46400000 3178168832 3178168832 3.33300000
40.37482834 14.65534687 1.74992454 18 22 6865 42.98800000 3178168835 3178168835 2.33300000
20.67177391 8.66839409 -1.04415846 24 23 6865 22.44000000 3178168835 3178168835 -2.66700000
20.65651894 7.49387026 -1.15160036 30 24 6866 22.00400000 3178168837 3178168837 -3.00000000
42.54751205 17.83292198 5.66448689 19 25 6866 46.48000000 3178168837 3178168837 7.00000000
42.10470581 15.26663113 3.65619397 30 26 6867 44.93600000 3178168839 3178168839 4.66700000
20.71182632 9.89234924 -0.93512768 27 27 6867 22.97200000 3178168839 3178168839 -2.33300000
20.69146347 6.37343216 -0.75606269 15 28 6868 21.66400000 3178168841 3178168841 -2.00000000
49.39080811 17.89872551 9.57829762 17 30 6868 53.40000000 3178168844 3178168844 10.33300000
34.71355438 14.53523350 -0.87571764 14 31 6868 37.64400000 3178168844 3178168844 -1.33300000
5.51405430 1.98953128 -2.73349500 7 0 6876 6.46800000 3178168864 3178168864 -25.00000000
38.66570663 18.39291954 -0.74738187 9 1 6876 42.82400000 3178168864 3178168864 -1.00000000
20.91990852 7.54400635 -0.64720619 5 2 6877 22.24800000 3178168867 3178168867 -1.66700000
8.18086910 3.41039395 -2.48117161 3 3 6877 9.20400000 3178168867 3178168867 -15.63900000
10.83376122 3.90466642 -2.30320144 4 4 6878 11.74400000 3178168869 3178168869 -11.31000000
40.39749908 16.83240318 0.00000000 15 5 6878 43.76400000 3178168869 3178168869 0.00000000
40.41785812 12.37240887 -0.49209186 21 6 6878 42.27200000 3178168871 3178168871 -0.66700000
12.61621761 5.25679255 -2.12635803 2 7 6878 13.83200000 3178168871 3178168871 -8.84300000
14.91026402 5.37096500 -2.01726103 4 8 6879 15.97600000 3178168874 3178168874 -7.25400000
40.83390808 19.39809990 0.26274499 18 9 6879 45.20800000 3178168874 3178168874 0.33300000
40.32923126 14.51941681 -0.24912187 16 10 6880 42.86400000 3178168876 3178168876 -0.33300000
15.92373657 6.62841177 -1.85791957 2 11 6880 17.34800000 3178168876 3178168876 -6.14800000
18.34348869 5.60466671 -1.79047453 4 12 6881 19.26400000 3178168878 3178168878 -5.33300000
40.35475922 16.78980255 1.01706445 14 13 6881 43.72000000 3178168878 3178168878 1.33300000
40.32702637 12.31381893 0.49088120 10 14 6882 42.16800000 3178168881 3178168881 0.66700000
20.21619415 8.40691185 -1.53101504 6 15 6882 21.94800000 3178168881 3178168881 -4.00000000
19.18270493 6.89485502 -1.66406620 5 16 6883 20.45200000 3178168883 3178168883 -4.66700000
40.53821182 19.22295380 1.30569959 18 17 6883 44.88400000 3178168883 3178168883 1.66700000
40.29373169 14.48280716 0.74738187 20 18 6883 42.82400000 3178168885 3178168885 1.00000000
20.57701874 9.75748634 -1.45951104 8 19 6883 22.82000000 3178168885 3178168885 -3.66700000
20.63327789 6.29247856 -1.25626802 10 20 6884 21.60800000 3178168888 3178168888 -3.33300000
39.93003464 16.58857155 2.51811719 20 21 6884 43.31200000 3178168888 3178168888 3.33300000
40.29032135 14.46570396 1.74406278 18 22 6885 42.84400000 3178168890 3178168890 2.33300000
20.68345642 8.58852196 -1.04322779 26 23 6885 22.42000000 3178168890 3178168890 -2.66700000
20.66375160 7.41497374 -1.15055370 30 24 6886 21.98400000 3178168892 3178168892 -3.00000000
42.19147491 17.51079941 5.60891485 37 25 6886 46.02400000 3178168892 3178168892 7.00000000
42.24029922 15.14917374 3.66335392 20 26 6887 45.02400000 3178168894 3178168894 4.66700000
20.70649338 9.80118275 -0.93333656 27 27 6887 22.92800000 3178168894 3178168894 -2.33300000
20.69063759 6.29418612 -0.75522512 15 28 6888 21.64000000 3178168897 3178168897 -2.00000000
49.61537552 17.77464676 9.60914898 17 30 6889 53.57200000 3178168899 3178168899 10.33300000
34.57818985 14.32982540 -0.87097198 9 31 6889 37.44000000 3178168899 3178168899 -1.33300000
5.52096558 1.97027159 -2.73349500 6 0 6896 6.46800000 3178168920 3178168920 -25.00000000
38.62114716 18.20667648 -0.74528754 9 1 6896 42.70400000 3178168920 3178168920 -1.00000000
20.95741272 7.47496605 -0.64755529 5 2 6897 22.26000000 3178168922 3178168922 -1.66700000
8.19272327 3.38181663 -2.48117161 3 3 6897 9.20400000 3178168922 3178168922 -15.63900000
10.83624077 3.86287451 -2.30084801 4 4 6898 11.73200000 3178168924 3178168924 -11.31000000
40.40424347 16.66992950 0.00000000 15 5 6898 43.70800000 3178168924 3178168924 0.00000000
40.64840317 12.28796005 -0.49437353 10 6 6898 42.46800000 3178168927 3178168927 -0.66700000
12.62718391 5.20970678 -2.12512827 2 7 6898 13.82400000 3178168927 3178168927 -8.84300000
14.92518330 5.31755400 -2.01675606 2 8 6899 15.97200000 3178168929 3178168929 -7.25400000
40.76023102 19.18899918 0.26183835 18 9 6899 45.05200000 3178168929 3178168929 0.33300000
40.30807495 14.35305977 -0.24868016 16 10 6900 42.78800000 3178168931 3178168931 -0.33300000
15.94309998 6.57127190 -1.85749125 2 11 6900 17.34400000 3178168931 3178168931 -6.14800000
18.37819290 5.54520369 -1.79196167 4 12 6901 19.28000000 3178168934 3178168934 -5.33300000
40.34656525 16.62141609 1.01538956 14 13 6901 43.64800000 3178168934 3178168934 1.33300000
40.57655334 12.23533058 0.49339566 31 14 6902 42.38400000 3178168936 3178168936 0.66700000
20.24910736 8.33781147 -1.53129411 6 15 6902 21.95200000 3178168936 3178168936 -4.00000000
19.19914246 6.82518196 -1.66341531 5 16 6903 20.44400000 3178168938 3178168938 -4.66700000
40.56526184 19.06262589 1.30441952 18 17 6903 44.84000000 3178168938 3178168938 1.66700000
40.27997589 14.31929398 0.74619508 20 18 6903 42.75600000 3178168941 3178168941 1.00000000
20.60011482 9.68050671 -1.45874357 11 19 6903 22.80800000 3178168941 3178168941 -3.66700000
20.62835121 6.21235609 -1.25464010 10 20 6904 21.58000000 3178168943 3178168943 -3.33300000
39.93968964 16.42934036 2.51509404 20 21 6904 43.26000000 3178168943 3178168943 3.33300000
40.55901337 14.40254593 1.75350678 18 22 6905 43.07600000 3178168945 3178168945 2.33300000
20.68374634 8.50411606 -1.04173875 24 23 6905 22.38800000 3178168945 3178168945 -2.66700000
20.65939331 7.33211040 -1.14887893 30 24 6906 21.95200000 3178168947 3178168947 -3.00000000
42.25601578 17.36492729 5.60940218 18 25 6906 46.02800000 3178168947 3178168947 7.00000000
42.40564346 15.04161835 3.67311788 20 26 6907 45.14400000 3178168950 3178168950 4.66700000
20.71163368 9.71526527 -0.93203390 25 27 6907 22.89600000 3178168950 3178168950 -2.33300000
20.68185234 6.21272326 -0.75410831 17 28 6908 21.60800000 3178168952 3178168952 -2.00000000
49.56584167 17.56192207 9.58762455 17 30 6909 53.45200000 3178168954 3178168954 10.33300000
34.60950089 14.20144749 -0.87050670 4 31 6909 37.42000000 3178168954 3178168954 -1.33300000
5.52439070 1.94978118 -2.73180437 7 0 6916 6.46400000 3178168975 3178168975 -25.00000000
38.66997147 18.06498146 -0.74500835 9 1 6916 42.68800000 3178168975 3178168975 -1.00000000
20.98337746 7.40176535 -0.64755529 2 2 6917 22.26000000 3178168977 3178168977 -1.66700000
8.21160984 3.35611248 -2.48332834 3 3 6917 9.21200000 3178168977 3178168977 -15.63900000
10.86075687 3.82893801 -2.30320144 2 4 6918 11.74400000 3178168980 3178168980 -11.31000000
40.39553070 16.50156212 0.00000000 22 5 6918 43.63600000 3178168980 3178168980 0.00000000
40.70254517 12.14942837 -0.49451321 10 6 6918 42.48000000 3178168982 3178168982 -0.66700000
12.64895058 5.16709232 -2.12574315 1 7 6918 13.82800000 3178168982 3178168982 -8.84300000
14.94739628 5.26674175 -2.01726103 2 8 6919 15.97600000 3178168984 3178168984 -7.25400000
40.60584641 18.94344711 0.26042023 9 9 6919 44.80800000 3178168984 3178168984 0.33300000
40.32774734 14.20164108 -0.24849418 16 10 6920 42.75600000 3178168987 3178168987 -0.33300000
15.96594143 6.51558018 -1.85749125 2 11 6920 17.34400000 3178168987 3178168987 -6.14800000
18.47377586 5.50376081 -1.79939711 4 12 6921 19.36000000 3178168989 3178168989 -5.33300000
40.33769226 16.45329475 1.01371455 14 13 6921 43.57600000 3178168989 3178168989 1.33300000
40.52317810 12.06508350 0.49223155 31 14 6922 42.28400000 3178168991 3178168991 0.66700000
20.27069855 8.26406574 -1.53073609 6 15 6922 21.94400000 3178168991 3178168991 -4.00000000
19.23413277 6.76208973 -1.66439164 5 16 6923 20.45600000 3178168994 3178168994 -4.66700000
40.68230057 18.94454002 1.30604863 18 17 6923 44.89600000 3178168994 3178168994 1.66700000
40.25048065 14.15074825 0.74472910 19 18 6923 42.67200000 3178168996 3178168996 1.00000000
20.61206818 9.59842968 -1.45720863 8 19 6923 22.78400000 3178168996 3178168996 -3.66700000
20.61929131 6.13120651 -1.25277960 19 20 6924 21.54800000 3178168998 3178168998 -3.33300000
39.98569870 16.28530693 2.51439643 13 21 6924 43.24800000 3178168998 3178168998 3.33300000
40.59018707 14.25425911 1.75269270 9 22 6925 43.05600000 3178169000 3178169000 2.33300000
20.67999840 8.41830635 -1.04006362 24 23 6925 22.35200000 3178169000 3178169000 -2.66700000
20.65847778 7.25069094 -1.14741349 30 24 6926 21.92400000 3178169003 3178169003 -3.00000000
43.70644760 17.78290176 5.79366875 9 25 6926 47.54000000 3178169003 3178169003 7.00000000
20.70555305 9.62437820 -0.93024278 25 27 6927 22.85200000 3178169005 3178169005 -2.33300000
20.68425179 6.13480854 -0.75341034 11 28 6928 21.58800000 3178169007 3178169007 -2.00000000
49.61941528 17.38619423 9.58618927 17 30 6929 53.44400000 3178169010 3178169010 10.33300000
34.67738724 14.08807659 -0.87097198 4 31 6929 37.44000000 3178169010 3178169010 -1.33300000
5.52774048 1.92929101 -2.73011398 6 0 6936 6.46000000 3178169030 3178169030 -25.00000000
38.74731445 17.93660927 -0.74528754 9 1 6936 42.70400000 3178169030 3178169030 -1.00000000
21.02418709 7.33374214 -0.64802074 2 2 6937 22.27600000 3178169033 3178169033 -1.66700000
8.21613312 3.32453847 -2.48117161 4 3 6937 9.20400000 3178169033 3178169033 -15.63900000
10.88146305 3.79358602 -2.30477047 4 4 6938 11.75200000 3178169035 3178169035 -11.31000000
40.39355469 16.33646011 0.00000000 22 5 6938 43.57200000 3178169035 3178169035 0.00000000
40.74087143 12.00614548 -0.49446666 10 6 6938 42.47600000 3178169037 3178169037 -0.66700000
12.66324615 5.12142611 -2.12512827 1 7 6938 13.82400000 3178169037 3178169037 -8.84300000
14.96568966 5.21453333 -2.01726103 2 8 6939 15.97600000 3178169040 3178169040 -7.25400000
40.67535782 18.80326843 0.26044348 18 9 6939 44.81200000 3178169040 3178169040 0.33300000
40.32796860 14.04368401 -0.24819197 16 10 6940 42.70400000 3178169042 3178169042 -0.33300000
15.98858738 6.45980883 -1.85749125 2 11 6940 17.34400000 3178169042 3178169042 -6.14800000
18.47759056 5.43474674 -1.79791009 4 12 6941 19.34400000 3178169044 3178169044 -5.33300000
40.34296417 16.29142570 1.01241183 14 13 6941 43.52000000 3178169044 3178169044 1.33300000
40.49213791 11.90212727 0.49134684 20 14 6942 42.20800000 3178169046 3178169046 0.66700000
20.30682182 8.19624424 -1.53129411 6 15 6942 21.95200000 3178169046 3178169046 -4.00000000
19.26138496 6.69621801 -1.66471708 5 16 6943 20.46000000 3178169049 3178169049 -4.66700000
40.72276688 18.79069138 1.30523407 27 17 6943 44.86800000 3178169049 3178169049 1.66700000
40.27318954 14.00096798 0.74424040 19 18 6943 42.64400000 3178169051 3178169051 1.00000000
20.60920143 9.50969601 -1.45465028 11 19 6943 22.74400000 3178169051 3178169051 -3.66700000
20.62140846 6.05357075 -1.25161684 19 20 6944 21.52800000 3178169053 3178169053 -3.33300000
40.04970932 16.14861679 2.51486158 13 21 6944 43.25600000 3178169053 3178169053 3.33300000
40.50000381 14.06397629 1.74666798 18 22 6945 42.90800000 3178169056 3178169056 2.33300000
20.67219734 8.33113194 -1.03820240 24 23 6945 22.31200000 3178169056 3178169056 -2.66700000
20.65347099 7.16805744 -1.14573872 30 24 6946 21.89200000 3178169058 3178169058 -3.00000000
43.72406006 17.61242867 5.78781891 29 25 6946 47.49200000 3178169058 3178169058 7.00000000
42.60755157 14.77917671 3.68157959 10 26 6947 45.24800000 3178169060 3178169060 4.66700000
20.70635033 9.53699589 -0.92877734 25 27 6947 22.81600000 3178169060 3178169060 -2.33300000
20.68635750 6.05695343 -0.75271237 16 28 6948 21.56800000 3178169063 3178169063 -2.00000000
49.65377426 17.20386696 9.58116722 17 30 6949 53.41600000 3178169065 3178169065 10.33300000
35.03057861 14.08930492 -0.87860227 4 31 6949 37.76800000 3178169065 3178169065 -1.33300000
5.53444099 1.90998387 -2.73011398 8 0 6956 6.46000000 3178169086 3178169086 -25.00000000
38.79514694 17.79457664 -0.74500835 9 1 6956 42.68800000 3178169086 3178169086 -1.00000000
21.16683197 7.30072403 -0.65162796 2 2 6957 22.40000000 3178169088 3178169088 -1.66700000
8.22053623 3.29297400 -2.47901511 3 3 6957 9.19600000 3178169088 3178169088 -15.63900000
10.89093113 3.75430107 -2.30398583 4 4 6958 11.74800000 3178169090 3178169090 -11.31000000
40.39091873 16.17157173 0.00000000 15 5 6958 43.50800000 3178169090 3178169090 0.00000000
40.61354828 11.81470203 -0.49241781 31 6 6958 42.30000000 3178169093 3178169093 -0.66700000
12.69205379 5.08159924 -2.12697291 1 7 6958 13.83600000 3178169093 3178169093 -8.84300000
14.99130440 5.16484690 -2.01827121 4 8 6959 15.98400000 3178169095 3178169095 -7.25400000
40.73710632 18.65950584 0.26042023 18 9 6959 44.80800000 3178169095 3178169095 0.33300000
40.32001495 13.88329411 -0.24784325 16 10 6960 42.64400000 3178169097 3178169097 -0.33300000
16.05904198 6.42315865 -1.86306024 2 11 6960 17.39600000 3178169097 3178169097 -6.14800000
18.47732544 5.36466265 -1.79605114 4 12 6961 19.32400000 3178169099 3178169099 -5.33300000
40.32532501 16.12081528 1.01055086 14 13 6961 43.44000000 3178169099 3178169099 1.33300000
40.47197723 11.74287796 0.49060181 20 14 6962 42.14400000 3178169102 3178169102 0.66700000
20.33530807 8.12530994 -1.53129411 6 15 6962 21.95200000 3178169102 3178169102 -4.00000000
19.28087234 6.62764645 -1.66439164 5 16 6963 20.45600000 3178169104 3178169104 -4.66700000
40.44993591 18.49381447 1.29441237 8 17 6963 44.49600000 3178169104 3178169104 1.66700000
40.27642822 13.84470177 0.74340272 19 18 6963 42.59600000 3178169106 3178169106 1.00000000
20.60596848 9.42110062 -1.45209193 11 19 6963 22.70400000 3178169106 3178169106 -3.66700000
20.62323761 5.97599459 -1.25045407 19 20 6964 21.50800000 3178169109 3178169109 -3.33300000
40.20225906 16.04720879 2.52090788 13 21 6964 43.36000000 3178169109 3178169109 3.33300000
40.51860809 13.91213608 1.74536538 18 22 6965 42.87600000 3178169111 3178169111 2.33300000
20.66775131 8.24559689 -1.03652728 24 23 6965 22.27600000 3178169111 3178169111 -2.66700000
20.65192032 7.08684397 -1.14427340 25 24 6966 21.86400000 3178169113 3178169113 -3.00000000
43.63776398 17.40087318 5.76831961 19 25 6966 47.33200000 3178169113 3178169113 7.00000000
42.71544647 14.64975834 3.68646145 31 26 6967 45.30800000 3178169116 3178169116 4.66700000
20.70679092 9.44972515 -0.92731184 27 27 6967 22.78000000 3178169116 3178169116 -2.33300000
20.69201279 5.98026800 -0.75215393 14 28 6968 21.55200000 3178169118 3178169118 -2.00000000
49.71427155 17.04039001 9.58188438 17 30 6968 53.42000000 3178169120 3178169120 10.33300000
35.32972717 14.07369328 -0.88492984 4 31 6968 38.04000000 3178169120 3178169120 -1.33300000
5.54107475 1.89065337 -2.73011398 7 0 6976 6.46000000 3178169141 3178169141 -25.00000000
38.85338211 17.65739250 -0.74493849 9 1 6976 42.68400000 3178169141 3178169141 -1.00000000
34.62652206 11.80806446 -1.06471360 7 2 6977 36.60000000 3178169143 3178169143 -1.66700000
8.23556232 3.26567864 -2.48009324 2 3 6977 9.20000000 3178169143 3178169143 -15.63900000
10.91882038 3.72132301 -2.30712390 4 4 6978 11.76400000 3178169146 3178169146 -11.31000000
40.38390732 16.00542831 0.00000000 22 5 6978 43.44000000 3178169146 3178169146 0.00000000
40.54124069 11.63267136 -0.49102089 21 6 6979 42.18000000 3178169148 3178169148 -0.66700000
12.70324421 5.03213501 -2.12574315 1 7 6979 13.82800000 3178169148 3178169148 -8.84300000
15.01675320 5.11504459 -2.01928139 4 8 6979 15.99200000 3178169150 3178169150 -7.25400000
40.32657623 13.72828674 -0.24758752 16 10 6980 42.60000000 3178169152 3178169152 -0.33300000
16.08506393 6.36852741 -1.86348867 2 11 6980 17.40000000 3178169152 3178169152 -6.14800000
18.51125336 5.30452013 -1.79753828 4 12 6981 19.34000000 3178169155 3178169155 -5.33300000
40.32185745 15.95641232 1.00906193 14 13 6981 43.37600000 3178169155 3178169155 1.33300000
40.47426987 11.59052181 0.49013618 20 14 6982 42.10400000 3178169157 3178169157 0.66700000
20.36354637 8.05427742 -1.53129411 6 15 6982 21.95200000 3178169157 3178169157 -4.00000000
19.30011559 6.55902052 -1.66406620 5 16 6983 20.45200000 3178169159 3178169159 -4.66700000
40.49239349 18.34260559 1.29371428 26 17 6983 44.47200000 3178169159 3178169159 1.66700000
40.28145981 13.68155384 0.74256498 19 18 6984 42.54800000 3178169162 3178169162 1.00000000
20.61126709 9.33234119 -1.45004535 8 19 6984 22.67200000 3178169162 3178169162 -3.66700000
20.62477493 5.89847946 -1.24929130 16 20 6984 21.48800000 3178169164 3178169164 -3.33300000
40.15032959 15.86422443 2.51416373 20 21 6984 43.24400000 3178169164 3178169164 3.33300000
40.56313705 13.76933002 1.74520254 18 22 6985 42.87200000 3178169166 3178169166 2.33300000
20.67410851 8.16459656 -1.03541052 24 23 6985 22.25200000 3178169166 3178169166 -2.66700000
20.64626884 7.00444555 -1.14259863 25 24 6986 21.83200000 3178169169 3178169169 -3.00000000
44.20047379 17.44668579 5.83461666 9 25 6986 47.87600000 3178169169 3178169169 7.00000000
42.72479248 14.48648262 3.68288159 31 26 6987 45.26400000 3178169171 3178169171 4.66700000
20.69959068 9.35927486 -0.92552072 26 27 6987 22.73600000 3178169171 3178169171 -2.33300000
20.68585205 5.90032721 -0.75117677 16 28 6988 21.52400000 3178169173 3178169173 -2.00000000
49.56847000 16.79728889 9.54242325 17 30 6988 53.20000000 3178169176 3178169176 10.33300000
35.51256561 14.00309277 -0.88827974 5 31 6988 38.18400000 3178169176 3178169176 -1.33300000
5.55451059 1.87361729 -2.73349500 6 0 6996 6.46800000 3178169196 3178169196 -25.00000000
38.92937088 17.52823067 -0.74521774 9 1 6996 42.70000000 3178169196 3178169196 -1.00000000
34.65616226 11.68329144 -1.06436443 7 2 6997 36.58800000 3178169199 3178169199 -1.66700000
8.25766754 3.24113345 -2.48332834 2 3 6997 9.21200000 3178169199 3178169199 -15.63900000
10.94661140 3.68819618 -2.31026173 4 4 6998 11.78000000 3178169201 3178169201 -11.31000000
40.38367462 15.84245205 0.00000000 22 5 6998 43.38000000 3178169201 3178169201 0.00000000
40.51617813 11.47255993 -0.49022931 21 6 6999 42.11200000 3178169203 3178169203 -0.66700000
12.72441196 4.98920441 -2.12635803 2 7 6999 13.83200000 3178169203 3178169203 -8.84300000
15.02323532 5.05879641 -2.01776624 2 8 6999 15.98000000 3178169205 3178169205 -7.25400000
40.34104919 18.13845062 0.25707257 18 9 6999 44.23200000 3178169205 3178169205 0.33300000
40.32876205 13.57212734 -0.24730855 24 10 7000 42.55200000 3178169208 3178169208 -0.33300000
16.10719681 6.31234121 -1.86348867 2 11 7000 17.40000000 3178169208 3178169208 -6.14800000
18.54881859 5.24529028 -1.79939711 4 12 7001 19.36000000 3178169210 3178169210 -5.33300000
40.31773376 15.79222965 1.00757313 14 13 7001 43.31200000 3178169210 3178169210 1.33300000
40.49523544 11.44373035 0.48990333 20 14 7002 42.08400000 3178169212 3178169212 0.66700000
20.38782310 7.98169184 -1.53101504 6 15 7002 21.94800000 3178169212 3178169212 -4.00000000
19.31911278 6.49034071 -1.66374075 5 16 7003 20.44800000 3178169215 3178169215 -4.66700000
40.32636261 18.09801292 1.28638339 17 17 7003 44.22000000 3178169215 3178169215 1.66700000
40.28111267 13.53261662 0.74172729 19 18 7003 42.50000000 3178169217 3178169217 1.00000000
20.60932541 9.24923038 -1.44774282 8 19 7003 22.63600000 3178169217 3178169217 -3.66700000
20.62602425 5.82102680 -1.24812853 19 20 7004 21.46800000 3178169219 3178169219 -3.33300000
40.16455078 15.70797825 2.51160574 13 21 7004 43.20000000 3178169219 3178169219 3.33300000
40.58822250 13.62002563 1.74422550 18 22 7005 42.84800000 3178169222 3178169222 2.33300000
20.67271233 8.08074284 -1.03392160 24 23 7005 22.22000000 3178169222 3178169222 -2.66700000
20.65165710 6.92598343 -1.14155185 25 24 7006 21.81200000 3178169224 3178169224 -3.00000000
44.31287384 17.31251717 5.84144115 9 25 7006 47.93200000 3178169224 3178169224 7.00000000
42.80155945 14.34612560 3.68515968 31 26 7007 45.29200000 3178169226 3178169226 4.66700000
20.69930840 9.27225780 -0.92405528 26 27 7007 22.70000000 3178169226 3178169226 -2.33300000
20.69092941 5.82375193 -0.75061840 16 28 7008 21.50800000 3178169229 3178169229 -2.00000000
49.62680054 16.62416077 9.54242325 17 30 7008 53.20000000 3178169231 3178169231 10.33300000
35.61338043 13.89939976 -0.88958246 5 31 7008 38.24000000 3178169231 3178169231 -1.33300000
5.56445599 1.85536373 -2.73518538 7 0 7016 6.47200000 3178169251 3178169251 -25.00000000
38.98666382 17.39060402 -0.74514794 18 1 7016 42.69600000 3178169251 3178169251 -1.00000000
34.56017685 11.51674271 -1.06017542 21 2 7017 36.44400000 3178169253 3178169253 -1.66700000
8.26534081 3.21089411 -2.48224998 2 3 7017 9.20800000 3178169253 3178169253 -15.63900000
10.95197582 3.64748406 -2.30869269 2 4 7018 11.77200000 3178169256 3178169256 -11.31000000
40.37533951 15.67677784 0.00000000 22 5 7018 43.31200000 3178169256 3178169256 0.00000000
40.50777435 11.32521725 -0.48967052 21 6 7018 42.06400000 3178169258 3178169258 -0.66700000
12.74088669 4.94698143 -2.12635803 1 7 7018 13.83200000 3178169258 3178169258 -8.84300000
15.05209732 5.01008415 -2.01928139 2 8 7019 15.99200000 3178169260 3178169260 -7.25400000
40.36027527 17.97799301 0.25679359 18 9 7019 44.18400000 3178169260 3178169260 0.33300000
40.32654953 13.41485786 -0.24700633 16 10 7020 42.50000000 3178169263 3178169263 -0.33300000
16.12542343 6.25463963 -1.86306024 2 11 7020 17.39600000 3178169263 3178169263 -6.14800000
18.56701660 5.18051100 -1.79939711 4 12 7021 19.36000000 3178169265 3178169265 -5.33300000
40.32041168 15.63116264 1.00627041 14 13 7021 43.25600000 3178169265 3178169265 1.33300000
40.48870087 11.28941536 0.48934457 20 14 7022 42.03600000 3178169267 3178169267 0.66700000
20.41183853 7.90903473 -1.53073609 6 15 7022 21.94400000 3178169267 3178169267 -4.00000000
19.35300255 6.42663431 -1.66471708 5 16 7023 20.46000000 3178169269 3178169269 -4.66700000
40.31256866 17.92302513 1.28393984 17 17 7023 44.13600000 3178169269 3178169269 1.66700000
40.26737595 13.37176037 0.74061030 19 18 7023 42.43600000 3178169272 3178169272 1.00000000
20.60500908 9.16101742 -1.44518459 8 19 7023 22.59600000 3178169272 3178169272 -3.66700000
20.62698174 5.74363708 -1.24696577 16 20 7024 21.44800000 3178169274 3178169274 -3.33300000
40.19679642 15.55903339 2.51021028 13 21 7024 43.17600000 3178169274 3178169274 3.33300000
40.50274658 13.43422508 1.73852658 18 22 7025 42.70800000 3178169276 3178169276 2.33300000
20.67843437 7.99988270 -1.03280485 24 23 7025 22.19600000 3178169276 3178169276 -2.66700000
20.64916611 6.84505510 -1.14008641 25 24 7026 21.78400000 3178169279 3178169279 -3.00000000
42.57132721 14.10385323 3.66107583 51 26 7027 44.99600000 3178169281 3178169281 4.66700000
20.69866943 9.18535709 -0.92258978 26 27 7027 22.66400000 3178169281 3178169281 -2.33300000
20.68031693 5.74293423 -0.74950159 14 28 7028 21.47600000 3178169283 3178169283 -2.00000000
49.64717102 16.43845940 9.53524876 17 30 7028 53.16000000 3178169286 3178169286 10.33300000
35.81089401 13.83263779 -0.89330459 5 31 7028 38.40000000 3178169286 3178169286 -1.33300000
5.55712605 1.83139014 -2.72842360 7 0 7036 6.45600000 3178169306 3178169306 -25.00000000
39.01420975 17.23986244 -0.74451965 18 1 7036 42.66000000 3178169306 3178169306 -1.00000000
34.49003601 11.35976124 -1.05680096 14 2 7037 36.32800000 3178169309 3178169309 -1.66700000
8.27290344 3.18064094 -2.48117161 2 3 7037 9.20400000 3178169309 3178169309 -15.63900000
10.91248226 3.59206295 -2.29771018 5 4 7038 11.71600000 3178169311 3178169311 -11.31000000
40.32153320 15.49413776 0.00000000 22 5 7038 43.19600000 3178169311 3178169311 0.00000000
40.50078964 11.17098808 -0.48911175 21 6 7038 42.01600000 3178169313 3178169313 -0.66700000
12.76545620 4.90531301 -2.12758780 1 7 7038 13.84000000 3178169313 3178169313 -8.84300000
15.06949329 4.95751190 -2.01928139 4 8 7039 15.99200000 3178169316 3178169316 -7.25400000
40.35691071 17.80793381 0.25637513 18 9 7039 44.11200000 3178169316 3178169316 0.33300000
40.19073868 13.21404266 -0.24589044 16 10 7040 42.30800000 3178169318 3178169318 -0.33300000
16.15087128 6.19973850 -1.86348867 2 11 7040 17.40000000 3178169318 3178169318 -6.14800000
18.57730675 5.11355448 -1.79865360 6 12 7041 19.35200000 3178169320 3178169320 -5.33300000
40.32992935 15.47313309 1.00515378 14 13 7041 43.20800000 3178169320 3178169320 1.33300000
40.48929596 11.13740635 0.48887894 30 14 7042 41.99600000 3178169322 3178169322 0.66700000
20.43932152 7.83773565 -1.53073609 6 15 7042 21.94400000 3178169322 3178169322 -4.00000000
19.37531662 6.35904074 -1.66471708 5 16 7043 20.46000000 3178169325 3178169325 -4.66700000
40.30170441 17.74996758 1.28161252 17 17 7043 44.05600000 3178169325 3178169325 1.66700000
40.28340912 13.22114182 0.74005187 19 18 7043 42.40400000 3178169327 3178169327 1.00000000
20.60763741 9.07616425 -1.44313788 8 19 7043 22.56400000 3178169327 3178169327 -3.66700000
20.61995125 5.66419649 -1.24533784 13 20 7044 21.42000000 3178169329 3178169329 -3.33300000
40.25831985 15.42148209 2.51067543 6 21 7044 43.18400000 3178169329 3178169329 3.33300000
40.54559326 13.29151726 1.73836374 18 22 7045 42.70400000 3178169332 3178169332 2.33300000
20.67638016 7.91622353 -1.03131580 26 23 7045 22.16400000 3178169332 3178169332 -2.66700000
20.66154671 6.76920366 -1.13945842 25 24 7046 21.77200000 3178169334 3178169334 -3.00000000
42.52557755 13.92415142 3.65293932 20 26 7047 44.89600000 3178169336 3178169336 4.66700000
20.69401932 9.09696579 -0.92096150 23 27 7047 22.62400000 3178169336 3178169336 -2.33300000
20.67325020 5.66331816 -0.74852443 11 28 7048 21.44800000 3178169339 3178169339 -2.00000000
