# .PCD v0.7 - Point Cloud Data file format
VERSION 0.7
FIELDS x y z intensity laser_id azimuth distance_m adjustedtime timestamp vertical_angle
SIZE 4 4 4 1 1 2 8 8 4 8
TYPE F F F U U U F U U F
COUNT 1 1 1 1 1 1 1 1 1 1
WIDTH 521
HEIGHT 1
VIEWPOINT 0 0 0 1 0 0 0
POINTS 521
DATA ascii
39.89050293 0.38989595 2.32323527 27 21 9084 39.96000000 3178875072 3178875072 3.33300000
39.78427505 -1.56312835 1.62210369 25 22 9085 39.84800000 3178875075 3178875075 2.33300000
20.58073425 0.19756694 -0.95872730 21 23 9085 20.60400000 3178875075 3178875075 -2.66700000
20.53581047 -0.81044388 -1.07707393 33 24 9086 20.58000000 3178875077 3178875077 -3.00000000
96.10595703 0.90580416 11.80085182 28 25 9086 96.83200000 3178875077 3178875077 7.00000000
20.59605026 1.19838107 -0.84052390 22 27 9087 20.64800000 3178875079 3178875079 -2.33300000
38.12631989 -3.38926911 -1.33665073 21 28 9088 38.30000000 3178875082 3178875082 -2.00000000
39.94360352 0.35555458 -0.92950201 25 31 9089 39.95600000 3178875084 3178875084 -1.33300000
5.90415716 -0.24229629 -2.75547099 7 0 9095 6.52000000 3178875105 3178875105 -25.00000000
40.00545120 2.27167416 -0.69942266 25 1 9095 40.07600000 3178875105 3178875105 -1.00000000
39.75340652 -1.63836038 -1.15791965 25 2 9096 39.80400000 3178875107 3178875107 -1.66700000
8.99010944 0.06904044 -2.51675558 2 3 9096 9.33600000 3178875107 3178875107 -15.63900000
11.85095501 -0.49048629 -2.37223482 4 4 9097 12.09600000 3178875109 3178875109 -11.31000000
40.26686478 0.30220512 0.00000000 19 5 9097 40.26800000 3178875109 3178875109 0.00000000
40.13332748 -3.63123226 -0.46913564 29 6 9097 40.30000000 3178875112 3178875112 -0.66700000
14.04267025 0.10539104 -2.18477464 2 7 9097 14.21200000 3178875112 3178875112 -8.84300000
16.36967468 -0.68036860 -2.08544588 2 8 9098 16.51600000 3178875114 3178875114 -7.25400000
39.98409653 2.24945903 0.23275551 16 9 9098 40.04800000 3178875114 3178875114 0.33300000
40.24428177 -1.67969894 -0.23410389 22 10 9099 40.28000000 3178875116 3178875116 -0.33300000
17.74489403 0.12698197 -1.91146815 4 11 9099 17.84800000 3178875116 3178875116 -6.14800000
20.13687515 -1.83259928 -1.88750815 6 12 9100 20.30800000 3178875118 3178875118 -5.33300000
40.15215302 0.28031945 0.93434078 18 13 9100 40.16400000 3178875118 3178875118 1.33300000
40.05908585 -3.65271211 0.46829748 25 14 9101 40.22800000 3178875121 3178875121 0.66700000
20.51343155 0.13963266 -1.43447208 28 15 9101 20.56400000 3178875121 3178875121 -4.00000000
20.46160698 -0.86475050 -1.67187715 30 16 9102 20.54800000 3178875123 3178875123 -4.66700000
39.69794464 2.20555949 1.15710509 22 17 9102 39.77600000 3178875123 3178875123 1.66700000
40.07411957 -1.69361651 0.70012075 25 18 9102 40.11600000 3178875125 3178875125 1.00000000
20.51022530 1.13951802 -1.31650198 33 19 9102 20.58400000 3178875125 3178875125 -3.66700000
20.50339890 -1.87678039 -1.19905913 18 20 9103 20.62400000 3178875128 3178875128 -3.33300000
39.94348526 0.25794736 2.32625842 28 21 9103 40.01200000 3178875128 3178875128 3.33300000
39.80282974 -1.69607008 1.62308073 25 22 9104 39.87200000 3178875130 3178875130 2.33300000
20.57728004 0.12929256 -0.95854115 21 23 9104 20.60000000 3178875130 3178875130 -2.66700000
20.54099083 -0.87888014 -1.07749271 33 24 9105 20.58800000 3178875132 3178875132 -3.00000000
95.48909760 0.58331698 11.72480583 28 25 9105 96.20800000 3178875132 3178875132 7.00000000
20.59193039 1.12963772 -0.84019828 22 27 9106 20.64000000 3178875135 3178875135 -2.33300000
37.99544907 -3.50466681 -1.33246279 14 28 9107 38.18000000 3178875137 3178875137 -2.00000000
39.98851013 0.23031984 -0.93052560 36 31 9107 40.00000000 3178875139 3178875139 -1.33300000
5.89598608 -0.26361063 -2.75209022 8 0 9116 6.51200000 3178875160 3178875160 -25.00000000
40.10536575 2.12990975 -0.70102829 17 1 9116 40.16800000 3178875160 3178875160 -1.00000000
39.72716522 -1.78315651 -1.15733778 25 2 9117 39.78400000 3178875162 3178875162 -1.66700000
8.99415398 0.03610504 -2.51783395 2 3 9117 9.34000000 3178875162 3178875162 -15.63900000
11.84907818 -0.53391892 -2.37223482 3 4 9118 12.09600000 3178875165 3178875165 -11.31000000
40.26370239 0.15460227 0.00000000 19 5 9118 40.26400000 3178875165 3178875165 0.00000000
40.22262192 -3.79507446 -0.47034633 29 6 9119 40.40400000 3178875167 3178875167 -0.66700000
14.05087662 0.05149938 -2.18600440 3 7 9119 14.22000000 3178875167 3178875167 -8.84300000
16.38292694 -0.74107915 -2.08746624 2 8 9119 16.53200000 3178875169 3178875169 -7.25400000
40.05199051 2.10604548 0.23310423 16 9 9119 40.10800000 3178875169 3178875169 0.33300000
40.23386002 -1.82700884 -0.23408064 15 10 9120 40.27600000 3178875171 3178875171 -0.33300000
17.75717163 0.06198447 -1.91275334 4 11 9120 17.86000000 3178875171 3178875171 -6.14800000
20.13795280 -1.90714324 -1.88825166 6 12 9121 20.31600000 3178875174 3178875174 -5.33300000
39.92097473 0.13238345 0.92894369 18 13 9121 39.93200000 3178875174 3178875174 1.33300000
40.07728577 -3.80253386 0.46867001 17 14 9122 40.26000000 3178875176 3178875176 0.66700000
20.50582504 0.06442116 -1.43391407 29 15 9122 20.55600000 3178875176 3178875176 -4.00000000
20.46626472 -0.94010609 -1.67252815 32 16 9123 20.55600000 3178875178 3178875178 -4.66700000
39.78162766 2.06398058 1.15931594 22 17 9123 39.85200000 3178875178 3178875178 1.66700000
40.17918396 -1.85263515 0.70207542 17 18 9124 40.22800000 3178875181 3178875181 1.00000000
20.51046371 1.06055009 -1.31624615 36 19 9124 20.58000000 3178875181 3178875181 -3.66700000
20.50035667 -1.95229506 -1.19929171 18 20 9124 20.62800000 3178875183 3178875183 -3.33300000
39.99208069 0.11167926 2.32904911 16 21 9124 40.06000000 3178875183 3178875183 3.33300000
39.94007492 -1.84859574 1.62894249 25 22 9125 40.01600000 3178875185 3178875185 2.33300000
20.56562996 0.05384082 -0.95798278 18 23 9125 20.58800000 3178875185 3178875185 -2.66700000
20.53763199 -0.95416075 -1.07749271 30 24 9126 20.58800000 3178875188 3178875188 -3.00000000
95.53426361 0.23343472 11.73016834 28 25 9126 96.25200000 3178875188 3178875188 7.00000000
20.58794975 1.05374825 -0.83987260 26 27 9127 20.63200000 3178875190 3178875190 -2.33300000
38.02612305 -3.64810276 -1.33399832 14 28 9128 38.22400000 3178875192 3178875192 -2.00000000
40.02108002 0.08382007 -0.93127000 42 31 9128 40.03200000 3178875195 3178875195 -1.33300000
5.89865112 -0.28436443 -2.75378060 8 0 9136 6.51600000 3178875215 3178875215 -25.00000000
40.04464722 1.98653436 -0.69984150 17 1 9136 40.10000000 3178875215 3178875215 -1.00000000
39.72469330 -1.92201257 -1.15745413 25 2 9137 39.78800000 3178875218 3178875218 -1.66700000
8.99037361 0.00470735 -2.51675558 2 3 9137 9.33600000 3178875218 3178875218 -15.63900000
11.85105991 -0.57546687 -2.37301922 3 4 9138 12.10000000 3178875220 3178875220 -11.31000000
40.24799728 0.01404920 0.00000000 19 5 9138 40.24800000 3178875220 3178875220 0.00000000
40.09368896 -3.92415595 -0.46899596 29 6 9139 40.28800000 3178875222 3178875222 -0.66700000
14.05097103 0.00245236 -2.18600440 3 7 9139 14.22000000 3178875222 3178875222 -8.84300000
16.38420486 -0.79845488 -2.08797145 2 8 9139 16.53600000 3178875224 3178875224 -7.25400000
40.01515198 1.96406806 0.23284851 25 9 9139 40.06400000 3178875224 3178875224 0.33300000
40.24721146 -1.96841705 -0.23419687 22 10 9140 40.29600000 3178875227 3178875227 -0.33300000
17.77318764 0.00000000 -1.91446686 4 11 9140 17.87600000 3178875227 3178875227 -6.14800000
20.14702797 -1.97898352 -1.88973880 6 12 9141 20.33200000 3178875229 3178875229 -5.33300000
40.14513397 -0.00700665 0.93415463 18 13 9141 40.15600000 3178875229 3178875229 1.33300000
39.94037247 -3.93026400 0.46722651 17 14 9142 40.13600000 3178875231 3178875231 0.66700000
20.50592613 -0.00715792 -1.43391407 29 15 9142 20.55600000 3178875231 3178875231 -4.00000000
20.46684074 -1.01173782 -1.67285359 32 16 9143 20.56000000 3178875234 3178875234 -4.66700000
39.78858948 1.92510414 1.15931594 22 17 9143 39.85200000 3178875234 3178875234 1.66700000
40.18879700 -1.98665380 0.70235467 17 18 9143 40.24400000 3178875236 3178875236 1.00000000
20.51785469 0.99272197 -1.31650198 33 19 9143 20.58400000 3178875236 3178875236 -3.66700000
20.50136566 -2.02462769 -1.19975686 18 20 9144 20.63600000 3178875238 3178875238 -3.33300000
40.02816772 -0.02794494 2.33114219 16 21 9144 40.09600000 3178875238 3178875238 3.33300000
39.95732880 -1.98919368 1.62991953 25 22 9145 40.04000000 3178875241 3178875241 2.33300000
20.56169701 -0.01794347 -0.95779663 20 23 9145 20.58400000 3178875241 3178875241 -2.66700000
20.53417587 -1.02584469 -1.07749271 30 24 9146 20.58800000 3178875243 3178875243 -3.00000000
20.59150124 0.98187649 -0.83987260 22 27 9147 20.63200000 3178875245 3178875245 -2.33300000
38.15636063 -3.79505992 -1.33902395 14 28 9148 38.36800000 3178875248 3178875248 -2.00000000
40.08510971 -0.05596941 -0.93275887 26 31 9148 40.09600000 3178875250 3178875250 -1.33300000
5.90124321 -0.30514002 -2.75547099 8 0 9156 6.52000000 3178875271 3178875271 -25.00000000
40.00739288 1.84471393 -0.69907361 25 1 9156 40.05600000 3178875271 3178875271 -1.00000000
39.72972107 -2.06128740 -1.15780330 25 2 9157 39.80000000 3178875273 3178875273 -1.66700000
8.99418736 -0.02668637 -2.51783395 2 3 9157 9.34000000 3178875273 3178875273 -15.63900000
11.84506226 -0.61662740 -2.37223482 3 4 9158 12.09600000 3178875276 3178875276 -11.31000000
40.24780273 -0.12644261 0.00000000 19 5 9158 40.24800000 3178875276 3178875276 0.00000000
40.08841705 -4.05789518 -0.46908909 19 6 9158 40.29600000 3178875278 3178875278 -0.66700000
14.04694939 -0.04412994 -2.18538952 3 7 9158 14.21600000 3178875278 3178875278 -8.84300000
16.39320564 -0.85626245 -2.08948660 2 8 9159 16.54800000 3178875280 3178875280 -7.25400000
40.10167694 1.82802010 0.23331346 16 9 9159 40.14400000 3178875280 3178875280 0.33300000
40.19216156 -2.10638189 -0.23391791 22 10 9160 40.24800000 3178875283 3178875283 -0.33300000
17.78103256 -0.06206777 -1.91532362 4 11 9160 17.88400000 3178875283 3178875283 -6.14800000
20.17169571 -2.05252314 -1.89271295 6 12 9161 20.36400000 3178875285 3178875285 -5.33300000
40.12886810 -0.14708064 0.93378246 18 13 9161 40.14000000 3178875285 3178875285 1.33300000
40.00598907 -4.07776976 0.46815780 17 14 9162 40.21600000 3178875287 3178875287 0.66700000
20.50577545 -0.07873691 -1.43391407 31 15 9162 20.55600000 3178875287 3178875287 -4.00000000
20.45522118 -1.08275282 -1.67220271 32 16 9163 20.55200000 3178875289 3178875289 -4.66700000
39.79506683 1.78620434 1.15931594 22 17 9163 39.85200000 3178875289 3178875289 1.66700000
39.77824402 -2.10557508 0.69530386 25 18 9163 39.84000000 3178875292 3178875292 1.00000000
20.51321983 0.92073727 -1.31599033 33 19 9163 20.57600000 3178875292 3178875292 -3.66700000
20.50211716 -2.09699106 -1.20022190 18 20 9164 20.64400000 3178875294 3178875294 -3.33300000
39.95594788 -0.16736807 2.32695627 16 21 9164 40.02400000 3178875294 3178875294 3.33300000
39.77852631 -2.11951447 1.62291789 25 22 9165 39.86800000 3178875296 3178875296 2.33300000
20.55751228 -0.08969964 -0.95761055 20 23 9165 20.58000000 3178875296 3178875296 -2.66700000
20.53446007 -1.09772933 -1.07770205 27 24 9166 20.59200000 3178875299 3178875299 -3.00000000
20.59480476 0.90999275 -0.83987260 22 27 9167 20.63200000 3178875301 3178875301 -2.33300000
38.13492966 -3.92740822 -1.33874464 14 28 9168 38.36000000 3178875303 3178875303 -2.00000000
40.06867599 -0.19581404 -0.93238664 21 31 9168 40.08000000 3178875306 3178875306 -1.33300000
5.90387487 -0.32387638 -2.75716162 9 0 9174 6.52400000 3178875326 3178875326 -25.00000000
39.93707275 1.71575654 -0.69774723 16 1 9174 39.98000000 3178875326 3178875326 -1.00000000
39.75498581 -2.18784928 -1.15873420 25 2 9175 39.83200000 3178875329 3178875329 -1.66700000
8.99405861 -0.05494226 -2.51783395 2 3 9175 9.34000000 3178875329 3178875329 -15.63900000
11.85481548 -0.65448529 -2.37458825 3 4 9176 12.10800000 3178875331 3178875331 -11.31000000
40.24720383 -0.25288397 0.00000000 19 5 9176 40.24800000 3178875331 3178875331 0.00000000
40.05160141 -4.18132496 -0.46880969 29 6 9176 40.27200000 3178875333 3178875333 -0.66700000
14.05464554 -0.08830911 -2.18661928 3 7 9176 14.22400000 3178875333 3178875333 -8.84300000
16.40231895 -0.90841722 -2.09100175 2 8 9177 16.56000000 3178875336 3178875336 -7.25400000
40.03928757 1.69914508 0.23291825 16 9 9177 40.07600000 3178875336 3178875336 0.33300000
40.24924850 -2.23618889 -0.23428987 22 10 9178 40.31200000 3178875338 3178875338 -0.33300000
17.79268074 -0.11800726 -1.91660881 4 11 9178 17.89600000 3178875338 3178875338 -6.14800000
20.16910744 -2.11629963 -1.89308476 6 12 9179 20.36800000 3178875340 3178875340 -5.33300000
39.92426682 -0.27176008 0.92903680 18 13 9179 39.93600000 3178875340 3178875340 1.33300000
39.99695969 -4.20384979 0.46820438 17 14 9180 40.22000000 3178875342 3178875342 0.66700000
20.50542641 -0.14315721 -1.43391407 29 15 9180 20.55600000 3178875342 3178875342 -4.00000000
20.45569992 -1.14723253 -1.67252815 30 16 9181 20.55600000 3178875345 3178875345 -4.66700000
39.63669586 1.65433967 1.15454507 22 17 9181 39.68800000 3178875345 3178875345 1.66700000
40.17873001 -2.25337434 0.70242447 17 18 9181 40.24800000 3178875347 3178875347 1.00000000
20.51601028 0.85628867 -1.31599033 29 19 9181 20.57600000 3178875347 3178875347 -3.66700000
20.50337029 -2.16222739 -1.20068705 18 20 9182 20.65200000 3178875349 3178875349 -3.33300000
40.02310944 -0.29338998 2.33090973 22 21 9182 40.09200000 3178875349 3178875349 3.33300000
39.80359650 -2.24627328 1.62422049 25 22 9183 39.90000000 3178875352 3178875352 2.33300000
20.57311249 -0.15440238 -0.95835501 20 23 9183 20.59600000 3178875352 3178875352 -2.66700000
20.53090858 -1.16223466 -1.07770205 30 24 9184 20.59200000 3178875354 3178875354 -3.00000000
20.58558083 0.84479630 -0.83938414 24 27 9185 20.62000000 3178875356 3178875356 -2.33300000
40.05586624 -0.32159600 -0.93210751 26 31 9186 40.06800000 3178875361 3178875361 -1.33300000
5.90258789 -0.34654319 -2.75716162 7 0 9196 6.52400000 3178875382 3178875382 -25.00000000
40.09522629 1.56833708 -0.70039999 17 1 9196 40.13200000 3178875382 3178875382 -1.00000000
39.81414413 -2.34447646 -1.16071236 25 2 9197 39.90000000 3178875384 3178875384 -1.66700000
9.00533676 -0.08959144 -2.52106881 2 3 9197 9.35200000 3178875384 3178875384 -15.63900000
11.85613060 -0.70023084 -2.37537265 4 4 9198 12.11200000 3178875386 3178875386 -11.31000000
40.24193954 -0.40737942 0.00000000 19 5 9198 40.24400000 3178875386 3178875386 0.00000000
40.10682678 -4.34283113 -0.46964785 29 6 9198 40.34400000 3178875389 3178875389 -0.66700000
14.07396412 -0.14247434 -2.18969369 5 7 9198 14.24400000 3178875389 3178875389 -8.84300000
16.39871025 -0.97139072 -2.09100175 2 8 9199 16.56000000 3178875391 3178875391 -7.25400000
40.12145615 1.54832387 0.23335996 16 9 9199 40.15200000 3178875391 3178875391 0.33300000
40.23637009 -2.39048100 -0.23426662 22 10 9200 40.30800000 3178875393 3178875393 -0.33300000
17.80402756 -0.18645015 -1.91789389 4 11 9200 17.90800000 3178875393 3178875393 -6.14800000
20.17271233 -2.19502020 -1.89420009 6 12 9201 20.38000000 3178875395 3178875395 -5.33300000
39.89094162 -0.42471528 0.92829233 18 13 9201 39.90400000 3178875395 3178875395 1.33300000
39.94473648 -4.35349560 0.46778530 17 14 9202 40.18400000 3178875398 3178875398 0.66700000
20.50472641 -0.22189115 -1.43391407 31 15 9202 20.55600000 3178875398 3178875398 -4.00000000
20.45910263 -1.22624516 -1.67317903 35 16 9203 20.56400000 3178875400 3178875400 -4.66700000
39.59081268 1.50016582 1.15303242 22 17 9203 39.63600000 3178875400 3178875400 1.66700000
40.18133926 -2.41536331 0.70263386 17 18 9204 40.26000000 3178875402 3178875402 1.00000000
20.50332642 0.77332360 -1.31496704 31 19 9204 20.56000000 3178875402 3178875402 -3.66700000
20.49888802 -2.24137259 -1.20091963 18 20 9204 20.65600000 3178875405 3178875405 -3.33300000
39.86196899 -0.44528097 2.32160735 11 21 9204 39.93200000 3178875405 3178875405 3.33300000
39.80265427 -2.39957213 1.62454617 25 22 9205 39.90800000 3178875407 3178875407 2.33300000
20.56837273 -0.23335078 -0.95816892 20 23 9205 20.59200000 3178875407 3178875407 -2.66700000
20.53028297 -1.24129999 -1.07791138 30 24 9206 20.59600000 3178875409 3178875409 -3.00000000
20.58467865 0.76559871 -0.83922130 24 27 9207 20.61600000 3178875412 3178875412 -2.33300000
40.09032440 -0.47582388 -0.93294495 21 31 9208 40.10400000 3178875416 3178875416 -1.33300000
5.89772415 -0.36691985 -2.75547099 8 0 9216 6.52000000 3178875437 3178875437 -25.00000000
40.14841843 1.43007743 -0.70123768 25 1 9216 40.18000000 3178875437 3178875437 -1.00000000
39.82966232 -2.48493338 -1.16141045 25 2 9217 39.92400000 3178875439 3178875439 -1.66700000
8.99341488 -0.12087009 -2.51783395 2 3 9217 9.34000000 3178875439 3178875439 -15.63900000
11.85752869 -0.74185711 -2.37615705 3 4 9218 12.11600000 3178875441 3178875441 -11.31000000
40.25626755 -0.54806530 0.00000000 19 5 9218 40.26000000 3178875441 3178875441 0.00000000
40.05884171 -4.48623943 -0.46927536 29 6 9219 40.31200000 3178875444 3178875444 -0.66700000
14.07730007 -0.19411154 -2.19030881 3 7 9219 14.24800000 3178875444 3178875444 -8.84300000
16.40710068 -1.02937233 -2.09251690 2 8 9219 16.57200000 3178875446 3178875446 -7.25400000
40.12261963 1.40812409 0.23333672 16 9 9219 40.14800000 3178875446 3178875446 0.33300000
40.23177338 -2.53116870 -0.23428987 15 10 9220 40.31200000 3178875448 3178875448 -0.33300000
17.80724525 -0.24865219 -1.91832232 4 11 9220 17.91200000 3178875448 3178875448 -6.14800000
20.18471527 -2.26764584 -1.89605904 4 12 9221 20.40000000 3178875451 3178875451 -5.33300000
40.18510437 -0.56814140 0.93517822 12 13 9221 40.20000000 3178875451 3178875451 1.33300000
39.79813385 -4.47814369 0.46624866 25 14 9222 40.05200000 3178875453 3178875453 0.66700000
20.49983597 -0.29340753 -1.43363500 28 15 9222 20.55200000 3178875453 3178875453 -4.00000000
20.46265602 -1.29815817 -1.67382991 35 16 9223 20.57200000 3178875455 3178875455 -4.66700000
39.67173004 1.36457038 1.15524328 22 17 9223 39.71200000 3178875455 3178875455 1.66700000
40.17709732 -2.54884934 0.70270371 17 18 9223 40.26400000 3178875458 3178875458 1.00000000
20.50976944 0.70546514 -1.31522286 29 19 9223 20.56400000 3178875458 3178875458 -3.66700000
20.50284195 -2.31425714 -1.20161724 18 20 9224 20.66800000 3178875460 3178875460 -3.33300000
40.37923431 -0.59203291 2.35183978 5 21 9224 40.45200000 3178875460 3178875460 3.33300000
39.74218369 -2.53518724 1.62242937 25 22 9225 39.85600000 3178875462 3178875462 2.33300000
20.56343651 -0.30508712 -0.95798278 20 23 9225 20.58800000 3178875462 3178875462 -2.66700000
20.52582359 -1.31295657 -1.07791138 30 24 9226 20.59600000 3178875465 3178875465 -3.00000000
20.57923698 0.69347095 -0.83889562 24 27 9227 20.60800000 3178875467 3178875467 -2.33300000
37.97254944 -4.31299925 -1.33455670 14 28 9228 38.24000000 3178875469 3178875469 -2.00000000
40.04032898 -0.62201369 -0.93182832 26 31 9229 40.05600000 3178875471 3178875471 -1.33300000
5.89640713 -0.38750452 -2.75547099 8 0 9236 6.52000000 3178875492 3178875492 -25.00000000
39.94930267 1.28337550 -0.69767737 25 1 9236 39.97600000 3178875492 3178875492 -1.00000000
39.85665131 -2.62631583 -1.16245770 33 2 9237 39.96000000 3178875494 3178875494 -1.66700000
8.99678898 -0.15232743 -2.51891208 2 3 9237 9.34400000 3178875494 3178875494 -15.63900000
11.85878086 -0.78350168 -2.37694168 3 4 9238 12.12000000 3178875497 3178875497 -11.31000000
40.23811340 -0.68830895 0.00000000 13 5 9238 40.24400000 3178875497 3178875497 0.00000000
40.04690933 -4.62650251 -0.46932191 29 6 9239 40.31600000 3178875499 3178875499 -0.66700000
14.08444023 -0.24338588 -2.19153857 2 7 9239 14.25600000 3178875499 3178875499 -8.84300000
16.41924477 -1.08768678 -2.09453726 2 8 9239 16.58800000 3178875501 3178875501 -7.25400000
40.12329483 1.26793504 0.23331346 25 9 9239 40.14400000 3178875501 3178875501 0.33300000
40.22269440 -2.67158842 -0.23428987 15 10 9240 40.31200000 3178875504 3178875504 -0.33300000
17.81024361 -0.31087896 -1.91875076 4 11 9240 17.91600000 3178875504 3178875504 -6.14800000
20.18854523 -2.33946514 -1.89717436 6 12 9241 20.41200000 3178875506 3178875506 -5.33300000
39.88300323 -0.70312345 0.92819929 18 13 9241 39.90000000 3178875506 3178875506 1.33300000
39.93323898 -4.63455963 0.46801811 17 14 9242 40.20400000 3178875508 3178875508 0.66700000
20.49070930 -0.36482146 -1.43307698 26 15 9242 20.54400000 3178875508 3178875508 -4.00000000
20.46197701 -1.36984456 -1.67415535 32 16 9243 20.57600000 3178875511 3178875511 -4.66700000
39.61231232 1.22410595 1.15338147 44 17 9243 39.64800000 3178875511 3178875511 1.66700000
40.18790817 -2.69041395 0.70305276 17 18 9243 40.28400000 3178875513 3178875513 1.00000000
20.50412560 0.63362175 -1.31471121 31 19 9243 20.55600000 3178875513 3178875513 -3.66700000
20.49860573 -2.38627315 -1.20184982 18 20 9244 20.67200000 3178875515 3178875515 -3.33300000
40.24117661 -0.73051488 2.34393287 11 21 9244 40.31600000 3178875515 3178875515 3.33300000
39.80088425 -2.67845988 1.62519741 25 22 9245 39.92400000 3178875518 3178875518 2.33300000
20.55825233 -0.37679181 -0.95779663 21 23 9245 20.58400000 3178875518 3178875518 -2.66700000
20.52510262 -1.38486588 -1.07812071 30 24 9246 20.60000000 3178875520 3178875520 -3.00000000
87.58380890 -5.92479467 7.16625738 28 26 9247 88.07600000 3178875522 3178875522 4.66700000
20.58153343 0.62163174 -0.83889562 24 27 9247 20.60800000 3178875522 3178875522 -2.33300000
37.95329285 -4.44505692 -1.33441710 14 28 9248 38.23600000 3178875524 3178875524 -2.00000000
39.96607971 -0.75343204 -0.93015337 20 31 9248 39.98400000 3178875527 3178875527 -1.33300000
5.90225172 -0.40858516 -2.75885201 7 0 9256 6.52800000 3178875547 3178875547 -25.00000000
39.89757156 1.14231610 -0.69670004 16 1 9256 39.92000000 3178875547 3178875547 -1.00000000
39.87516403 -2.76736307 -1.16327226 25 2 9257 39.98800000 3178875550 3178875550 -1.66700000
9.01160717 -0.18404578 -2.52322531 2 3 9257 9.36000000 3178875550 3178875550 -15.63900000
11.87162495 -0.82598072 -2.38007951 3 4 9258 12.13600000 3178875552 3178875552 -11.31000000
40.23546600 -0.82876199 0.00000000 19 5 9258 40.24400000 3178875552 3178875552 0.00000000
40.00751877 -4.75644445 -0.46904251 19 6 9258 40.29200000 3178875554 3178875554 -0.66700000
14.08750725 -0.29017162 -2.19215345 3 7 9258 14.26000000 3178875554 3178875554 -8.84300000
16.42326546 -1.14554620 -2.09554744 2 8 9259 16.59600000 3178875557 3178875557 -7.25400000
40.06349945 1.12607276 0.23294149 16 9 9259 40.08000000 3178875557 3178875557 0.33300000
40.22509384 -2.81281257 -0.23435961 22 10 9260 40.32400000 3178875559 3178875559 -0.33300000
17.82495499 -0.37337959 -1.92046428 4 11 9260 17.93200000 3178875559 3178875559 -6.14800000
20.20002937 -2.41228342 -1.89903319 6 12 9261 20.43200000 3178875561 3178875561 -5.33300000
40.08420563 -0.84664357 0.93294495 12 13 9261 40.10400000 3178875561 3178875561 1.33300000
39.87710190 -4.76917458 0.46755245 17 14 9262 40.16400000 3178875564 3178875564 0.66700000
20.48930931 -0.43634516 -1.43307698 28 15 9262 20.54400000 3178875564 3178875564 -4.00000000
20.45309448 -1.44098163 -1.67382991 32 16 9263 20.57200000 3178875566 3178875566 -4.66700000
39.54839706 1.08396339 1.15140331 22 17 9263 39.58000000 3178875566 3178875566 1.66700000
40.18226242 -2.83096051 0.70312256 17 18 9263 40.28800000 3178875568 3178875568 1.00000000
20.51020432 0.56215453 -1.31496704 29 19 9263 20.56000000 3178875568 3178875568 -3.66700000
20.50204659 -2.45923877 -1.20254755 18 20 9264 20.68400000 3178875571 3178875571 -3.33300000
40.41004944 -0.87469417 2.35393262 11 21 9264 40.48800000 3178875571 3178875571 3.33300000
39.84710693 -2.82132649 1.62747705 25 22 9265 39.98000000 3178875573 3178875573 2.33300000
20.55681038 -0.44855121 -0.95779663 21 23 9265 20.58400000 3178875573 3178875573 -2.66700000
20.52014351 -1.45650351 -1.07812071 30 24 9266 20.60000000 3178875575 3178875575 -3.00000000
87.55861664 -6.23020029 7.16593170 28 26 9267 88.07200000 3178875577 3178875577 4.66700000
20.58357811 0.54978502 -0.83889562 22 27 9267 20.60800000 3178875577 3178875577 -2.33300000
38.00104523 -4.58517361 -1.33665073 14 28 9268 38.30000000 3178875580 3178875580 -2.00000000
39.90307999 -0.89855957 -0.92875761 25 31 9269 39.92400000 3178875582 3178875582 -1.33300000
5.89717388 -0.42892238 -2.75716162 7 0 9276 6.52400000 3178875603 3178875603 -25.00000000
40.06923676 1.00726187 -0.69963205 17 1 9276 40.08800000 3178875603 3178875603 -1.00000000
39.90513611 -2.90944386 -1.16443586 25 2 9277 40.02800000 3178875605 3178875605 -1.66700000
9.01091003 -0.21550103 -2.52322531 2 3 9277 9.36000000 3178875605 3178875605 -15.63900000
11.86475754 -0.86712950 -2.37929487 4 4 9278 12.13200000 3178875607 3178875607 -11.31000000
40.22832870 -0.96910858 0.00000000 19 5 9278 40.24000000 3178875607 3178875607 0.00000000
39.92715073 -4.88829088 -0.46829748 19 6 9278 40.22800000 3178875610 3178875610 -0.66700000
14.09431171 -0.33953482 -2.19338322 3 7 9278 14.26800000 3178875610 3178875610 -8.84300000
16.42312241 -1.20315695 -2.09605241 2 8 9279 16.60000000 3178875612 3178875612 -7.25400000
40.05918884 0.98602140 0.23289500 16 9 9279 40.07200000 3178875612 3178875612 0.33300000
40.22300720 -2.95379305 -0.23440610 22 10 9280 40.33200000 3178875614 3178875614 -0.33300000
17.83944702 -0.43598667 -1.92217779 4 11 9280 17.94800000 3178875614 3178875614 -6.14800000
20.20334435 -2.48423815 -1.90014851 6 12 9281 20.44400000 3178875617 3178875617 -5.33300000
40.17695236 -0.98891997 0.93517822 12 13 9281 40.20000000 3178875617 3178875617 1.33300000
39.52278137 -4.86679220 0.46359450 16 14 9282 39.82400000 3178875619 3178875619 0.66700000
20.49165154 -0.50796247 -1.43335605 22 15 9282 20.54800000 3178875619 3178875619 -4.00000000
20.45191574 -1.51266158 -1.67415535 30 16 9283 20.57600000 3178875621 3178875621 -4.66700000
39.81175613 0.95212078 1.15896690 15 17 9283 39.84000000 3178875621 3178875621 1.66700000
40.15618134 -2.97002554 0.70284331 25 18 9283 40.27200000 3178875624 3178875624 1.00000000
20.50006866 0.49027079 -1.31419957 31 19 9283 20.54800000 3178875624 3178875624 -3.66700000
20.49729919 -2.53127885 -1.20278001 18 20 9284 20.68800000 3178875626 3178875626 -3.33300000
40.62630844 -1.02126551 2.36672330 17 21 9284 40.70800000 3178875626 3178875626 3.33300000
39.82107162 -2.95921683 1.62682581 25 22 9285 39.96400000 3178875628 3178875628 2.33300000
20.55911446 -0.52040625 -0.95798278 21 23 9285 20.58800000 3178875628 3178875628 -2.66700000
20.51891708 -1.52841997 -1.07833004 30 24 9286 20.60400000 3178875630 3178875630 -3.00000000
87.73114014 -6.55034399 7.18187952 28 26 9287 88.26800000 3178875633 3178875633 4.66700000
20.57338333 0.47765326 -0.83840716 20 27 9287 20.59600000 3178875633 3178875633 -2.33300000
38.06415176 -4.72764826 -1.33944273 7 28 9288 38.38000000 3178875635 3178875635 -2.00000000
39.95166779 -1.03919363 -0.92996728 30 31 9289 39.97600000 3178875637 3178875637 -1.33300000
5.89925575 -0.44978037 -2.75885201 7 0 9296 6.52800000 3178875658 3178875658 -25.00000000
40.00853348 0.86600316 -0.69851512 25 1 9296 40.02400000 3178875658 3178875658 -1.00000000
39.92663193 -3.05115843 -1.16536677 25 2 9297 40.06000000 3178875660 3178875660 -1.66700000
9.01395321 -0.24705920 -2.52430367 2 3 9297 9.36400000 3178875660 3178875660 -15.63900000
11.86556911 -0.90883952 -2.38007951 3 4 9298 12.13600000 3178875663 3178875663 -11.31000000
40.22869873 -1.10963607 0.00000000 19 5 9298 40.24400000 3178875663 3178875663 0.00000000
39.98524094 -5.03713131 -0.46918222 19 6 9298 40.30400000 3178875665 3178875665 -0.66700000
14.09699154 -0.38884005 -2.19399810 4 7 9298 14.27200000 3178875665 3178875665 -8.84300000
16.41882324 -1.26047707 -2.09605241 2 8 9299 16.60000000 3178875667 3178875667 -7.25400000
40.07038498 0.84635162 0.23294149 25 9 9299 40.08000000 3178875667 3178875667 0.33300000
40.21245193 -3.09417963 -0.23440610 22 10 9300 40.33200000 3178875670 3178875670 -0.33300000
17.83781624 -0.49825531 -1.92217779 4 11 9300 17.94800000 3178875670 3178875670 -6.14800000
20.21825790 -2.55774498 -1.90237916 6 12 9301 20.46800000 3178875672 3178875672 -5.33300000
40.10530090 -1.12724769 0.93359631 12 13 9301 40.13200000 3178875672 3178875672 1.33300000
39.58491516 -5.01477671 0.46452579 16 14 9302 39.90400000 3178875674 3178875674 0.66700000
20.48975372 -0.57948858 -1.43335605 26 15 9302 20.54800000 3178875674 3178875674 -4.00000000
20.45446014 -1.58465874 -1.67480636 30 16 9303 20.58400000 3178875677 3178875677 -4.66700000
39.63894653 0.80955380 1.15384698 22 17 9303 39.66400000 3178875677 3178875677 1.66700000
40.10170746 -3.10678053 0.70207542 17 18 9303 40.22800000 3178875679 3178875679 1.00000000
20.49766350 0.41862771 -1.31394374 31 19 9303 20.54400000 3178875679 3178875679 -3.66700000
20.49230003 -2.60331559 -1.20301259 18 20 9304 20.69200000 3178875681 3178875681 -3.33300000
39.90214539 -3.10533261 1.63057077 25 22 9305 40.05600000 3178875683 3178875683 2.33300000
20.55717278 -0.59216779 -0.95798278 21 23 9305 20.58800000 3178875683 3178875683 -2.66700000
20.52540398 -1.60096693 -1.07895803 30 24 9306 20.61600000 3178875686 3178875686 -3.00000000
87.84685516 -6.86741781 7.19327021 28 26 9307 88.40800000 3178875688 3178875688 4.66700000
20.57492638 0.40583584 -0.83840716 22 27 9307 20.59600000 3178875688 3178875688 -2.33300000
38.21792603 -4.88227034 -1.34544539 14 28 9308 38.55200000 3178875690 3178875690 -2.00000000
39.99576187 -1.18005991 -0.93108392 31 31 9309 40.02400000 3178875693 3178875693 -1.33300000
5.89058590 -0.46773726 -2.75547099 8 0 9314 6.52000000 3178875713 3178875713 -25.00000000
40.17100525 0.74326807 -0.70130748 17 1 9314 40.18400000 3178875713 3178875713 -1.00000000
39.88895035 -3.17435622 -1.16455221 25 2 9315 40.03200000 3178875716 3178875716 -1.66700000
9.01313210 -0.27537611 -2.52430367 2 3 9315 9.36400000 3178875716 3178875716 -15.63900000
11.87438488 -0.94704723 -2.38243294 3 4 9316 12.14800000 3178875718 3178875718 -11.31000000
40.22901154 -1.23613536 0.00000000 19 5 9316 40.24800000 3178875718 3178875718 0.00000000
39.93748474 -5.15862465 -0.46880969 29 6 9316 40.27200000 3178875720 3178875720 -0.66700000
14.10360146 -0.43336785 -2.19522810 3 7 9316 14.28000000 3178875720 3178875720 -8.84300000
16.44247055 -1.31426513 -2.09958792 2 8 9317 16.62800000 3178875723 3178875723 -7.25400000
40.05685043 0.72017521 0.23284851 16 9 9317 40.06400000 3178875723 3178875723 0.33300000
40.18259811 -3.21889830 -0.23428987 15 10 9318 40.31200000 3178875725 3178875725 -0.33300000
17.85603714 -0.55490959 -1.92431974 4 11 9318 17.96800000 3178875725 3178875725 -6.14800000
20.21802139 -2.62227440 -1.90312278 6 12 9319 20.47600000 3178875727 3178875727 -5.33300000
39.92569351 -1.24774027 0.92950201 18 13 9319 39.95600000 3178875727 3178875727 1.33300000
39.66812515 -5.15198994 0.46568990 17 14 9320 40.00400000 3178875729 3178875729 0.66700000
20.48783112 -0.64385605 -1.43335605 26 15 9320 20.54800000 3178875729 3178875729 -4.00000000
20.44938087 -1.64891040 -1.67480636 32 16 9321 20.58400000 3178875732 3178875732 -4.66700000
39.69326401 0.68591863 1.15535963 22 17 9321 39.71600000 3178875732 3178875732 1.66700000
40.09573746 -3.23306990 0.70214522 17 18 9321 40.23200000 3178875734 3178875734 1.00000000
20.50286865 0.35429943 -1.31419957 31 19 9321 20.54800000 3178875734 3178875734 -3.66700000
20.49193954 -2.66871238 -1.20347774 18 20 9322 20.70000000 3178875736 3178875736 -3.33300000
40.01995850 -1.27166140 2.33183980 11 21 9322 40.10800000 3178875736 3178875736 3.33300000
39.68106079 -3.21357465 1.62194085 25 22 9323 39.84400000 3178875739 3178875739 2.33300000
20.55920410 -0.65687460 -0.95816892 21 23 9323 20.59200000 3178875739 3178875739 -2.66700000
20.52027321 -1.66544139 -1.07895803 30 24 9324 20.61600000 3178875741 3178875741 -3.00000000
87.03807068 -7.07936907 7.12882948 28 26 9325 87.61600000 3178875743 3178875743 4.66700000
20.57609940 0.34119591 -0.83840716 22 27 9325 20.59600000 3178875743 3178875743 -2.33300000
38.23410797 -5.00646353 -1.34656215 14 28 9326 38.58400000 3178875746 3178875746 -2.00000000
40.00384903 -1.30609572 -0.93136311 21 31 9327 40.03600000 3178875748 3178875748 -1.33300000
5.89614296 -0.48889554 -2.75885201 8 0 9334 6.52800000 3178875769 3178875769 -25.00000000
40.04138947 0.60105962 -0.69900376 25 1 9334 40.05200000 3178875769 3178875769 -1.00000000
39.83379745 -3.30993319 -1.16327226 25 2 9335 39.98800000 3178875771 3178875771 -1.66700000
9.00826645 -0.30670506 -2.52322531 2 3 9335 9.36000000 3178875771 3178875771 -15.63900000
11.87100697 -0.98849082 -2.38243294 3 4 9336 12.14800000 3178875773 3178875773 -11.31000000
40.22845078 -1.37669015 0.00000000 19 5 9336 40.25200000 3178875773 3178875773 0.00000000
39.78442764 -5.28010941 -0.46722651 28 6 9336 40.13600000 3178875776 3178875776 -0.66700000
14.10595226 -0.48273113 -2.19584298 2 7 9336 14.28400000 3178875776 3178875776 -8.84300000
16.44964409 -1.37264192 -2.10110331 2 8 9337 16.64000000 3178875778 3178875778 -7.25400000
40.05511856 0.58028841 0.23282526 25 9 9337 40.06000000 3178875778 3178875778 0.33300000
40.21496201 -3.36280847 -0.23454559 22 10 9338 40.35600000 3178875780 3178875780 -0.33300000
17.86194229 -0.61751020 -1.92517650 4 11 9338 17.97600000 3178875780 3178875780 -6.14800000
20.22848320 -2.69546270 -1.90498161 6 12 9339 20.49600000 3178875782 3178875782 -5.33300000
40.12491608 -1.39418137 0.93424773 12 13 9339 40.16000000 3178875782 3178875782 1.33300000
39.65386581 -5.29095507 0.46573645 17 14 9340 40.00800000 3178875785 3178875785 0.66700000
20.48944664 -0.71550727 -1.43363500 26 15 9340 20.55200000 3178875785 3178875785 -4.00000000
20.44747353 -1.72061622 -1.67513180 30 16 9341 20.58800000 3178875787 3178875787 -4.66700000
39.63544846 0.54653221 1.15361416 22 17 9341 39.65600000 3178875787 3178875787 1.66700000
40.04833984 -3.36999202 0.70151693 25 18 9341 40.19600000 3178875789 3178875789 1.00000000
20.49999046 0.28267384 -1.31394374 29 19 9341 20.54400000 3178875789 3178875789 -3.66700000
20.49437332 -2.74181485 -1.20417535 18 20 9342 20.71200000 3178875792 3178875792 -3.33300000
40.62186813 -1.43274415 2.36718845 5 21 9342 40.71600000 3178875792 3178875792 3.33300000
39.76916504 -3.36048079 1.62601161 25 22 9343 39.94400000 3178875794 3178875794 2.33300000
20.55279350 -0.72849411 -0.95798278 20 23 9343 20.58800000 3178875794 3178875794 -2.66700000
20.51831436 -1.73739743 -1.07916737 30 24 9344 20.62000000 3178875796 3178875796 -3.00000000
87.09625244 -7.39022398 7.13566446 28 26 9345 87.70000000 3178875799 3178875799 4.66700000
20.59315109 0.26957911 -0.83905846 24 27 9345 20.61200000 3178875799 3178875799 -2.33300000
38.35506821 -5.15854454 -1.35144806 14 28 9346 38.72400000 3178875801 3178875801 -2.00000000
40.06324005 -1.44104600 -0.93285191 21 31 9346 40.10000000 3178875803 3178875803 -1.33300000
5.89431143 -0.51050270 -2.75885201 8 0 9355 6.52800000 3178875824 3178875824 -25.00000000
39.82337189 0.45180118 -0.69516426 25 1 9355 39.83200000 3178875824 3178875824 -1.00000000
39.84131241 -3.45763755 -1.16385412 25 2 9356 40.00800000 3178875826 3178875826 -1.66700000
9.00708199 -0.33971995 -2.52322531 2 3 9356 9.36000000 3178875826 3178875826 -15.63900000
11.87511921 -1.03267324 -2.38400173 4 4 9357 12.15600000 3178875829 3178875829 -11.31000000
40.22313309 -1.52412558 0.00000000 19 5 9357 40.25200000 3178875829 3178875829 0.00000000
39.77574921 -5.43445539 -0.46736622 19 6 9358 40.14800000 3178875831 3178875831 -0.66700000
14.10794449 -0.53704077 -2.19645786 3 7 9358 14.28800000 3178875831 3178875831 -8.84300000
16.44450378 -1.43292367 -2.10110331 2 8 9358 16.64000000 3178875833 3178875833 -7.25400000
40.15296936 0.43451393 0.23338321 16 9 9358 40.15600000 3178875833 3178875833 0.33300000
40.13462448 -3.50426650 -0.23415038 22 10 9359 40.28800000 3178875835 3178875835 -0.33300000
17.86353302 -0.68312532 -1.92560494 4 11 9359 17.98000000 3178875835 3178875835 -6.14800000
20.23819733 -2.77228808 -1.90684056 6 12 9360 20.51600000 3178875838 3178875838 -5.33300000
39.96769333 -1.53540385 0.93071169 18 13 9360 40.00800000 3178875838 3178875838 1.33300000
39.67779541 -5.44223690 0.46624866 17 14 9361 40.05200000 3178875840 3178875840 0.66700000
20.47871208 -0.79029226 -1.43307698 24 15 9361 20.54400000 3178875840 3178875840 -4.00000000
20.44500160 -1.79589725 -1.67545724 22 16 9362 20.59200000 3178875842 3178875842 -4.66700000
40.10496521 0.40599281 1.16722858 15 17 9362 40.12400000 3178875842 3178875842 1.66700000
40.13470459 -3.53250790 0.70326215 17 18 9363 40.29600000 3178875845 3178875845 1.00000000
20.50491524 0.20399736 -1.31419957 27 19 9363 20.54800000 3178875845 3178875845 -3.66700000
20.48418617 -2.81691217 -1.20417535 18 20 9363 20.71200000 3178875847 3178875847 -3.33300000
40.20535278 -1.56561685 2.34323502 5 21 9363 40.30400000 3178875847 3178875847 3.33300000
39.82824326 -3.51253963 1.62894249 25 22 9364 40.01600000 3178875849 3178875849 2.33300000
20.54998589 -0.80381894 -0.95798278 20 23 9364 20.58800000 3178875849 3178875849 -2.66700000
20.51180840 -1.81258905 -1.07916737 30 24 9365 20.62000000 3178875852 3178875852 -3.00000000
87.40612793 -7.73928595 7.16332817 28 26 9366 88.04000000 3178875854 3178875854 4.66700000
20.59000397 0.19406196 -0.83889562 22 27 9366 20.60800000 3178875854 3178875854 -2.33300000
38.33590317 -5.29908848 -1.35144806 14 28 9367 38.72400000 3178875856 3178875856 -2.00000000
40.09365082 -1.58930099 -0.93368942 21 31 9367 40.13600000 3178875859 3178875859 -1.33300000
5.89249325 -0.53107458 -2.75885201 8 0 9375 6.52800000 3178875879 3178875879 -25.00000000
39.83670425 0.31288317 -0.69537365 25 1 9375 39.84400000 3178875879 3178875879 -1.00000000
39.90466309 -3.60352111 -1.16606498 25 2 9376 40.08400000 3178875882 3178875882 -1.66700000
9.01353836 -0.37147570 -2.52538204 2 3 9376 9.36800000 3178875882 3178875882 -15.63900000
11.87144184 -1.07411885 -2.38400173 3 4 9377 12.15600000 3178875884 3178875884 -11.31000000
40.21756744 -1.66452122 0.00000000 19 5 9377 40.25200000 3178875884 3178875884 0.00000000
39.87140656 -5.58936882 -0.46871656 19 6 9378 40.26400000 3178875886 3178875886 -0.66700000
14.10993290 -0.58644754 -2.19707274 2 7 9378 14.29200000 3178875886 3178875886 -8.84300000
16.46311188 -1.49246645 -2.10413361 2 8 9378 16.66400000 3178875888 3178875888 -7.25400000
40.23823929 0.29496700 0.23387140 25 9 9378 40.24000000 3178875888 3178875888 0.33300000
40.15003586 -3.64687395 -0.23431312 15 10 9379 40.31600000 3178875891 3178875891 -0.33300000
17.86898613 -0.74580824 -1.92646170 4 11 9379 17.98800000 3178875891 3178875891 -6.14800000
20.25205994 -2.84624147 -1.90907121 6 12 9380 20.54000000 3178875893 3178875893 -5.33300000
39.92213440 -1.67323315 0.92978120 18 13 9380 39.96800000 3178875893 3178875893 1.33300000
39.75757217 -5.59463882 0.46741277 17 14 9381 40.15200000 3178875895 3178875895 0.66700000
20.48380280 -0.86210710 -1.43363500 26 15 9381 20.55200000 3178875895 3178875895 -4.00000000
20.44257736 -1.86761546 -1.67578268 15 16 9382 20.59600000 3178875898 3178875898 -4.66700000
40.15411377 0.26631609 1.16862488 22 17 9382 40.17200000 3178875898 3178875898 1.66700000
40.01921463 -3.65611935 0.70144713 25 18 9382 40.19200000 3178875900 3178875900 1.00000000
20.50148773 0.13597301 -1.31394374 29 19 9382 20.54400000 3178875900 3178875900 -3.66700000
20.48609161 -2.89007163 -1.20487309 18 20 9383 20.72400000 3178875902 3178875902 -3.33300000
146.54357910 -6.21886253 8.54201794 42 21 9383 146.92400000 3178875902 3178875902 3.33300000
40.03861618 -3.67198515 1.63806093 25 22 9384 40.24000000 3178875905 3178875905 2.33300000
20.55503845 -0.87588710 -0.95835501 21 23 9384 20.59600000 3178875905 3178875905 -2.66700000
20.51331329 -1.88490868 -1.07958615 30 24 9385 20.62800000 3178875907 3178875907 -3.00000000
85.83030701 -7.90180397 7.03639984 28 26 9386 86.48000000 3178875909 3178875909 4.66700000
20.58655930 0.12216453 -0.83873278 24 27 9386 20.60400000 3178875909 3178875909 -2.33300000
38.32112885 -5.43343449 -1.35158765 7 28 9387 38.72800000 3178875912 3178875912 -2.00000000
40.09185410 -1.72941661 -0.93378246 26 31 9387 40.14000000 3178875914 3178875914 -1.33300000
5.89782286 -0.55231601 -2.76223302 6 0 9395 6.53600000 3178875934 3178875934 -25.00000000
40.10150909 0.17497696 -0.69998109 25 1 9395 40.10800000 3178875934 3178875934 -1.00000000
39.93562698 -3.74690080 -1.16734493 25 2 9396 40.12800000 3178875936 3178875936 -1.66700000
9.01603508 -0.40310860 -2.52646041 3 3 9396 9.37200000 3178875936 3178875936 -15.63900000
11.87933540 -1.11665261 -2.38635516 4 4 9397 12.16800000 3178875939 3178875939 -11.31000000
40.21950531 -1.80525529 0.00000000 19 5 9397 40.26000000 3178875939 3178875939 0.00000000
39.91599655 -5.73065090 -0.46946159 29 6 9397 40.32800000 3178875941 3178875941 -0.66700000
14.11975670 -0.63376623 -2.19891739 3 7 9397 14.30400000 3178875941 3178875941 -8.84300000
16.45385170 -1.54955232 -2.10362864 2 8 9398 16.66000000 3178875943 3178875943 -7.25400000
40.23502350 0.15449215 0.23384815 25 9 9398 40.23600000 3178875943 3178875943 0.33300000
40.20475769 -3.79338884 -0.23470832 22 10 9399 40.38400000 3178875946 3178875946 -0.33300000
17.88216591 -0.80889696 -1.92817521 4 11 9399 18.00400000 3178875946 3178875946 -6.14800000
20.25382805 -2.91862106 -1.91018653 6 12 9400 20.55200000 3178875948 3178875948 -5.33300000
40.08383179 -1.82019615 0.93368942 18 13 9400 40.13600000 3178875948 3178875948 1.33300000
39.74176025 -5.73395586 0.46745932 25 14 9401 40.15600000 3178875950 3178875950 0.66700000
20.47269630 -0.93324023 -1.43307698 24 15 9401 20.54400000 3178875950 3178875950 -4.00000000
20.45180893 -1.94046831 -1.67708457 26 16 9402 20.61200000 3178875952 3178875952 -4.66700000
39.94289017 0.12548470 1.16245770 22 17 9402 39.96000000 3178875952 3178875952 1.66700000
40.10176468 -3.80485678 0.70312256 17 18 9402 40.28800000 3178875955 3178875955 1.00000000
20.49784660 0.06439609 -1.31368780 31 19 9402 20.54000000 3178875955 3178875955 -3.66700000
20.48378181 -2.96270704 -1.20533824 18 20 9403 20.73200000 3178875957 3178875957 -3.33300000
40.42081833 -1.85670710 2.35649085 11 21 9403 40.53200000 3178875957 3178875957 3.33300000
39.94996262 -3.80452466 1.63496721 25 22 9404 40.16400000 3178875959 3178875959 2.33300000
20.55185509 -0.94763225 -0.95835501 20 23 9404 20.59600000 3178875959 3178875959 -2.66700000
20.51456070 -1.95726073 -1.08000481 31 24 9405 20.63600000 3178875962 3178875962 -3.00000000
85.65932465 -8.18770313 7.02468300 28 26 9406 86.33600000 3178875964 3178875964 4.66700000
20.58286285 0.05029352 -0.83857000 22 27 9406 20.60000000 3178875964 3178875964 -2.33300000
38.31379700 -5.56889200 -1.35200655 7 28 9407 38.74000000 3178875966 3178875966 -2.00000000
104.18598175 -9.97691441 19.08269501 28 30 9407 106.38800000 3178875969 3178875969 10.33300000
40.07758331 -1.86898017 -0.93359631 42 31 9407 40.13200000 3178875969 3178875969 -1.33300000
5.89235020 -0.57152086 -2.76054239 7 0 9414 6.53200000 3178875989 3178875989 -25.00000000
39.94989395 0.04183545 -0.69732833 16 1 9414 39.95600000 3178875989 3178875989 -1.00000000
39.96278000 -3.88317847 -1.16850853 25 2 9415 40.16800000 3178875992 3178875992 -1.66700000
9.01849651 -0.43318942 -2.52753854 3 3 9415 9.37600000 3178875992 3178875992 -15.63900000
11.88727951 -1.15717983 -2.38870859 3 4 9416 12.18000000 3178875994 3178875994 -11.31000000
40.22129059 -1.93900323 0.00000000 19 5 9416 40.26800000 3178875994 3178875994 0.00000000
39.90864563 -5.86472988 -0.46960130 29 6 9416 40.34000000 3178875996 3178875996 -0.66700000
14.12547302 -0.68096620 -2.20014715 2 7 9416 14.31200000 3178875996 3178875996 -8.84300000
16.46442032 -1.60564733 -2.10564899 2 8 9417 16.67600000 3178875999 3178875999 -7.25400000
40.23131561 0.02106507 0.23382491 25 9 9417 40.23200000 3178875999 3178875999 0.33300000
40.14816666 -3.92241359 -0.23445261 22 10 9418 40.34000000 3178876001 3178876001 -0.33300000
17.88732910 -0.86857766 -1.92903209 4 11 9418 18.01200000 3178876001 3178876001 -6.14800000
20.25979805 -2.98809361 -1.91167355 6 12 9419 20.56800000 3178876003 3178876003 -5.33300000
40.14547729 -1.95641792 0.93527126 12 13 9419 40.20400000 3178876003 3178876003 1.33300000
39.69878769 -5.86220694 0.46717995 25 14 9420 40.13200000 3178876005 3178876005 0.66700000
20.47745895 -1.00151491 -1.43363500 24 15 9420 20.55200000 3178876005 3178876005 -4.00000000
20.44923019 -2.00866795 -1.67741001 26 16 9421 20.61600000 3178876008 3178876008 -4.66700000
40.06703568 -0.00699302 1.16606498 22 17 9421 40.08400000 3178876008 3178876008 1.66700000
40.08096695 -3.93703604 0.70298290 17 18 9421 40.28000000 3178876010 3178876010 1.00000000
20.49395561 -0.00357687 -1.31343198 33 19 9421 20.53600000 3178876010 3178876010 -3.66700000
20.48174477 -3.03178692 -1.20580328 18 20 9422 20.74000000 3178876012 3178876012 -3.33300000
39.82575607 -3.92600393 1.63040805 25 22 9423 40.05200000 3178876015 3178876015 2.33300000
20.54460907 -1.01558220 -0.95816892 18 23 9423 20.59200000 3178876015 3178876015 -2.66700000
20.50795746 -2.02527881 -1.08000481 31 24 9424 20.63600000 3178876017 3178876017 -3.00000000
86.16333008 -8.52431011 7.06829453 28 26 9425 86.87200000 3178876019 3178876019 4.66700000
20.57892036 -0.01795850 -0.83840716 20 27 9425 20.59600000 3178876019 3178876019 -2.33300000
38.45723724 -5.72002745 -1.35773003 14 28 9426 38.90400000 3178876022 3178876022 -2.00000000
95.83094788 -9.49763584 17.55805969 28 30 9426 97.88800000 3178876024 3178876024 10.33300000
40.05519104 -2.00107384 -0.93322414 36 31 9426 40.11600000 3178876024 3178876024 -1.33300000
5.89021587 -0.59311360 -2.76054239 8 0 9435 6.53200000 3178876045 3178876045 -25.00000000
40.24573135 -0.10536332 -0.70249426 25 1 9435 40.25200000 3178876045 3178876045 -1.00000000
39.95225525 -4.03002453 -1.16862488 17 2 9436 40.17200000 3178876047 3178876047 -1.66700000
9.01684761 -0.46624097 -2.52753854 3 3 9436 9.37600000 3178876047 3178876047 -15.63900000
11.88295841 -1.20074105 -2.38870859 3 4 9437 12.18000000 3178876049 3178876049 -11.31000000
40.20991898 -2.08620143 0.00000000 19 5 9437 40.26400000 3178876049 3178876049 0.00000000
39.77614212 -5.99427414 -0.46829748 19 6 9437 40.22800000 3178876052 3178876052 -0.66700000
14.13472366 -0.73334843 -2.20199203 2 7 9437 14.32400000 3178876052 3178876052 -8.84300000
16.47816277 -1.66797972 -2.10817432 2 8 9438 16.69600000 3178876054 3178876054 -7.25400000
40.23912048 -0.12641534 0.23387140 25 9 9438 40.24000000 3178876054 3178876054 0.33300000
40.18525314 -4.07478333 -0.23475482 22 10 9439 40.39200000 3178876056 3178876056 -0.33300000
17.89594078 -0.93475449 -1.93031716 4 11 9439 18.02400000 3178876056 3178876056 -6.14800000
20.26052475 -3.06411624 -1.91278887 6 12 9440 20.58000000 3178876058 3178876058 -5.33300000
39.90641785 -2.09140682 0.92987424 18 13 9440 39.97200000 3178876058 3178876058 1.33300000
39.56235123 -5.99030590 0.46582958 25 14 9441 40.01600000 3178876061 3178876061 0.66700000
20.47763634 -1.07677126 -1.43391407 24 15 9441 20.55600000 3178876061 3178876061 -4.00000000
20.44966316 -2.08441329 -1.67806089 23 16 9442 20.62400000 3178876063 3178876063 -4.66700000
39.79485703 -0.15280204 1.15815234 15 17 9442 39.81200000 3178876063 3178876063 1.66700000
39.99393845 -4.08359385 0.70172638 17 18 9443 40.20800000 3178876065 3178876065 1.00000000
20.49778175 -0.08228381 -1.31368780 33 19 9443 20.54000000 3178876065 3178876065 -3.66700000
20.48233986 -3.10863352 -1.20650101 18 20 9443 20.75200000 3178876068 3178876068 -3.33300000
40.06393433 -2.12069750 2.33649087 11 21 9443 40.18800000 3178876068 3178876068 3.33300000
39.81905365 -4.07275963 1.63073361 25 22 9444 40.06000000 3178876070 3178876070 2.33300000
20.54473877 -1.09108698 -0.95835501 20 23 9444 20.59600000 3178876070 3178876070 -2.66700000
20.50834465 -2.10124493 -1.08042347 31 24 9445 20.64400000 3178876072 3178876072 -3.00000000
86.49240875 -8.87709713 7.09791136 28 26 9446 87.23600000 3178876075 3178876075 4.66700000
20.57472038 -0.09336576 -0.83824432 18 27 9446 20.59200000 3178876075 3178876075 -2.33300000
