# .PCD v0.7 - Point Cloud Data file format
VERSION 0.7
FIELDS x y z intensity laser_id azimuth distance_m adjustedtime timestamp vertical_angle
SIZE 4 4 4 1 1 2 8 8 4 8
TYPE F F F U U U F U U F
COUNT 1 1 1 1 1 1 1 1 1 1
WIDTH 522
HEIGHT 1
VIEWPOINT 0 0 0 1 0 0 0
POINTS 522
DATA ascii
6.34714937 13.38514805 -2.30468202 4 7 2677 14.99200000 3184557274 3184557274 -8.84300000
8.09692001 15.11335754 -2.18242002 1 8 2678 17.28400000 3184557276 3184557276 -7.25400000
21.43301392 51.54020691 0.32442102 20 9 2678 55.82000000 3184557276 3184557276 0.33300000
21.19514847 39.54535675 -0.26076895 16 10 2679 44.86800000 3184557278 3184557278 -0.33300000
8.17494678 17.22415543 -2.05369306 1 11 2679 19.17600000 3184557278 3184557278 -6.14800000
10.65001011 17.72459221 -1.93026245 2 12 2680 20.76800000 3184557281 3184557281 -5.33300000
41.41019821 87.20967865 2.24647498 28 13 2680 96.56800000 3184557281 3184557281 1.33300000
40.32203674 67.08061981 0.91117084 28 14 2681 78.27200000 3184557283 3184557283 0.66700000
10.72344685 22.57335854 -1.74753916 2 15 2681 25.05200000 3184557283 3184557283 -4.00000000
10.65682220 19.85824203 -1.83981347 3 16 2682 22.61200000 3184557285 3184557285 -4.66700000
44.98736191 107.96894836 3.40405798 28 17 2682 117.01600000 3184557285 3184557285 1.66700000
41.25912094 76.88347626 1.52303660 28 18 2682 87.26800000 3184557288 3184557288 1.00000000
10.21448708 24.51460457 -1.70203805 3 19 2682 26.61200000 3184557288 3184557288 -3.66700000
13.79785347 22.93627357 -1.55882347 4 20 2683 26.81200000 3184557290 3184557290 -3.33300000
40.80793762 75.97906494 3.51368952 28 22 2684 86.31600000 3184557292 3184557292 2.33300000
12.97599602 27.27821922 -1.40710115 3 23 2684 30.24000000 3184557292 3184557292 -2.66700000
13.74338150 25.57767677 -1.52172029 5 24 2685 29.07600000 3184557294 3184557294 -3.00000000
12.78625202 30.62656021 -1.35213304 5 27 2686 33.21600000 3184557297 3184557297 -2.33300000
17.05550003 28.30672455 -1.15405655 5 28 2687 33.06800000 3184557299 3184557299 -2.00000000
17.21178436 36.11769867 -0.93099087 5 31 2688 40.02000000 3184557301 3184557301 -1.33300000
2.74057102 5.07916927 -2.69123316 15 0 2695 6.36800000 3184557322 3184557322 -25.00000000
17.17817879 40.96530533 -0.77537549 9 1 2695 44.42800000 3184557322 3184557322 -1.00000000
17.76925087 32.91844940 -1.08868420 7 2 2696 37.42400000 3184557324 3184557324 -1.66700000
3.50667858 7.33213472 -2.27521610 21 3 2696 8.44000000 3184557324 3184557324 -15.63900000
5.85029364 10.83344555 -2.46244860 4 4 2697 12.55600000 3184557327 3184557327 -11.31000000
21.42702103 44.78179932 0.00000000 18 5 2697 49.64400000 3184557327 3184557327 0.00000000
21.11993599 34.91440201 -0.47504932 20 6 2697 40.80800000 3184557329 3184557329 -0.66700000
6.38700962 13.34864998 -2.30222225 4 7 2697 14.97600000 3184557329 3184557329 -8.84300000
8.14208221 15.07103729 -2.18039966 1 8 2698 17.26800000 3184557331 3184557331 -7.25400000
21.45791626 51.09628677 0.32209626 19 9 2698 55.42000000 3184557331 3184557331 0.33300000
21.19041824 39.20721436 -0.25902537 16 10 2699 44.56800000 3184557334 3184557334 -0.33300000
8.23158550 17.18834114 -2.05283618 1 11 2699 19.16800000 3184557334 3184557334 -6.14800000
10.70562649 17.67708969 -1.92914712 2 12 2700 20.75600000 3184557336 3184557336 -5.33300000
41.11651993 85.81679535 2.21427870 28 13 2700 95.18400000 3184557336 3184557336 1.33300000
40.02744293 66.06713867 0.89929694 28 14 2701 77.25200000 3184557338 3184557338 0.66700000
10.79527855 22.52139664 -1.74642313 2 15 2701 25.03600000 3184557338 3184557338 -4.00000000
10.71658897 19.80339050 -1.83818614 3 16 2702 22.59200000 3184557341 3184557341 -4.66700000
42.80067444 101.71936798 3.21171141 28 17 2702 110.40400000 3184557341 3184557341 1.66700000
41.10848618 75.96516418 1.50767851 28 18 2702 86.38800000 3184557343 3184557343 1.00000000
10.28915882 24.45304489 -1.70024729 3 19 2702 26.58400000 3184557343 3184557343 -3.66700000
13.87783241 22.88796997 -1.55882347 4 20 2703 26.81200000 3184557345 3184557345 -3.33300000
40.81023788 75.35117340 3.49121928 28 22 2704 85.76400000 3184557347 3184557347 2.33300000
13.05384541 27.19673538 -1.40523994 3 23 2704 30.20000000 3184557347 3184557347 -2.66700000
13.81545448 25.49794006 -1.51983619 5 24 2705 29.04000000 3184557350 3184557350 -3.00000000
12.88687038 30.56700897 -1.35148168 5 27 2706 33.20000000 3184557352 3184557352 -2.33300000
17.08780479 28.13768005 -1.14958942 5 28 2707 32.94000000 3184557354 3184557354 -2.00000000
17.32389069 36.02856445 -0.93024647 5 31 2708 39.98800000 3184557357 3184557357 -1.33300000
2.81192136 5.17245483 -2.74532819 14 0 2713 6.49600000 3184557377 3184557377 -25.00000000
17.29588127 40.88535309 -0.77488685 9 1 2713 44.40000000 3184557377 3184557377 -1.00000000
17.85347557 32.82733917 -1.08752048 7 2 2714 37.38400000 3184557380 3184557380 -1.66700000
3.52802300 7.31761217 -2.27413774 15 3 2714 8.43600000 3184557380 3184557380 -15.63900000
5.88242435 10.81156731 -2.46166420 4 4 2715 12.55200000 3184557382 3184557382 -11.31000000
21.40251160 44.37199783 0.00000000 18 5 2715 49.26400000 3184557382 3184557382 0.00000000
21.13171577 34.68733978 -0.47286081 9 6 2715 40.62000000 3184557384 3184557384 -0.66700000
6.42376280 13.31783867 -2.30037761 3 7 2715 14.96400000 3184557384 3184557384 -8.84300000
8.18938923 15.04538441 -2.18039966 2 8 2716 17.26800000 3184557387 3184557387 -7.25400000
21.44201660 50.61243820 0.31946927 19 9 2716 54.96800000 3184557387 3184557387 0.33300000
21.20253944 38.93670273 -0.25767702 16 10 2717 44.33600000 3184557389 3184557389 -0.33300000
8.24923325 17.08718491 -2.04384017 1 11 2717 19.08400000 3184557389 3184557389 -6.14800000
10.75695992 17.63656998 -1.92840350 2 12 2718 20.74800000 3184557391 3184557391 -5.33300000
41.53896713 86.00408173 2.22246742 28 13 2718 95.53600000 3184557391 3184557391 1.33300000
40.13271713 65.77375793 0.89701533 28 14 2719 77.05600000 3184557393 3184557393 0.66700000
10.85035324 22.45503426 -1.74391186 2 15 2719 25.00000000 3184557393 3184557393 -4.00000000
10.77111626 19.75562477 -1.83688438 3 16 2720 22.57600000 3184557396 3184557396 -4.66700000
43.18719864 101.74266815 3.21671486 28 17 2720 110.57600000 3184557396 3184557396 1.66700000
41.25503922 75.66709137 1.50432765 28 18 2720 86.19600000 3184557398 3184557398 1.00000000
10.36437035 24.41692543 -1.69999135 3 19 2720 26.58000000 3184557398 3184557398 -3.66700000
13.91428947 22.78632164 -1.55487001 4 20 2721 26.74400000 3184557400 3184557400 -3.33300000
44.39533234 91.79526520 5.93831968 42 21 2721 102.14000000 3184557400 3184557400 3.33300000
40.81703186 74.80158997 3.47167969 28 22 2722 85.28400000 3184557403 3184557403 2.33300000
13.10615635 27.08725357 -1.40170360 3 23 2722 30.12400000 3184557403 3184557403 -2.66700000
13.88974857 25.44389343 -1.51920819 5 24 2723 29.02800000 3184557405 3184557405 -3.00000000
12.92496014 30.39029121 -1.34545708 5 27 2724 33.05200000 3184557407 3184557407 -2.33300000
17.18237495 28.09408760 -1.15000820 5 28 2725 32.95200000 3184557410 3184557410 -2.00000000
17.42303848 35.94517517 -0.92950201 5 31 2726 39.95600000 3184557412 3184557412 -1.33300000
2.78379583 5.07629013 -2.69968557 13 0 2734 6.38800000 3184557433 3184557433 -25.00000000
17.41732788 40.75548935 -0.77363026 9 1 2734 44.32800000 3184557433 3184557433 -1.00000000
17.90251732 32.63198090 -1.08321512 7 2 2735 37.23600000 3184557435 3184557435 -1.66700000
3.56661844 7.32887697 -2.28168583 15 3 2735 8.46400000 3184557435 3184557435 -15.63900000
5.91257524 10.77274227 -2.45774198 4 4 2736 12.53200000 3184557437 3184557437 -11.31000000
21.40390968 43.96238708 0.00000000 18 5 2736 48.89600000 3184557437 3184557437 0.00000000
21.14775658 34.42902374 -0.47039288 19 6 2736 40.40800000 3184557440 3184557440 -0.66700000
6.47253180 13.29420471 -2.30037761 3 7 2736 14.96400000 3184557440 3184557440 -8.84300000
8.23683929 15.00135517 -2.17837930 2 8 2737 17.25200000 3184557442 3184557442 -7.25400000
21.42120743 50.05178070 0.31642383 18 9 2737 54.44400000 3184557442 3184557442 0.33300000
21.20452690 38.60280228 -0.25597993 16 10 2738 44.04400000 3184557444 3184557444 -0.33300000
8.30309486 17.03896141 -2.04169822 1 11 2738 19.06400000 3184557444 3184557444 -6.14800000
10.80483818 17.56988525 -1.92542934 2 12 2739 20.71600000 3184557446 3184557446 -5.33300000
41.34571838 84.80884552 2.19548202 28 13 2739 94.37600000 3184557446 3184557446 1.33300000
40.14298248 65.25148773 0.89189321 28 14 2740 76.61600000 3184557449 3184557449 0.66700000
10.88535404 22.31828308 -1.73637819 2 15 2740 24.89200000 3184557449 3184557449 -4.00000000
10.83960915 19.70902634 -1.83623338 3 16 2741 22.56800000 3184557451 3184557451 -4.66700000
43.29508972 100.96634674 3.19716597 28 17 2741 109.90400000 3184557451 3184557451 1.66700000
40.82283783 74.22577667 1.47863770 28 18 2741 84.72400000 3184557453 3184557453 1.00000000
10.42862225 24.32007408 -1.69589818 3 19 2741 26.51600000 3184557453 3184557453 -3.66700000
13.99980545 22.73857117 -1.55510259 4 20 2742 26.74800000 3184557456 3184557456 -3.33300000
44.70695496 91.58168793 5.93506384 42 21 2742 102.08400000 3184557456 3184557456 3.33300000
40.90397644 74.31185913 3.45588517 28 22 2743 84.89600000 3184557458 3184557458 2.33300000
13.19482708 27.01749229 -1.40058684 3 23 2743 30.10000000 3184557458 3184557458 -2.66700000
13.98291111 25.39281273 -1.51920819 5 24 2744 29.02800000 3184557460 3184557460 -3.00000000
13.02206039 30.30966568 -1.34399152 5 27 2745 33.01600000 3184557463 3184557463 -2.33300000
17.27264023 28.01050758 -1.14917064 5 28 2746 32.92800000 3184557465 3184557465 -2.00000000
17.55718803 35.90209961 -0.92996728 5 31 2746 39.97600000 3184557467 3184557467 -1.33300000
2.78307724 5.03530264 -2.68278074 14 0 2753 6.34800000 3184557488 3184557488 -25.00000000
17.50169754 40.57999039 -0.77139634 9 1 2753 44.20000000 3184557488 3184557488 -1.00000000
18.00482750 32.56193924 -1.08286607 7 2 2754 37.22400000 3184557490 3184557490 -1.66700000
3.59599328 7.32738304 -2.28492069 23 3 2754 8.47600000 3184557490 3184557490 -15.63900000
5.94446945 10.74621201 -2.45617294 4 4 2755 12.52400000 3184557493 3184557493 -11.31000000
21.41735840 43.62187576 0.00000000 17 5 2755 48.59600000 3184557493 3184557493 0.00000000
21.14780617 34.16114807 -0.46773872 19 6 2756 40.18000000 3184557495 3184557495 -0.66700000
6.51018524 13.25379276 -2.29730296 3 7 2756 14.94400000 3184557495 3184557495 -8.84300000
8.28461838 14.97048664 -2.17787433 1 8 2756 17.24800000 3184557497 3184557497 -7.25400000
21.42846680 49.61326599 0.31409907 17 9 2756 54.04400000 3184557497 3184557497 0.33300000
21.21036720 38.31180954 -0.25451532 16 10 2757 43.79200000 3184557499 3184557499 -0.33300000
8.36130619 17.01490211 -2.04212642 1 11 2757 19.06800000 3184557499 3184557499 -6.14800000
10.83158016 17.48317337 -1.91985273 2 12 2758 20.65600000 3184557502 3184557502 -5.33300000
41.45558929 84.32317352 2.18645597 28 13 2758 93.98800000 3184557502 3184557502 1.33300000
40.18214798 64.83243561 0.88798183 28 14 2759 76.28000000 3184557504 3184557504 0.66700000
10.95578194 22.27490044 -1.73582006 2 15 2759 24.88400000 3184557504 3184557504 -4.00000000
10.90104103 19.66599846 -1.83558249 3 16 2760 22.56000000 3184557506 3184557506 -4.66700000
43.62966919 100.82221985 3.19716597 28 17 2760 109.90400000 3184557506 3184557506 1.66700000
41.30085373 74.47805786 1.48652613 28 18 2761 85.17600000 3184557509 3184557509 1.00000000
10.51503754 24.28718758 -1.69615400 3 19 2761 26.52000000 3184557509 3184557509 -3.66700000
13.99093819 22.55628204 -1.54580033 4 20 2761 26.58800000 3184557511 3184557511 -3.33300000
44.83227539 91.07108307 5.91157579 42 21 2761 101.68000000 3184557511 3184557511 3.33300000
40.48321152 72.97356415 3.39987206 28 22 2762 83.52000000 3184557513 3184557513 2.33300000
13.27905178 26.96283531 -1.40002847 3 23 2762 30.08800000 3184557513 3184557513 -2.66700000
14.02245712 25.26597404 -1.51439321 5 24 2763 28.93600000 3184557516 3184557516 -3.00000000
13.11137009 30.24064827 -1.34285176 5 27 2764 32.98800000 3184557518 3184557518 -2.33300000
17.35488319 27.93609619 -1.14847267 5 28 2765 32.90800000 3184557520 3184557520 -2.00000000
17.57887077 35.64642334 -0.92484939 5 31 2765 39.75600000 3184557523 3184557523 -1.33300000
2.76534200 4.96222305 -2.64897132 14 0 2773 6.26800000 3184557543 3184557543 -25.00000000
17.53466797 40.26930237 -0.76664931 9 1 2773 43.92800000 3184557543 3184557543 -1.00000000
18.09501648 32.45698547 -1.08146966 7 2 2774 37.17600000 3184557546 3184557546 -1.66700000
3.61983967 7.31133413 -2.28384256 19 3 2774 8.47200000 3184557546 3184557546 -15.63900000
5.97812319 10.71854591 -2.45460391 3 4 2775 12.51600000 3184557548 3184557548 -11.31000000
21.40616035 43.21708298 0.00000000 17 5 2775 48.22800000 3184557548 3184557548 0.00000000
21.12718773 33.86315155 -0.46466547 19 6 2776 39.91600000 3184557550 3184557550 -0.66700000
6.54763556 13.21327972 -2.29422855 3 7 2776 14.92400000 3184557550 3184557550 -8.84300000
8.32715797 14.92415047 -2.17534900 1 8 2776 17.22800000 3184557552 3184557552 -7.25400000
21.42245293 49.12751389 0.31149533 16 9 2776 53.59600000 3184557552 3184557552 0.33300000
21.19775200 37.97558975 -0.25277176 16 10 2777 43.49200000 3184557555 3184557555 -0.33300000
8.41534901 16.97492218 -2.04084134 3 11 2777 19.05600000 3184557555 3184557555 -6.14800000
10.89254189 17.44525909 -1.91985273 2 12 2778 20.65600000 3184557557 3184557557 -5.33300000
41.40497971 83.48294830 2.16840386 28 13 2778 93.21200000 3184557557 3184557557 1.33300000
40.25988770 64.45431519 0.88472229 28 14 2779 76.00000000 3184557559 3184557559 0.66700000
11.03878975 22.24724579 -1.73665714 2 15 2779 24.89600000 3184557559 3184557559 -4.00000000
10.96184254 19.61390686 -1.83428073 3 16 2780 22.54400000 3184557562 3184557562 -4.66700000
44.81050873 102.56720734 3.25744176 28 17 2780 111.97600000 3184557562 3184557562 1.66700000
41.26663971 73.83795929 1.47647357 28 18 2780 84.60000000 3184557564 3184557564 1.00000000
10.56195831 24.17536736 -1.69078147 3 19 2780 26.43600000 3184557564 3184557564 -3.66700000
14.07593918 22.51746559 -1.54649794 4 20 2781 26.60000000 3184557566 3184557566 -3.33300000
45.25114059 91.11789703 5.92483139 42 21 2781 101.90800000 3184557566 3184557566 3.33300000
40.76500320 72.88063812 3.40215158 28 22 2782 83.57600000 3184557569 3184557569 2.33300000
13.35708809 26.88411331 -1.39835334 3 23 2782 30.05200000 3184557569 3184557569 -2.66700000
14.08910942 25.17852783 -1.51209044 5 24 2783 28.89200000 3184557571 3184557571 -3.00000000
13.22165775 30.20568085 -1.34334028 5 27 2784 33.00000000 3184557573 3184557573 -2.33300000
17.37804604 27.75675774 -1.14358675 5 28 2785 32.76800000 3184557576 3184557576 -2.00000000
17.63550758 35.44879150 -0.92131341 5 31 2785 39.60400000 3184557578 3184557578 -1.33300000
2.78706360 4.95837498 -2.65235209 13 0 2794 6.27600000 3184557599 3184557599 -25.00000000
17.71112633 40.27066422 -0.76790589 9 1 2794 44.00000000 3184557599 3184557599 -1.00000000
18.16682053 32.30680084 -1.07867706 7 2 2795 37.08000000 3184557601 3184557601 -1.66700000
3.66727352 7.33936644 -2.29678202 31 3 2795 8.52000000 3184557601 3184557601 -15.63900000
6.01352215 10.68972588 -2.45303512 3 4 2796 12.50800000 3184557604 3184557604 -11.31000000
21.39808083 42.80559540 0.00000000 17 5 2796 47.85600000 3184557604 3184557604 0.00000000
21.12603951 33.59957886 -0.46205786 18 6 2796 39.69200000 3184557606 3184557606 -0.66700000
6.59371853 13.19034386 -2.29422855 3 7 2796 14.92400000 3184557606 3184557606 -8.84300000
8.37985611 14.89007187 -2.17484379 2 8 2797 17.22400000 3184557608 3184557608 -7.25400000
21.43308449 48.66430283 0.30905432 16 9 2797 53.17600000 3184557608 3184557608 0.33300000
21.20728111 37.66759872 -0.25123739 16 10 2798 43.22800000 3184557611 3184557611 -0.33300000
8.47039127 16.92973900 -2.03912783 1 11 2798 19.04000000 3184557611 3184557611 -6.14800000
10.94367886 17.38499451 -1.91762197 2 12 2799 20.63200000 3184557613 3184557613 -5.33300000
41.49230957 82.89436340 2.15705132 28 13 2799 92.72400000 3184557613 3184557613 1.33300000
40.10155106 63.68018341 0.87610793 28 14 2800 75.26000000 3184557615 3184557615 0.66700000
11.09524250 22.15668678 -1.73275077 2 15 2800 24.84000000 3184557615 3184557615 -4.00000000
10.98863029 19.49372101 -1.82679510 3 16 2801 22.45200000 3184557617 3184557617 -4.66700000
44.71319580 101.33048248 3.22334743 28 17 2801 110.80400000 3184557617 3184557617 1.66700000
41.45058060 73.53292084 1.47340190 28 18 2801 84.42400000 3184557620 3184557620 1.00000000
10.63115597 24.09266853 -1.68771160 3 19 2801 26.38800000 3184557620 3184557620 -3.66700000
14.15198803 22.45558929 -1.54580033 4 20 2802 26.58800000 3184557622 3184557622 -3.33300000
45.38798141 90.55873871 5.89925003 42 21 2802 101.46800000 3184557622 3184557622 3.33300000
40.56446457 71.90227509 3.36339831 28 22 2803 82.62400000 3184557624 3184557624 2.33300000
13.43404198 26.79211426 -1.39611983 3 23 2803 30.00400000 3184557624 3184557624 -2.66700000
14.18718910 25.13715553 -1.51271844 5 24 2804 28.90400000 3184557627 3184557627 -3.00000000
13.31126976 30.10949898 -1.34122348 5 27 2805 32.94800000 3184557629 3184557629 -2.33300000
17.46472549 27.66921425 -1.14260948 5 28 2806 32.74000000 3184557631 3184557631 -2.00000000
17.74557877 35.34460449 -0.92028981 5 31 2806 39.56000000 3184557634 3184557634 -1.33300000
2.82135892 4.98064852 -2.66925693 14 0 2813 6.31600000 3184557654 3184557654 -25.00000000
17.85592842 40.23729706 -0.76839453 9 1 2813 44.02800000 3184557654 3184557654 -1.00000000
18.23837090 32.18376541 -1.07658243 7 2 2814 37.00800000 3184557657 3184557657 -1.66700000
3.66732764 7.27900505 -2.28168583 23 3 2814 8.46400000 3184557657 3184557657 -15.63900000
6.04700327 10.66631317 -2.45225072 3 4 2815 12.50400000 3184557659 3184557659 -11.31000000
21.37607574 42.40935516 0.00000000 8 5 2815 47.49200000 3184557659 3184557659 0.00000000
21.11535263 33.33673859 -0.45940369 18 6 2815 39.46400000 3184557661 3184557661 -0.66700000
6.62674904 13.14722919 -2.29053903 3 7 2815 14.90000000 3184557661 3184557661 -8.84300000
8.42135715 14.84839535 -2.17282367 2 8 2816 17.20800000 3184557664 3184557664 -7.25400000
21.43515587 48.23474503 0.30677605 15 9 2816 52.78400000 3184557664 3184557664 0.33300000
21.18798065 37.34310150 -0.24954033 24 10 2817 42.93600000 3184557666 3184557666 -0.33300000
8.51932049 16.88735390 -2.03741431 1 11 2817 19.02400000 3184557666 3184557666 -6.14800000
10.99273777 17.33515549 -1.91613495 2 12 2818 20.61600000 3184557668 3184557668 -5.33300000
41.12013245 81.47467804 2.12364554 28 13 2818 91.28800000 3184557668 3184557668 1.33300000
40.28036499 63.49618912 0.87540948 28 14 2819 75.20000000 3184557670 3184557670 0.66700000
11.16326046 22.10908508 -1.73191369 2 15 2819 24.82800000 3184557670 3184557670 -4.00000000
11.02958202 19.41557693 -1.82288969 3 16 2820 22.40400000 3184557673 3184557673 -4.66700000
40.35559082 90.64014435 2.88752651 28 17 2820 99.26000000 3184557673 3184557673 1.66700000
41.36626816 72.81780243 1.46181357 28 18 2820 83.76000000 3184557675 3184557675 1.00000000
10.70125008 24.03540230 -1.68617654 3 19 2820 26.36400000 3184557675 3184557675 -3.66700000
14.23493671 22.42201996 -1.54673052 4 20 2821 26.60400000 3184557677 3184557677 -3.33300000
45.57637024 90.18675995 5.88483191 42 21 2821 101.22000000 3184557677 3184557677 3.33300000
40.72366333 71.62838745 3.35688519 28 22 2822 82.46400000 3184557680 3184557680 2.33300000
13.49036407 26.68323326 -1.39276958 2 23 2822 29.93200000 3184557680 3184557680 -2.66700000
14.25269508 25.05872154 -1.51083434 5 24 2823 28.86800000 3184557682 3184557682 -3.00000000
13.41104317 30.06519127 -1.34122348 5 27 2824 32.94800000 3184557684 3184557684 -2.33300000
17.54351425 27.59090614 -1.14177191 5 28 2825 32.71600000 3184557687 3184557687 -2.00000000
17.88255501 35.32481003 -0.92131341 5 31 2825 39.60400000 3184557689 3184557689 -1.33300000
2.83959484 4.97027397 -2.66925693 15 0 2834 6.31600000 3184557710 3184557710 -25.00000000
17.91005516 39.96355438 -0.76441538 9 1 2834 43.80000000 3184557710 3184557710 -1.00000000
18.34628868 32.09934616 -1.07600069 7 2 2835 36.98800000 3184557712 3184557712 -1.66700000
3.70969343 7.29641724 -2.29139066 15 3 2835 8.50000000 3184557712 3184557712 -15.63900000
6.08021593 10.63386345 -2.44989729 3 4 2836 12.49200000 3184557714 3184557714 -11.31000000
21.40079880 42.07402420 0.00000000 17 5 2836 47.20400000 3184557714 3184557714 0.00000000
21.11684990 33.07034302 -0.45679611 18 6 2836 39.24000000 3184557717 3184557717 -0.66700000
6.67309952 13.11932945 -2.28992414 2 7 2836 14.89600000 3184557717 3184557717 -8.84300000
8.47572231 14.81743050 -2.17282367 2 8 2837 17.20800000 3184557719 3184557719 -7.25400000
21.39234161 47.66685486 0.30366087 14 9 2837 52.24800000 3184557719 3184557719 0.33300000
21.19358826 37.03606415 -0.24800599 24 10 2838 42.67200000 3184557721 3184557721 -0.33300000
8.57213688 16.83829498 -2.03527236 1 11 2838 19.00400000 3184557721 3184557721 -6.14800000
11.04547405 17.27796936 -1.91427600 2 12 2839 20.59600000 3184557723 3184557723 -5.33300000
41.25151062 80.99559021 2.11508465 28 13 2839 90.92000000 3184557723 3184557723 1.33300000
40.44385910 63.24029922 0.87391937 28 14 2840 75.07200000 3184557726 3184557726 0.66700000
11.23516083 22.05024529 -1.73051858 2 15 2840 24.80800000 3184557726 3184557726 -4.00000000
11.09868813 19.37156105 -1.82256424 3 16 2841 22.40000000 3184557728 3184557728 -4.66700000
40.64982224 90.40775299 2.88485003 28 17 2841 99.16800000 3184557728 3184557728 1.66700000
41.36713028 72.17265320 1.45204020 28 18 2842 83.20000000 3184557730 3184557730 1.00000000
10.77872181 23.96137047 -1.68387413 3 19 2842 26.32800000 3184557730 3184557730 -3.66700000
11.85012913 18.51528740 -1.28022122 3 20 2842 22.02000000 3184557733 3184557733 -3.33300000
42.17313004 82.69805145 5.40623140 33 21 2842 92.98800000 3184557733 3184557733 3.33300000
40.85669708 71.25328064 3.34630132 28 22 2843 82.20400000 3184557735 3184557735 2.33300000
13.57536125 26.60869408 -1.39146674 2 23 2843 29.90400000 3184557735 3184557735 -2.66700000
14.32258034 24.96820068 -1.50853157 5 24 2844 28.82400000 3184557737 3184557737 -3.00000000
49.11199570 85.58111572 8.05508327 28 26 2845 99.00000000 3184557740 3184557740 4.66700000
13.46533680 29.89193916 -1.33568728 5 27 2845 32.81200000 3184557740 3184557740 -2.33300000
17.63373566 27.50959396 -1.14107394 5 28 2846 32.69600000 3184557742 3184557742 -2.00000000
17.99735260 35.23054123 -0.92056900 5 31 2846 39.57200000 3184557744 3184557744 -1.33300000
2.87682962 4.99488735 -2.68785214 15 0 2854 6.36000000 3184557765 3184557765 -25.00000000
18.07252121 39.95180893 -0.76539272 9 1 2854 43.85600000 3184557765 3184557765 -1.00000000
18.39434814 31.92425156 -1.07227707 7 2 2855 36.86000000 3184557767 3184557767 -1.66700000
3.75623274 7.32455349 -2.30433011 13 3 2855 8.54800000 3184557767 3184557767 -15.63900000
6.10946274 10.59898186 -2.44675922 4 4 2856 12.47600000 3184557769 3184557769 -11.31000000
21.37955093 41.67164230 0.00000000 16 5 2856 46.83600000 3184557769 3184557769 0.00000000
21.12317657 32.81447601 -0.45432818 18 6 2857 39.02800000 3184557772 3184557772 -0.66700000
6.71211529 13.07720184 -2.28684950 2 7 2857 14.87600000 3184557772 3184557772 -8.84300000
8.52144623 14.77744198 -2.17130828 2 8 2857 17.19600000 3184557774 3184557774 -7.25400000
21.39850235 47.23846817 0.30140585 13 9 2857 51.86000000 3184557774 3184557774 0.33300000
21.20081520 36.75050735 -0.24658787 24 10 2858 42.42800000 3184557776 3184557776 -0.33300000
8.62722778 16.80119324 -2.03441548 1 11 2858 18.99600000 3184557776 3184557776 -6.14800000
11.09277725 17.21922112 -1.91204536 2 12 2859 20.57200000 3184557779 3184557779 -5.33300000
41.29278564 80.38157654 2.10280180 28 13 2859 90.39200000 3184557779 3184557779 1.33300000
40.69686508 63.14916992 0.87461787 28 14 2860 75.13200000 3184557781 3184557781 0.66700000
11.24822426 21.88667870 -1.72075272 2 15 2860 24.66800000 3184557781 3184557781 -4.00000000
11.15826416 19.31889153 -1.82126236 3 16 2861 22.38400000 3184557783 3184557783 -4.66700000
40.87758255 90.07234192 2.87868285 28 17 2861 98.95600000 3184557783 3184557783 1.66700000
40.79011536 70.62208557 1.42355788 28 18 2861 81.56800000 3184557786 3184557786 1.00000000
10.85317230 23.91459084 -1.68310666 3 19 2861 26.31600000 3184557786 3184557786 -3.66700000
11.84326363 18.36306763 -1.27254689 3 20 2862 21.88800000 3184557788 3184557788 -3.33300000
45.58492279 88.62256622 5.80390215 28 21 2862 99.82800000 3184557788 3184557788 3.33300000
40.99516296 70.91992188 3.33734560 28 22 2863 81.98400000 3184557790 3184557790 2.33300000
13.65719032 26.53982735 -1.39034998 2 23 2863 29.88000000 3184557790 3184557790 -2.66700000
14.41764736 24.93188477 -1.50936902 5 24 2864 28.84000000 3184557793 3184557793 -3.00000000
49.42440414 85.43331909 8.05736065 28 26 2865 99.02800000 3184557795 3184557795 4.66700000
13.56959724 29.84475327 -1.33568728 5 27 2865 32.81200000 3184557795 3184557795 -2.33300000
17.67543030 27.36392403 -1.13758397 5 28 2866 32.59600000 3184557797 3184557797 -2.00000000
18.02925110 34.97595215 -0.91563720 5 31 2867 39.36000000 3184557799 3184557799 -1.33300000
2.91063023 5.01303101 -2.70306635 11 0 2874 6.39600000 3184557820 3184557820 -25.00000000
18.21020699 39.88484192 -0.76532292 9 1 2874 43.85200000 3184557820 3184557820 -1.00000000
18.49362373 31.83910370 -1.07157886 7 2 2875 36.83600000 3184557822 3184557822 -1.66700000
3.79593444 7.33876801 -2.31295657 15 3 2875 8.58000000 3184557822 3184557822 -15.63900000
6.14445210 10.57419968 -2.44597483 3 4 2876 12.47200000 3184557825 3184557825 -11.31000000
21.33921242 41.23795319 0.00000000 16 5 2876 46.43200000 3184557825 3184557825 0.00000000
21.12440681 32.56605148 -0.45190686 18 6 2877 38.82000000 3184557827 3184557827 -0.66700000
6.75408840 13.04667187 -2.28561974 2 7 2877 14.86800000 3184557827 3184557827 -8.84300000
8.57098293 14.74417591 -2.17080331 2 8 2877 17.19200000 3184557829 3184557829 -7.25400000
21.38696671 46.77788162 0.29894158 12 9 2877 51.43600000 3184557829 3184557829 0.33300000
21.17011261 36.40311813 -0.24475130 15 10 2878 42.11200000 3184557832 3184557832 -0.33300000
8.68399334 16.76744461 -2.03398705 1 11 2878 18.99200000 3184557832 3184557832 -6.14800000
11.14631081 17.17037392 -1.91093004 2 12 2879 20.56000000 3184557834 3184557834 -5.33300000
41.28060913 79.67240143 2.08800650 28 13 2879 89.75600000 3184557834 3184557834 1.33300000
40.43344116 62.26203918 0.86428058 28 14 2880 74.24400000 3184557836 3184557836 0.66700000
11.32455444 21.84728050 -1.72075272 2 15 2880 24.66800000 3184557836 3184557836 -4.00000000
11.21961308 19.26948929 -1.82028604 2 16 2881 22.37200000 3184557839 3184557839 -4.66700000
42.73857880 93.30612183 2.98678327 28 17 2881 102.67200000 3184557839 3184557839 1.66700000
41.03437042 70.47581482 1.42348802 28 18 2881 81.56400000 3184557841 3184557841 1.00000000
10.93159676 23.86567307 -1.68233907 3 19 2881 26.30400000 3184557841 3184557841 -3.66700000
11.88553047 18.28813362 -1.27022135 10 20 2882 21.84800000 3184557843 3184557843 -3.33300000
46.00984955 88.68621063 5.81855345 42 21 2882 100.08000000 3184557843 3184557843 3.33300000
40.76356125 69.95452881 3.29859233 28 22 2883 81.03200000 3184557846 3184557846 2.33300000
13.74054527 26.47426224 -1.38941932 2 23 2883 29.86000000 3184557846 3184557846 -2.66700000
14.49050617 24.85724831 -1.50790358 5 24 2884 28.81200000 3184557848 3184557848 -3.00000000
49.74039841 85.29126740 8.06029034 28 26 2885 99.06400000 3184557850 3184557850 4.66700000
13.61368275 29.66643524 -1.32982540 5 27 2885 32.66800000 3184557850 3184557850 -2.33300000
17.82099724 27.37911606 -1.14079475 5 28 2886 32.68800000 3184557852 3184557852 -2.00000000
18.14144707 34.90887833 -0.91545111 5 31 2886 39.35200000 3184557855 3184557855 -1.33300000
2.86768103 4.89959240 -2.64728069 13 0 2894 6.26400000 3184557875 3184557875 -25.00000000
18.23717880 39.57766724 -0.76064569 9 1 2894 43.58400000 3184557875 3184557875 -1.00000000
18.58242607 31.73640060 -1.07029891 7 2 2895 36.79200000 3184557878 3184557878 -1.66700000
3.83221817 7.34596348 -2.31942630 15 3 2895 8.60400000 3184557878 3184557878 -15.63900000
6.17537832 10.54253387 -2.44362140 4 4 2896 12.46000000 3184557880 3184557880 -11.31000000
21.33127213 40.87243271 0.00000000 16 5 2896 46.10400000 3184557880 3184557880 0.00000000
21.11851883 32.32170486 -0.44948551 18 6 2896 38.61200000 3184557882 3184557882 -0.66700000
6.79365778 13.01719570 -2.28438997 2 7 2896 14.86000000 3184557882 3184557882 -8.84300000
8.61838531 14.70732117 -2.16979313 1 8 2897 17.18400000 3184557885 3184557885 -7.25400000
21.38923836 46.35427856 0.29670981 12 9 2897 51.05200000 3184557885 3184557885 0.33300000
21.15545082 36.08744812 -0.24312398 15 10 2898 41.83200000 3184557887 3184557887 -0.33300000
8.73510456 16.72292900 -2.03227353 1 11 2898 18.97600000 3184557887 3184557887 -6.14800000
11.20399857 17.12802696 -1.91055822 2 12 2899 20.55600000 3184557889 3184557889 -5.33300000
41.34177399 79.11315155 2.07711935 28 13 2899 89.28800000 3184557889 3184557889 1.33300000
40.53883362 61.94983292 0.86190581 28 14 2900 74.04000000 3184557892 3184557892 0.66700000
11.39150333 21.78993607 -1.71935761 2 15 2900 24.64800000 3184557892 3184557892 -4.00000000
11.28680801 19.23020744 -1.82028604 2 16 2901 22.37200000 3184557894 3184557894 -4.66700000
43.28044510 93.62454987 3.00179410 28 17 2901 103.18800000 3184557894 3184557894 1.66700000
41.04529572 69.93204498 1.41539013 28 18 2901 81.10000000 3184557896 3184557896 1.00000000
10.97296238 23.73678398 -1.67594337 3 19 2901 26.20400000 3184557896 3184557896 -3.66700000
11.84866047 18.09286499 -1.25952375 10 20 2902 21.66400000 3184557899 3184557899 -3.33300000
46.00257111 87.92004395 5.77878618 28 21 2902 99.39600000 3184557899 3184557899 3.33300000
40.81519318 69.48442841 3.28312349 28 22 2903 80.65200000 3184557901 3184557901 2.33300000
13.82175541 26.40489769 -1.38830256 2 23 2903 29.83600000 3184557901 3184557901 -2.66700000
14.52254391 24.71352959 -1.50225127 5 24 2904 28.70400000 3184557903 3184557903 -3.00000000
50.28026962 85.52954865 8.09934521 28 26 2905 99.54400000 3184557905 3184557905 4.66700000
13.70371819 29.58972168 -1.32852280 5 27 2905 32.63600000 3184557905 3184557905 -2.33300000
17.90549660 27.30002975 -1.14009678 5 28 2906 32.66800000 3184557908 3184557908 -2.00000000
18.20427704 34.71819687 -0.91219425 5 31 2907 39.21200000 3184557910 3184557910 -1.33300000
2.86634517 4.85832930 -2.63037610 17 0 2914 6.22400000 3184557931 3184557931 -25.00000000
18.38196564 39.52827072 -0.76092494 9 1 2914 43.60000000 3184557931 3184557931 -1.00000000
18.69106102 31.66790009 -1.07018256 14 2 2915 36.78800000 3184557933 3184557933 -1.66700000
3.85783696 7.33254194 -2.31942630 31 3 2915 8.60400000 3184557933 3184557933 -15.63900000
6.20615816 10.51078129 -2.44126797 4 4 2916 12.44800000 3184557935 3184557935 -11.31000000
21.33408165 40.53224945 0.00000000 16 5 2916 45.80400000 3184557935 3184557935 0.00000000
21.11244392 32.06739426 -0.44697103 17 6 2916 38.39600000 3184557938 3184557938 -0.66700000
6.83353233 12.98290920 -2.28254509 2 7 2916 14.84800000 3184557938 3184557938 -8.84300000
8.66361713 14.66689777 -2.16827798 1 8 2917 17.17200000 3184557940 3184557940 -7.25400000
21.39556885 45.94573593 0.29457104 11 9 2917 50.68400000 3184557940 3184557940 0.33300000
21.16123009 35.81021118 -0.24175236 15 10 2918 41.59600000 3184557942 3184557942 -0.33300000
8.78786469 16.68178177 -2.03098845 1 11 2918 18.96400000 3184557942 3184557942 -6.14800000
11.25933456 17.08216286 -1.90981472 2 12 2919 20.54800000 3184557945 3184557945 -5.33300000
41.07886124 77.94596100 2.05022717 28 13 2919 88.13200000 3184557945 3184557945 1.33300000
40.55667114 61.50742340 0.85771501 28 14 2920 73.68000000 3184557947 3184557947 0.66700000
11.46563435 21.74651146 -1.71907854 2 15 2920 24.64400000 3184557947 3184557947 -4.00000000
11.34980488 19.18383026 -1.81963503 2 16 2921 22.36400000 3184557949 3184557949 -4.66700000
41.42131805 88.78784180 2.85133767 28 17 2921 98.01600000 3184557949 3184557949 1.66700000
40.88186264 69.09992218 1.40142822 28 18 2921 80.30000000 3184557952 3184557952 1.00000000
11.04731369 23.68025017 -1.67466426 3 19 2921 26.18400000 3184557952 3184557952 -3.66700000
11.95573139 18.11805344 -1.26417482 10 20 2922 21.74400000 3184557954 3184557954 -3.33300000
46.49369049 88.10856628 5.80180931 28 21 2922 99.79200000 3184557954 3184557954 3.33300000
40.66448975 68.67780304 3.25169754 28 22 2923 79.88000000 3184557956 3184557956 2.33300000
13.90078449 26.33175468 -1.38699973 2 23 2923 29.80800000 3184557956 3184557956 -2.66700000
14.57818508 24.61113358 -1.49911118 5 24 2924 28.64400000 3184557958 3184557958 -3.00000000
50.36714554 84.99681854 8.06549740 28 26 2925 99.12800000 3184557961 3184557961 4.66700000
13.78999996 29.50549889 -1.32689452 5 27 2925 32.59600000 3184557961 3184557961 -2.33300000
17.92133522 27.11729813 -1.13507128 5 28 2926 32.52400000 3184557963 3184557963 -2.00000000
18.31600952 34.63676453 -0.91172898 5 31 2927 39.19200000 3184557965 3184557965 -1.33300000
2.89725995 4.87372684 -2.64389992 17 0 2933 6.25600000 3184557986 3184557986 -25.00000000
18.43991280 39.31140137 -0.75792313 9 1 2933 43.42800000 3184557986 3184557986 -1.00000000
3.87310719 7.30269384 -2.31403494 26 3 2934 8.58400000 3184557988 3184557988 -15.63900000
6.23696804 10.48340130 -2.43969917 4 4 2935 12.44000000 3184557991 3184557991 -11.31000000
21.31276512 40.16800690 0.00000000 16 5 2935 45.47200000 3184557991 3184557991 0.00000000
21.11035347 31.83386993 -0.44468936 17 6 2935 38.20000000 3184557993 3184557993 -0.66700000
6.86913776 12.94621086 -2.28008556 2 7 2935 14.83200000 3184557993 3184557993 -8.84300000
8.71220684 14.63808727 -2.16827798 1 8 2936 17.17200000 3184557995 3184557995 -7.25400000
21.36585236 45.48714828 0.29208353 10 9 2936 50.25600000 3184557995 3184557995 0.33300000
21.15708542 35.53362656 -0.24035750 15 10 2937 41.35600000 3184557998 3184557998 -0.33300000
8.80956078 16.58932304 -2.02327752 1 11 2937 18.89200000 3184557998 3184557998 -6.14800000
11.30930996 17.03477859 -1.90869939 2 12 2938 20.53600000 3184558000 3184558000 -5.33300000
41.24330521 77.63273621 2.04557443 28 13 2938 87.93200000 3184558000 3184558000 1.33300000
40.62985992 61.17601395 0.85496771 28 14 2939 73.44400000 3184558002 3184558002 0.66700000
11.53581238 21.70484543 -1.71879947 2 15 2939 24.64000000 3184558002 3184558002 -4.00000000
11.40927601 19.13923836 -1.81898415 2 16 2940 22.35600000 3184558005 3184558005 -4.66700000
41.02434921 87.18117523 2.80409479 28 17 2940 96.39200000 3184558005 3184558005 1.66700000
40.75240326 68.36279297 1.38921154 28 18 2940 79.60000000 3184558007 3184558007 1.00000000
11.11898136 23.62903786 -1.67364085 3 19 2940 26.16800000 3184558007 3184558007 -3.66700000
11.99143314 18.04172516 -1.26161671 6 20 2941 21.70000000 3184558009 3184558009 -3.33300000
47.16255188 88.66252136 5.84855318 42 21 2941 100.59600000 3184558009 3184558009 3.33300000
40.78143692 68.35723114 3.24290490 28 22 2942 79.66400000 3184558011 3184558011 2.33300000
13.96174812 26.23613167 -1.38439405 2 23 2942 29.75200000 3184558011 3184558011 -2.66700000
14.65971851 24.56265640 -1.49911118 5 24 2943 28.64400000 3184558014 3184558014 -3.00000000
50.37894821 84.37748718 8.02253723 28 26 2944 98.60000000 3184558016 3184558016 4.66700000
13.87583828 29.43430138 -1.32575476 5 27 2944 32.56800000 3184558016 3184558016 -2.33300000
18.01116180 27.05772018 -1.13507128 5 28 2945 32.52400000 3184558018 3184558018 -2.00000000
18.34423828 34.41350937 -0.90744859 5 31 2946 39.00800000 3184558021 3184558021 -1.33300000
2.93847799 4.90401030 -2.66587591 13 0 2953 6.30800000 3184558041 3184558041 -25.00000000
18.57702255 39.24679565 -0.75792313 9 1 2953 43.42800000 3184558041 3184558041 -1.00000000
18.69855881 31.19357491 -1.05842996 7 2 2954 36.38400000 3184558044 3184558044 -1.66700000
3.89857483 7.28912973 -2.31403494 17 3 2954 8.58400000 3184558044 3184558044 -15.63900000
6.26948977 10.45483875 -2.43813014 4 4 2955 12.43200000 3184558046 3184558046 -11.31000000
21.30565262 39.81827164 0.00000000 15 5 2955 45.16000000 3184558046 3184558046 0.00000000
21.10801697 31.59037781 -0.44231459 17 6 2955 37.99600000 3184558048 3184558048 -0.66700000
6.91055727 12.91518497 -2.27885580 2 7 2955 14.82400000 3184558048 3184558048 -8.84300000
8.72854805 14.54974174 -2.15969181 1 8 2956 17.10400000 3184558051 3184558051 -7.25400000
21.40286446 45.15566254 0.29043296 10 9 2956 49.97200000 3184558051 3184558051 0.33300000
21.14308357 35.22977066 -0.23879991 15 10 2957 41.08800000 3184558053 3184558053 -0.33300000
8.86178207 16.54795265 -2.02199221 1 11 2957 18.88000000 3184558053 3184558053 -6.14800000
11.36206055 16.98526573 -1.90758407 2 12 2958 20.52400000 3184558055 3184558055 -5.33300000
41.24588013 76.98776245 2.03236103 28 13 2958 87.36400000 3184558055 3184558055 1.33300000
40.72303391 60.85431671 0.85245323 28 14 2959 73.22800000 3184558057 3184558057 0.66700000
11.60585117 21.65389633 -1.71796238 2 15 2959 24.62800000 3184558057 3184558057 -4.00000000
11.46164131 19.07537460 -1.81670594 2 16 2960 22.32800000 3184558060 3184558060 -4.66700000
40.99741745 86.34036255 2.78163695 28 17 2960 95.62000000 3184558060 3184558060 1.66700000
40.40373230 67.24310303 1.36931586 28 18 2960 78.46000000 3184558062 3184558062 1.00000000
11.18427181 23.55402184 -1.67108262 3 19 2960 26.12800000 3184558062 3184558062 -3.66700000
11.75436783 17.55183792 -1.23022163 3 20 2961 21.16000000 3184558064 3184558064 -3.33300000
41.63145828 77.60980988 5.12902451 36 21 2961 88.22000000 3184558064 3184558064 3.33300000
40.81177521 67.86852264 3.22645903 28 22 2962 79.26000000 3184558067 3184558067 2.33300000
14.03623962 26.15554810 -1.38271892 2 23 2962 29.71600000 3184558067 3184558067 -2.66700000
14.73713207 24.49764252 -1.49827373 5 24 2963 28.62800000 3184558069 3184558069 -3.00000000
50.71223450 84.26602173 8.02872086 28 26 2964 98.67600000 3184558071 3184558071 4.66700000
13.98536587 29.40012360 -1.32640600 5 27 2964 32.58400000 3184558071 3184558071 -2.33300000
18.04092598 26.89840508 -1.13102293 5 28 2965 32.40800000 3184558074 3184558074 -2.00000000
18.47371864 34.36687469 -0.90791386 5 31 2966 39.02800000 3184558076 3184558076 -1.33300000
2.96869755 4.91544533 -2.67770934 13 0 2973 6.33600000 3184558097 3184558097 -25.00000000
18.70528793 39.16366577 -0.75757408 9 1 2973 43.40800000 3184558097 3184558097 -1.00000000
18.78665352 31.09389305 -1.05726635 7 2 2974 36.34400000 3184558099 3184558099 -1.66700000
3.90936685 7.24835491 -2.30540848 21 3 2974 8.55200000 3184558099 3184558099 -15.63900000
6.30391693 10.42953300 -2.43734574 3 4 2975 12.42800000 3184558101 3184558101 -11.31000000
21.30395699 39.48315811 0.00000000 15 5 2975 44.86400000 3184558101 3184558101 0.00000000
21.10870552 31.35392952 -0.44003293 17 6 2975 37.80000000 3184558104 3184558104 -0.66700000
6.94621325 12.87359142 -2.27578115 2 7 2975 14.80400000 3184558104 3184558104 -8.84300000
8.76491070 14.49541664 -2.15615630 1 8 2976 17.07600000 3184558106 3184558106 -7.25400000
21.38605118 44.71622086 0.28808492 10 9 2976 49.56800000 3184558106 3184558106 0.33300000
21.14792442 34.96067047 -0.23747480 15 10 2977 40.86000000 3184558108 3184558108 -0.33300000
8.90248394 16.48542595 -2.01813674 1 11 2977 18.84400000 3184558108 3184558108 -6.14800000
11.41682911 16.93889618 -1.90684056 2 12 2978 20.51600000 3184558110 3184558110 -5.33300000
41.25396347 76.36130524 2.01961279 28 13 2978 86.81600000 3184558110 3184558110 1.33300000
40.82787704 60.55261230 0.85021818 28 14 2979 73.03600000 3184558113 3184558113 0.66700000
11.66998386 21.59218979 -1.71628833 2 15 2979 24.60400000 3184558113 3184558113 -4.00000000
11.48478699 18.96363831 -1.80987132 2 16 2980 22.24400000 3184558115 3184558115 -4.66700000
41.01349640 85.60177612 2.76243711 28 17 2980 94.96000000 3184558115 3184558115 1.66700000
40.48489761 66.84851074 1.36414993 28 18 2980 78.16400000 3184558117 3184558117 1.00000000
11.25952339 23.50043869 -1.67005932 3 19 2980 26.11200000 3184558117 3184558117 -3.66700000
11.92947578 17.67951775 -1.24208200 3 20 2981 21.36400000 3184558120 3184558120 -3.33300000
41.90591431 77.47104645 5.12948942 36 21 2981 88.22800000 3184558120 3184558120 3.33300000
40.91377640 67.50348663 3.21587515 28 22 2982 79.00000000 3184558122 3184558122 2.33300000
14.10843754 26.07125282 -1.38085759 2 23 2982 29.67600000 3184558122 3184558122 -2.66700000
14.76663685 24.35382843 -1.49262142 5 24 2983 28.52000000 3184558124 3184558124 -3.00000000
51.07636642 84.20438385 8.03978634 28 26 2984 98.81200000 3184558127 3184558127 4.66700000
14.02391815 29.21780968 -1.32038140 5 27 2984 32.43600000 3184558127 3184558127 -2.33300000
12.14501762 17.97187805 -0.75745869 2 28 2985 21.70400000 3184558129 3184558129 -2.00000000
18.51709557 34.17533493 -0.90447086 5 31 2985 38.88000000 3184558131 3184558131 -1.33300000
3.00845766 4.94221210 -2.69799495 12 0 2993 6.38400000 3184558152 3184558152 -25.00000000
18.75506783 38.91799164 -0.75408357 9 1 2993 43.20800000 3184558152 3184558152 -1.00000000
18.97410202 31.15789223 -1.06168818 7 2 2994 36.49600000 3184558154 3184558154 -1.66700000
3.94752693 7.25835133 -2.31295657 15 3 2994 8.58000000 3184558154 3184558154 -15.63900000
6.33620310 10.40076542 -2.43577671 3 4 2995 12.42000000 3184558157 3184558157 -11.31000000
21.30974197 39.16611481 0.00000000 15 5 2995 44.58800000 3184558157 3184558157 0.00000000
21.10445023 31.10093880 -0.43756503 17 6 2996 37.58800000 3184558159 3184558159 -0.66700000
6.98390245 12.83068848 -2.27270651 2 7 2996 14.78400000 3184558159 3184558159 -8.84300000
8.80926132 14.45456791 -2.15464091 1 8 2996 17.06400000 3184558161 3184558161 -7.25400000
21.38903236 44.32428360 0.28603914 10 9 2996 49.21600000 3184558161 3184558161 0.33300000
21.13448715 34.66464615 -0.23596370 15 10 2997 40.60000000 3184558163 3184558163 -0.33300000
8.96758270 16.46821976 -2.01985025 1 11 2997 18.86000000 3184558163 3184558163 -6.14800000
11.43561363 16.83963585 -1.90014851 2 12 2998 20.44400000 3184558166 3184558166 -5.33300000
41.26965714 75.75681305 2.00742292 28 13 2998 86.29200000 3184558166 3184558166 1.33300000
40.82772064 60.09872818 0.84584111 28 14 2999 72.66000000 3184558168 3184558168 0.66700000
11.74337387 21.54781914 -1.71600926 2 15 2999 24.60000000 3184558168 3184558168 -4.00000000
11.53014183 18.88940430 -1.80661678 2 16 3000 22.20400000 3184558170 3184558170 -4.66700000
41.24592590 85.32129669 2.75801539 28 17 3000 94.80800000 3184558170 3184558170 1.66700000
40.41073608 66.17743683 1.35346901 28 18 3001 77.55200000 3184558173 3184558173 1.00000000
11.30908298 23.38354683 -1.66468680 3 19 3001 26.02800000 3184558173 3184558173 -3.66700000
11.91927242 17.53209305 -1.23464024 3 20 3001 21.23600000 3184558175 3184558175 -3.33300000
48.56645584 89.04019928 5.90669203 42 21 3001 101.59600000 3184558175 3184558175 3.33300000
40.16366196 65.74702454 3.13885689 28 22 3002 77.10800000 3184558177 3184558177 2.33300000
14.18213177 25.99027824 -1.37918246 2 23 3002 29.64000000 3184558177 3184558177 -2.66700000
14.83072758 24.26804924 -1.49052799 5 24 3003 28.48000000 3184558180 3184558180 -3.00000000
51.37206268 84.02898407 8.04011154 28 26 3004 98.81600000 3184558182 3184558182 4.66700000
14.12582111 29.16868019 -1.32038140 5 27 3004 32.43600000 3184558182 3184558182 -2.33300000
12.13118172 17.81702805 -0.75271237 2 28 3005 21.56800000 3184558184 3184558184 -2.00000000
18.61135101 34.06486893 -0.90326118 5 31 3005 38.82800000 3184558187 3184558187 -1.33300000
2.99535799 4.88224030 -2.67094731 13 0 3013 6.32000000 3184558207 3184558207 -25.00000000
18.83484077 38.73719025 -0.75184965 18 1 3013 43.08000000 3184558207 3184558207 -1.00000000
19.04510117 31.03013229 -1.05959356 7 2 3014 36.42400000 3184558210 3184558210 -1.66700000
3.97839546 7.25465965 -2.31619143 16 3 3014 8.59200000 3184558210 3184558210 -15.63900000
6.36836529 10.37189960 -2.43420792 3 4 3015 12.41200000 3184558212 3184558212 -11.31000000
21.30010605 38.82496643 0.00000000 15 5 3015 44.28400000 3184558212 3184558212 0.00000000
21.10678673 30.87189674 -0.43537652 16 6 3016 37.40000000 3184558214 3184558214 -0.66700000
7.02484417 12.79930210 -2.27147675 2 7 3016 14.77600000 3184558214 3184558214 -8.84300000
8.84720230 14.40344334 -2.15161061 1 8 3016 17.04000000 3184558216 3184558216 -7.25400000
21.37203026 43.89691162 0.28376088 10 9 3016 48.82400000 3184558216 3184558216 0.33300000
21.12971306 34.38618851 -0.23456883 15 10 3017 40.36000000 3184558219 3184558219 -0.33300000
9.01161385 16.41241455 -2.01685166 1 11 3017 18.83200000 3184558219 3184558219 -6.14800000
11.48982716 16.79304123 -1.89940500 2 12 3018 20.43600000 3184558221 3184558221 -5.33300000
41.04290390 74.71852875 1.98369443 28 13 3018 85.27200000 3184558221 3184558221 1.33300000
40.90171051 59.75780869 0.84304726 28 14 3019 72.42000000 3184558223 3184558223 0.66700000
11.82044029 21.51019287 -1.71628833 2 15 3019 24.60400000 3184558223 3184558223 -4.00000000
11.60854149 18.86941528 -1.80856955 2 16 3020 22.22800000 3184558226 3184558226 -4.66700000
41.02293777 84.10948944 2.72345591 28 17 3020 93.62000000 3184558226 3184558226 1.66700000
40.54404449 65.90340424 1.35060680 28 18 3020 77.38800000 3184558228 3184558228 1.00000000
11.37081432 23.31362534 -1.66238439 3 19 3020 25.99200000 3184558228 3184558228 -3.66700000
11.99168110 17.50685310 -1.23580301 3 20 3021 21.25600000 3184558230 3184558230 -3.33300000
47.98598862 87.25011444 5.79901838 28 21 3021 99.74400000 3184558230 3184558230 3.33300000
40.15404510 65.21844482 3.12029457 28 22 3022 76.65200000 3184558233 3184558233 2.33300000
14.25928497 25.91611099 -1.37787962 2 23 3022 29.61200000 3184558233 3184558233 -2.66700000
14.90696907 24.20252800 -1.48969066 5 24 3023 28.46400000 3184558235 3184558235 -3.00000000
51.68179703 83.87629700 8.04271507 28 26 3024 98.84800000 3184558237 3184558237 4.66700000
14.20825291 29.07969284 -1.31859028 5 27 3024 32.39200000 3184558237 3184558237 -2.33300000
12.20913124 17.79764938 -0.75368953 2 28 3025 21.59600000 3184558240 3184558240 -2.00000000
18.72049904 33.98218155 -0.90279597 5 31 3025 38.80800000 3184558242 3184558242 -1.33300000
2.98484731 4.82910824 -2.64728069 14 0 3032 6.26400000 3184558262 3184558262 -25.00000000
18.86283112 38.46983337 -0.74787050 27 1 3032 42.85200000 3184558262 3184558262 -1.00000000
19.09322357 30.87838936 -1.05656815 7 2 3033 36.32000000 3184558264 3184558264 -1.66700000
4.01361084 7.26165438 -2.32266140 14 3 3033 8.61600000 3184558264 3184558264 -15.63900000
6.39653444 10.34071732 -2.43185449 3 4 3034 12.40000000 3184558267 3184558267 -11.31000000
21.29131126 38.50558472 0.00000000 15 5 3034 44.00000000 3184558267 3184558267 0.00000000
21.09254837 30.64399529 -0.43309486 16 6 3034 37.20400000 3184558269 3184558269 -0.66700000
7.06310701 12.77371120 -2.27086186 2 7 3034 14.77200000 3184558269 3184558269 -8.84300000
8.90744495 14.39427090 -2.15464091 1 8 3035 17.06400000 3184558271 3184558271 -7.25400000
21.35177231 43.48828888 0.28157559 10 9 3035 48.44800000 3184558271 3184558271 0.33300000
21.12151146 34.11867142 -0.23322047 15 10 3036 40.12800000 3184558274 3184558274 -0.33300000
9.05636120 16.36504173 -2.01470971 1 11 3036 18.81200000 3184558274 3184558274 -6.14800000
11.53641224 16.74172974 -1.89791787 2 12 3037 20.42000000 3184558276 3184558276 -5.33300000
40.81204224 73.71788025 1.96071053 28 13 3037 84.28400000 3184558276 3184558276 1.33300000
40.90896225 59.34522629 0.83913583 28 14 3038 72.08400000 3184558278 3184558278 0.66700000
11.82210636 21.34521294 -1.70624340 2 15 3038 24.46000000 3184558278 3184558278 -4.00000000
11.66475010 18.82065010 -1.80759311 2 16 3039 22.21600000 3184558280 3184558280 -4.66700000
41.29104233 83.95146179 2.72275758 28 17 3039 93.59600000 3184558280 3184558280 1.66700000
