# .PCD v0.7 - Point Cloud Data file format
VERSION 0.7
FIELDS x y z intensity laser_id azimuth distance_m adjustedtime timestamp vertical_angle
SIZE 4 4 4 1 1 2 8 8 4 8
TYPE F F F U U U F U U F
COUNT 1 1 1 1 1 1 1 1 1 1
WIDTH 510
HEIGHT 1
VIEWPOINT 0 0 0 1 0 0 0
POINTS 510
DATA ascii
3.07668185 -24.73627472 -3.17286801 15 8 17151 25.12800000 3175397438 3175397438 -7.25400000
37.68960190 -167.37817383 0.99716163 28 9 17151 171.57200000 3175397438 3175397438 0.33300000
5.74302340 -32.97399521 -3.60531497 4 11 17152 33.66400000 3175397440 3175397440 -6.14800000
3.42322516 -45.84850311 -4.29178524 8 12 17153 46.17600000 3175397443 3175397443 -5.33300000
9.79642582 -56.36328506 -4.00039434 11 15 17154 57.34800000 3175397445 3175397445 -4.00000000
6.21135283 -50.22502518 -4.13136244 11 16 17155 50.77600000 3175397447 3175397447 -4.66700000
12.11549091 -98.38881683 -5.19528580 28 24 17158 99.26800000 3175397456 3175397456 -3.00000000
4.63223743 -26.76209641 3.33483267 7 25 17158 27.36400000 3175397456 3175397456 7.00000000
18.91820526 -84.56584930 -3.53046107 28 27 17159 86.72800000 3175397459 3175397459 -2.33300000
6.87141371 -93.57084656 -3.27636480 28 28 17160 93.88000000 3175397461 3175397461 -2.00000000
1.89445186 -11.08299923 -3.14756203 0 3 17170 11.67600000 3175397486 3175397486 -15.63900000
2.11176419 -17.47625351 -3.52069759 6 4 17171 17.95200000 3175397489 3175397489 -11.31000000
3.27311063 -19.16863060 -3.02535629 10 7 17171 19.68000000 3175397491 3175397491 -8.84300000
3.12099075 -25.86617851 -3.31630874 16 8 17172 26.26400000 3175397493 3175397493 -7.25400000
5.64484215 -33.12811661 -3.61988020 4 11 17173 33.80000000 3175397496 3175397496 -6.14800000
3.26728415 -46.03156662 -4.30777168 8 12 17174 46.34800000 3175397498 3175397498 -5.33300000
9.63124847 -56.64270782 -4.01769400 11 15 17175 57.59600000 3175397500 3175397500 -4.00000000
6.06473684 -50.56016541 -4.15707350 12 16 17176 51.09200000 3175397503 3175397503 -4.66700000
13.02153111 -59.02879715 -3.87403607 28 19 17176 60.57200000 3175397505 3175397505 -3.66700000
16.19573402 -95.55207062 -4.51444960 28 23 17178 97.02000000 3175397509 3175397509 -2.66700000
4.53213024 -26.76715088 3.33337021 7 25 17179 27.35200000 3175397512 3175397512 7.00000000
18.87503815 -85.84859467 -3.58110094 28 27 17180 87.97200000 3175397514 3175397514 -2.33300000
6.52702236 -93.57546234 -3.27566671 28 28 17181 93.86000000 3175397516 3175397516 -2.00000000
38.22024918 -175.14701843 -3.12914658 28 1 17189 179.29600000 3175397539 3175397539 -1.00000000
2.03475499 -17.34717178 -3.49324107 4 4 17191 17.81200000 3175397544 3175397544 -11.31000000
3.19249487 -19.09807205 -3.01244307 6 7 17191 19.59600000 3175397546 3175397546 -8.84300000
3.09253263 -26.40501595 -3.38398838 10 8 17192 26.80000000 3175397549 3175397549 -7.25400000
37.10685349 -170.47326660 1.01399291 28 9 17192 174.46800000 3175397549 3175397549 0.33300000
5.54094696 -33.21823120 -3.62759113 4 11 17193 33.87200000 3175397551 3175397551 -6.14800000
2.65321088 -39.32324600 -3.67909789 11 12 17194 39.58400000 3175397553 3175397553 -5.33300000
9.46164131 -56.84523392 -4.02969217 11 15 17195 57.76800000 3175397555 3175397555 -4.00000000
5.91541052 -50.81466675 -4.17627573 12 16 17196 51.32800000 3175397558 3175397558 -4.66700000
12.90510941 -59.48740387 -3.90115404 28 19 17196 60.99600000 3175397560 3175397560 -3.66700000
16.08836937 -96.97187805 -4.57884884 28 23 17198 98.40400000 3175397565 3175397565 -2.66700000
4.43672037 -26.77105713 3.33190775 7 25 17199 27.34000000 3175397567 3175397567 7.00000000
3.25293398 -28.11428833 2.31042552 3 26 17200 28.39600000 3175397569 3175397569 4.66700000
18.85566139 -87.21089172 -3.63516021 28 27 17200 89.30000000 3175397569 3175397569 -2.33300000
6.19955063 -93.58570862 -3.27524805 28 28 17201 93.84800000 3175397572 3175397572 -2.00000000
1.99497926 -17.50970840 -3.52462006 4 4 17210 17.97200000 3175397599 3175397599 -11.31000000
3.29840970 -20.14218712 -3.17539430 37 7 17210 20.65600000 3175397602 3175397602 -8.84300000
3.02513599 -26.59254074 -3.40671659 10 8 17211 26.98000000 3175397604 3175397604 -7.25400000
36.53547668 -170.56800842 1.01383018 28 9 17211 174.44000000 3175397604 3175397604 0.33300000
5.44871807 -33.34632111 -3.63958621 4 11 17212 33.98400000 3175397606 3175397606 -6.14800000
2.51106906 -39.14900208 -3.66199636 17 12 17213 39.40000000 3175397608 3175397608 -5.33300000
9.31417751 -57.12834549 -4.04754972 11 15 17214 58.02400000 3175397611 3175397611 -4.00000000
5.76388884 -50.98453903 -4.18864298 13 16 17215 51.48000000 3175397613 3175397613 -4.66700000
40.57178879 -190.05955505 5.65589809 28 17 17215 194.42400000 3175397613 3175397613 1.66700000
12.76360607 -59.79142761 -3.91829467 28 19 17215 61.26400000 3175397615 3175397615 -3.66700000
5.54294968 -87.13193512 -5.08460617 28 20 17216 87.45600000 3175397618 3175397618 -3.33300000
4.34664774 -26.77778435 3.33093286 7 25 17218 27.33200000 3175397622 3175397622 7.00000000
3.17081308 -28.22396469 2.31856203 4 26 17219 28.49600000 3175397625 3175397625 4.66700000
18.86158943 -88.66070557 -3.69296455 28 27 17219 90.72000000 3175397625 3175397625 -2.33300000
5.88440561 -93.52995300 -3.27259564 28 28 17220 93.77200000 3175397627 3175397627 -2.00000000
1.93723559 -17.57538414 -3.53638697 4 4 17231 18.03200000 3175397655 3175397655 -11.31000000
3.20794630 -20.07274246 -3.16248107 11 7 17232 20.57200000 3175397657 3175397657 -8.84300000
2.91506171 -26.48906898 -3.39206958 30 8 17232 26.86400000 3175397659 3175397659 -7.25400000
5.34150743 -33.46032333 -3.64986730 5 11 17233 34.08000000 3175397661 3175397661 -6.14800000
2.37621689 -39.30105591 -3.67538023 17 12 17234 39.54400000 3175397664 3175397664 -5.33300000
9.15870762 -57.50099182 -4.07154608 11 15 17235 58.36800000 3175397666 3175397666 -4.00000000
5.60601568 -51.27085114 -4.21044874 13 16 17236 51.74800000 3175397668 3175397668 -4.66700000
12.60185337 -60.16427994 -3.93952870 28 19 17237 61.59600000 3175397671 3175397671 -3.66700000
4.24847317 -26.79353714 3.33093286 7 25 17239 27.33200000 3175397678 3175397678 7.00000000
3.06863737 -28.24728775 2.31953835 4 26 17240 28.50800000 3175397680 3175397680 4.66700000
18.78169632 -89.90290833 -3.74181318 28 27 17240 91.92000000 3175397680 3175397680 -2.33300000
1.87171304 -17.54303741 -3.52854228 6 4 17251 17.99200000 3175397710 3175397710 -11.31000000
3.18483925 -20.38450813 -3.20982909 12 7 17252 20.88000000 3175397712 3175397712 -8.84300000
2.82005811 -26.47540855 -3.38903904 23 8 17252 26.84000000 3175397714 3175397714 -7.25400000
2.29797721 -21.60979271 -0.12630451 2 10 17253 21.73200000 3175397717 3175397717 -0.33300000
2.23335409 -39.20970535 -3.66608572 17 12 17254 39.44400000 3175397719 3175397719 -5.33300000
9.02362251 -57.95448685 -4.10140181 11 15 17255 58.79600000 3175397721 3175397721 -4.00000000
5.44798803 -51.48833847 -4.22672176 14 16 17256 51.94800000 3175397724 3175397724 -4.66700000
12.45462322 -60.45986938 -3.95615745 28 19 17256 61.85600000 3175397726 3175397726 -3.66700000
4.15187979 -26.78858566 3.32849550 3 25 17259 27.31200000 3175397733 3175397733 7.00000000
2.97001743 -28.25782776 2.31953835 4 26 17260 28.50800000 3175397735 3175397735 4.66700000
18.74823380 -91.33427429 -3.79864049 28 27 17260 93.31600000 3175397735 3175397735 -2.33300000
5.65988111 -101.55240631 -3.55179167 28 28 17261 101.77200000 3175397738 3175397738 -2.00000000
1.78752232 -17.32707214 -3.48382759 4 4 17271 17.76400000 3175397765 3175397765 -11.31000000
3.10348940 -20.30509567 -3.19568634 11 7 17271 20.78800000 3175397767 3175397767 -8.84300000
2.73453498 -26.55219269 -3.39762545 23 8 17272 26.90800000 3175397769 3175397769 -7.25400000
2.08520508 -39.00648117 -3.64638162 11 12 17274 39.23200000 3175397774 3175397774 -5.33300000
8.83627129 -58.08425140 -4.10837746 11 15 17275 58.89600000 3175397776 3175397776 -4.00000000
5.28688669 -51.68947983 -4.24169254 14 16 17276 52.13200000 3175397778 3175397778 -4.66700000
12.29892445 -60.77685165 -3.97406578 28 19 17276 62.13600000 3175397781 3175397781 -3.66700000
4.06250572 -26.83039474 3.33190775 7 25 17279 27.34000000 3175397788 3175397788 7.00000000
2.86854076 -28.24025726 2.31726027 4 26 17280 28.48000000 3175397790 3175397790 4.66700000
18.69157600 -92.69988251 -3.85269976 28 27 17280 94.64400000 3175397790 3175397790 -2.33300000
5.59708166 -107.15651703 -3.74708915 28 28 17281 107.36800000 3175397792 3175397792 -2.00000000
1.72304165 -17.26265144 -3.46970701 4 4 17290 17.69200000 3175397820 3175397820 -11.31000000
3.05249596 -20.42472839 -3.21290374 12 7 17290 20.90000000 3175397822 3175397822 -8.84300000
2.72633195 -27.36264610 -3.50015521 18 8 17291 27.72000000 3175397825 3175397825 -7.25400000
37.71110916 -188.89723206 1.11953735 28 9 17291 192.62800000 3175397825 3175397825 0.33300000
1.95883465 -39.07284927 -3.65195823 11 12 17293 39.29200000 3175397829 3175397829 -5.33300000
8.68352795 -58.38161850 -4.12735081 11 15 17294 59.16800000 3175397831 3175397831 -4.00000000
5.13507414 -51.90509415 -4.25796556 14 16 17295 52.33200000 3175397834 3175397834 -4.66700000
12.14793301 -61.07178497 -3.99069452 28 19 17295 62.39600000 3175397836 3175397836 -3.66700000
3.96885967 -26.81229973 3.32800794 3 25 17298 27.30800000 3175397843 3175397843 7.00000000
2.77448726 -28.24564743 2.31693482 4 26 17299 28.47600000 3175397845 3175397845 4.66700000
18.67543602 -94.23152161 -3.91376066 28 27 17299 96.14400000 3175397845 3175397845 -2.33300000
1.65036726 -17.13971901 -3.44381952 4 4 17310 17.56000000 3175397875 3175397875 -11.31000000
2.99259305 -20.51347923 -3.22520185 12 7 17310 20.98000000 3175397878 3175397878 -8.84300000
2.57158041 -26.75583076 -3.42136383 17 8 17311 27.09600000 3175397880 3175397880 -7.25400000
1.83115280 -39.26642990 -3.66943192 11 12 17313 39.48000000 3175397884 3175397884 -5.33300000
8.49802876 -58.53793716 -4.13628006 11 15 17314 59.29600000 3175397887 3175397887 -4.00000000
4.97279263 -52.12113953 -4.27423859 15 16 17315 52.53200000 3175397889 3175397889 -4.66700000
11.96223259 -61.31179428 -4.00348616 28 19 17316 62.59600000 3175397891 3175397891 -3.66700000
3.89511037 -26.96351814 3.34506965 3 25 17318 27.44800000 3175397898 3175397898 7.00000000
2.66196704 -28.10830879 2.30489278 11 26 17319 28.32800000 3175397901 3175397901 4.66700000
18.60590935 -95.62999725 -3.96912265 28 27 17319 97.50400000 3175397901 3175397901 -2.33300000
1.60223258 -17.23883057 -3.46264696 4 4 17329 17.65600000 3175397930 3175397930 -11.31000000
2.91762805 -20.50032234 -3.22151256 12 7 17330 20.95600000 3175397933 3175397933 -8.84300000
2.54258442 -27.40822792 -3.50369072 14 8 17330 27.74800000 3175397935 3175397935 -7.25400000
4.83224440 -33.99565125 -3.69870377 5 11 17331 34.53600000 3175397937 3175397937 -6.14800000
1.72971022 -39.93677139 -3.73151851 12 12 17332 40.14800000 3175397940 3175397940 -5.33300000
8.35931969 -58.95692062 -4.16390324 12 15 17333 59.69200000 3175397942 3175397942 -4.00000000
4.81673813 -52.31996155 -4.28920937 15 16 17334 52.71600000 3175397944 3175397944 -4.66700000
3.80456543 -26.96842384 3.34409475 3 25 17337 27.44000000 3175397954 3175397954 7.00000000
2.56112504 -28.03360748 2.29805827 7 26 17338 28.24400000 3175397956 3175397956 4.66700000
18.61430550 -97.39488983 -4.03979063 28 27 17338 99.24000000 3175397956 3175397956 -2.33300000
1.54309618 -17.25603867 -3.46500039 4 4 17349 17.66800000 3175397986 3175397986 -11.31000000
2.86234808 -20.62783051 -3.23995972 8 7 17350 21.07600000 3175397988 3175397988 -8.84300000
2.41867781 -27.10075378 -3.46328473 17 8 17350 27.42800000 3175397990 3175397990 -7.25400000
4.74411964 -34.23291397 -3.72269344 5 11 17351 34.76000000 3175397993 3175397993 -6.14800000
1.58173835 -39.72767258 -3.71144247 17 12 17352 39.93200000 3175397995 3175397995 -5.33300000
8.16712952 -59.08455658 -4.17087889 12 15 17353 59.79200000 3175397997 3175397997 -4.00000000
4.65552711 -52.57870102 -4.30906248 15 16 17354 52.96000000 3175398000 3175398000 -4.66700000
11.64320755 -61.85660934 -4.03392982 28 19 17354 63.07200000 3175398002 3175398002 -3.66700000
3.70932317 -26.97367477 3.34311986 3 25 17357 27.43200000 3175398009 3175398009 7.00000000
2.46360278 -28.04634666 2.29838371 7 26 17358 28.24800000 3175398011 3175398011 4.66700000
18.54233170 -98.88915253 -4.09906054 28 27 17358 100.69600000 3175398011 3175398011 -2.33300000
8.04247379 -93.61940002 -2.73462653 28 2 17369 94.00400000 3175398039 3175398039 -1.66700000
1.18903089 -13.86944580 -2.78408098 5 4 17370 14.19600000 3175398041 3175398041 -11.31000000
2.79350352 -20.66119766 -3.24364924 10 7 17370 21.10000000 3175398043 3175398043 -8.84300000
2.32981777 -27.23199654 -3.47894216 10 8 17371 27.55200000 3175398046 3175398046 -7.25400000
1.43093979 -39.58992004 -3.69805861 17 12 17373 39.78800000 3175398050 3175398050 -5.33300000
7.98455954 -59.36719131 -4.18873692 12 15 17374 60.04800000 3175398053 3175398053 -4.00000000
4.48907661 -52.90526199 -4.33444834 16 16 17375 53.27200000 3175398055 3175398055 -4.66700000
11.47505951 -62.21684265 -4.05465221 28 19 17375 63.39600000 3175398057 3175398057 -3.66700000
7.90202188 -93.71036530 -4.92858171 28 24 17378 94.17200000 3175398064 3175398064 -3.00000000
3.60885549 -26.97528267 3.34165740 3 25 17378 27.42000000 3175398064 3175398064 7.00000000
2.36212826 -28.07107925 2.29968548 11 26 17379 28.26400000 3175398066 3175398066 4.66700000
18.51917648 -100.80397034 -4.17559004 28 27 17379 102.57600000 3175398066 3175398066 -2.33300000
7.73329258 -93.66149902 -2.73509192 28 2 17388 94.02000000 3175398094 3175398094 -1.66700000
1.13820052 -13.81467628 -2.77231407 3 4 17389 14.13600000 3175398096 3175398096 -11.31000000
2.74615312 -20.83100700 -3.26886058 16 7 17389 21.26400000 3175398099 3175398099 -8.84300000
2.26193452 -27.51244354 -3.51379204 10 8 17390 27.82800000 3175398101 3175398101 -7.25400000
3.52573180 -26.81675911 -2.91346812 13 11 17391 27.20400000 3175398103 3175398103 -6.14800000
1.29729509 -39.52279663 -3.69136667 17 12 17392 39.71600000 3175398106 3175398106 -5.33300000
7.82966661 -59.71381378 -4.21133804 12 15 17393 60.37200000 3175398108 3175398108 -4.00000000
4.32948256 -53.11456299 -4.35039568 16 16 17394 53.46800000 3175398110 3175398110 -4.66700000
11.33906746 -62.64342499 -4.07997942 28 19 17394 63.79200000 3175398113 3175398113 -3.66700000
3.01167703 -93.24131012 -5.43297529 28 20 17395 93.44800000 3175398115 3175398115 -3.33300000
7.57413435 -93.52503967 -4.91748667 57 24 17397 93.96000000 3175398119 3175398119 -3.00000000
3.51835561 -26.97922897 3.34068251 7 25 17397 27.41200000 3175398119 3175398119 7.00000000
2.27031279 -28.09465408 2.30098724 7 26 17398 28.28000000 3175398122 3175398122 4.66700000
18.45781136 -102.37913513 -4.23827934 28 27 17398 104.11600000 3175398122 3175398122 -2.33300000
7.40441513 -93.66400146 -2.73439384 28 2 17408 93.99600000 3175398149 3175398149 -1.66700000
1.09027982 -13.82247543 -2.77309847 3 4 17409 14.14000000 3175398152 3175398152 -11.31000000
2.68046308 -20.89535141 -3.27746916 10 7 17409 21.32000000 3175398154 3175398154 -8.84300000
2.23157382 -28.35483360 -3.62036252 11 8 17410 28.67200000 3175398156 3175398156 -7.25400000
3.43058848 -26.81706810 -2.91218305 9 11 17411 27.19200000 3175398159 3175398159 -6.14800000
1.15827608 -39.49125671 -3.68802071 17 12 17412 39.68000000 3175398161 3175398161 -5.33300000
7.66157484 -60.05743408 -4.23365974 12 15 17413 60.69200000 3175398163 3175398163 -4.00000000
4.16234303 -53.36385727 -4.36959743 17 16 17414 53.70400000 3175398166 3175398166 -4.66700000
11.17262840 -62.97740555 -4.09916639 28 19 17414 64.09200000 3175398168 3175398168 -3.66700000
3.40517187 -26.84167862 3.32215834 7 25 17417 27.26000000 3175398175 3175398175 7.00000000
2.07821298 -26.88609314 2.20139718 7 26 17418 27.05600000 3175398177 3175398177 4.66700000
18.41116714 -104.20220947 -4.31106377 28 27 17418 105.90400000 3175398177 3175398177 -2.33300000
7.07471132 -93.65339661 -2.73334646 28 2 17428 93.96000000 3175398205 3175398205 -1.66700000
1.04143417 -13.81837368 -2.77152944 3 4 17429 14.13200000 3175398207 3175398207 -11.31000000
2.61191130 -20.93987846 -3.28300333 12 7 17429 21.35600000 3175398209 3175398209 -8.84300000
2.17036772 -28.86496735 -3.68450665 16 8 17430 29.18000000 3175398212 3175398212 -7.25400000
3.33892202 -26.84466553 -2.91389656 9 11 17431 27.20800000 3175398214 3175398214 -6.14800000
1.03163111 -39.92902756 -3.72854424 12 12 17432 40.11600000 3175398216 3175398216 -5.33300000
7.45188856 -60.08381271 -4.23365974 12 15 17433 60.69200000 3175398218 3175398218 -4.00000000
3.98966551 -53.56094360 -4.38456869 17 16 17434 53.88800000 3175398221 3175398221 -4.66700000
11.00399590 -63.31098557 -4.11835384 28 19 17434 64.39200000 3175398223 3175398223 -3.66700000
3.31097031 -26.84946060 3.32167077 10 25 17437 27.25600000 3175398230 3175398230 7.00000000
2.08292246 -28.22909546 2.31075096 11 26 17438 28.40000000 3175398232 3175398232 4.66700000
18.36292458 -106.08919525 -4.38645363 28 27 17438 107.75600000 3175398232 3175398232 -2.33300000
6.74919319 -93.69746399 -2.73392844 28 2 17448 93.98000000 3175398260 3175398260 -1.66700000
2.53642392 -20.92925072 -3.27992892 12 7 17449 21.33600000 3175398265 3175398265 -8.84300000
2.08151245 -29.03859520 -3.70571995 12 8 17450 29.34800000 3175398267 3175398267 -7.25400000
3.24137950 -26.82457161 -2.91046929 9 11 17451 27.17600000 3175398269 3175398269 -6.14800000
0.96012801 -42.97041321 -4.01220942 7 12 17452 43.16800000 3175398271 3175398271 -5.33300000
7.28984165 -60.50561905 -4.26156235 12 15 17453 61.09200000 3175398274 3175398274 -4.00000000
3.81792092 -53.78928757 -4.40214348 17 16 17454 54.10400000 3175398276 3175398276 -4.66700000
10.81642342 -63.54577255 -4.13114548 28 19 17454 64.59200000 3175398278 3175398278 -3.66700000
2.07430959 -95.06426239 -5.53762531 28 20 17455 95.24800000 3175398281 3175398281 -3.33300000
6.57469416 -93.32029724 -4.90283251 129 24 17457 93.68000000 3175398285 3175398285 -3.00000000
3.21533942 -26.84508514 3.31972098 10 25 17457 27.24000000 3175398285 3175398285 7.00000000
1.98073840 -28.18449402 2.30651999 7 26 17458 28.34800000 3175398288 3175398288 4.66700000
18.35115433 -108.26868439 -4.47389317 28 27 17458 109.90400000 3175398288 3175398288 -2.33300000
6.41989994 -93.68853760 -2.73299742 28 2 17468 93.94800000 3175398315 3175398315 -1.66700000
2.47814274 -21.09542465 -3.30452538 13 7 17470 21.49600000 3175398320 3175398320 -8.84300000
2.00415587 -29.39801788 -3.75067139 12 8 17470 29.70400000 3175398322 3175398322 -7.25400000
3.14679790 -26.82782173 -2.90961266 9 11 17471 27.16800000 3175398324 3175398324 -6.14800000
0.80637407 -42.77440643 -3.99362063 13 12 17472 42.96800000 3175398327 3175398327 -5.33300000
7.12494040 -60.92702103 -4.28946495 13 15 17473 61.49200000 3175398329 3175398329 -4.00000000
3.64248371 -53.98526001 -4.41711473 18 16 17474 54.28800000 3175398331 3175398331 -4.66700000
10.63915348 -63.91968918 -4.15289116 28 19 17475 64.93200000 3175398334 3175398334 -3.66700000
1.79361057 -97.86172485 -5.70018196 28 20 17475 98.04400000 3175398336 3175398336 -3.33300000
3.11794591 -26.82459641 3.31582117 7 25 17477 27.20800000 3175398341 3175398341 7.00000000
1.87995374 -28.15543556 2.30359101 7 26 17478 28.31200000 3175398343 3175398343 4.66700000
18.28775406 -110.22856903 -4.55221367 28 27 17478 111.82800000 3175398343 3175398343 -2.33300000
6.09256744 -93.70639038 -2.73288107 28 2 17488 93.94400000 3175398371 3175398371 -1.66700000
2.40762305 -21.13143539 -3.30882955 10 7 17490 21.52400000 3175398375 3175398375 -8.84300000
1.93302107 -29.89188004 -3.81279540 17 8 17490 30.19600000 3175398377 3175398377 -7.25400000
3.26575470 -28.70770645 -3.11224031 45 11 17491 29.06000000 3175398380 3175398380 -6.14800000
0.65779263 -42.82474518 -3.99808216 21 12 17492 43.01600000 3175398382 3175398382 -5.33300000
6.95718527 -61.34800339 -4.31736755 13 15 17493 61.89200000 3175398384 3175398384 -4.00000000
3.46852398 -54.22442627 -4.43566561 18 16 17494 54.51600000 3175398387 3175398387 -4.66700000
10.45796204 -64.14373016 -4.16517067 28 19 17494 65.12400000 3175398389 3175398389 -3.66700000
1.44607460 -97.46810913 -5.67692661 28 20 17495 97.64400000 3175398391 3175398391 -3.33300000
3.02473640 -26.83926201 3.31630850 7 25 17497 27.21200000 3175398396 3175398396 7.00000000
1.77058578 -27.98676109 2.28927088 7 26 17498 28.13600000 3175398398 3175398398 4.66700000
18.22241974 -112.26030731 -4.63346529 28 27 17498 113.82400000 3175398398 3175398398 -2.33300000
5.76371574 -93.69915009 -2.73206663 28 2 17508 93.91600000 3175398426 3175398426 -1.66700000
2.35360837 -21.28465843 -3.33158135 8 7 17509 21.67200000 3175398431 3175398431 -8.84300000
1.73685837 -28.39738274 -3.62137270 11 8 17510 28.68000000 3175398433 3175398433 -7.25400000
3.16465473 -28.71102524 -3.11138344 18 11 17511 29.05200000 3175398436 3175398436 -6.14800000
0.51019299 -42.98607635 -4.01295328 21 12 17512 43.17600000 3175398438 3175398438 -5.33300000
6.76914597 -61.60989761 -4.33410931 13 15 17513 62.13200000 3175398440 3175398440 -4.00000000
2.37526608 -39.28533173 -3.21292043 8 16 17514 39.48800000 3175398442 3175398442 -4.66700000
10.27610970 -64.44395447 -4.18231153 28 19 17514 65.39200000 3175398445 3175398445 -3.66700000
1.10959852 -97.80397797 -5.69622850 28 20 17515 97.97600000 3175398447 3175398447 -3.33300000
12.13484859 -110.98149109 -5.20050430 28 23 17516 111.76400000 3175398449 3175398449 -2.66700000
2.93146229 -26.85360336 3.31679606 10 25 17517 27.21600000 3175398452 3175398452 7.00000000
1.68192053 -28.14399719 2.30163813 7 26 17518 28.28800000 3175398454 3175398454 4.66700000
18.21830940 -114.76658630 -4.73425674 28 27 17518 116.30000000 3175398454 3175398454 -2.33300000
2.29179382 -21.33910561 -3.33896017 12 7 17527 21.72000000 3175398486 3175398486 -8.84300000
1.72806549 -29.78916359 -3.79814816 25 8 17528 30.08000000 3175398489 3175398489 -7.25400000
3.08079028 -28.78014183 -3.11780930 11 11 17529 29.11200000 3175398491 3175398491 -6.14800000
0.37399903 -42.85604477 -4.00068426 14 12 17530 43.04400000 3175398493 3175398493 -5.33300000
6.60857916 -61.94034195 -4.35587311 14 15 17531 62.44400000 3175398495 3175398495 -4.00000000
3.14052677 -54.79948807 -4.48090410 19 16 17532 55.07200000 3175398498 3175398498 -4.66700000
10.10441303 -64.67311859 -4.19510269 28 19 17532 65.59200000 3175398500 3175398500 -3.66700000
0.60284734 -73.48900604 -4.27996206 28 20 17533 73.61600000 3175398502 3175398502 -3.33300000
5.89159298 -103.75424194 -5.44628906 28 24 17535 104.06400000 3175398507 3175398507 -3.00000000
2.84499264 -26.84294128 3.31435871 10 25 17535 27.19600000 3175398507 3175398507 7.00000000
1.59619927 -28.19690514 2.30554366 7 26 17536 28.33600000 3175398509 3175398509 4.66700000
18.18319321 -116.91633606 -4.82055616 28 27 17536 118.42000000 3175398509 3175398509 -2.33300000
2.25445151 -21.70472336 -3.39491701 6 7 17547 22.08400000 3175398542 3175398542 -8.84300000
1.63292611 -29.95746040 -3.81885624 12 8 17548 30.24400000 3175398544 3175398544 -7.25400000
3.28292751 -31.71409798 -3.43438816 9 11 17549 32.06800000 3175398546 3175398546 -6.14800000
0.14447095 -27.59166527 -2.57566595 11 12 17550 27.71200000 3175398548 3175398548 -5.33300000
6.41771412 -62.20912552 -4.37317276 14 15 17551 62.69200000 3175398551 3175398551 -4.00000000
2.96207428 -55.04897308 -4.50043154 19 16 17552 55.31200000 3175398553 3175398553 -4.66700000
9.87633228 -64.76891327 -4.19894028 28 19 17553 65.65200000 3175398555 3175398555 -3.66700000
0.13089524 -27.77662659 -1.61766016 13 20 17553 27.82400000 3175398558 3175398558 -3.33300000
2.75087118 -26.84875870 3.31387115 10 25 17555 27.19200000 3175398562 3175398562 7.00000000
1.49015248 -28.05898476 2.29382730 7 26 17556 28.19200000 3175398565 3175398565 4.66700000
18.16463089 -119.54351044 -4.92623234 28 27 17556 121.01600000 3175398565 3175398565 -2.33300000
0.11130341 -27.72687531 -0.96825165 3 28 17557 27.74400000 3175398567 3175398567 -2.00000000
10.60744381 -206.54022217 -6.01883173 28 2 17566 206.90000000 3175398592 3175398592 -1.66700000
0.05838774 -27.87804985 -0.32455340 4 6 17568 27.88000000 3175398597 3175398597 -0.66700000
2.17094541 -21.67351341 -3.38876796 13 7 17568 22.04400000 3175398597 3175398597 -8.84300000
1.51763189 -29.75294685 -3.79208732 12 8 17568 30.03200000 3175398599 3175398599 -7.25400000
3.22443509 -32.24772263 -3.49093533 13 11 17569 32.59600000 3175398601 3175398601 -6.14800000
0.04789304 -27.44066048 -2.56153846 25 12 17570 27.56000000 3175398604 3175398604 -5.33300000
0.04383479 -27.90607452 0.32487935 4 14 17571 27.90800000 3175398606 3175398606 0.66700000
6.23533916 -62.58055878 -4.39772701 14 15 17571 63.04400000 3175398606 3175398606 -4.00000000
2.78071618 -55.27399063 -4.51800632 20 16 17572 55.52800000 3175398608 3175398608 -4.66700000
9.73213387 -65.27508545 -4.22964001 28 19 17572 66.13200000 3175398611 3175398611 -3.66700000
0.03361881 -27.51735497 -1.60254395 25 20 17573 27.56400000 3175398613 3175398613 -3.33300000
2.65674400 -26.85424614 3.31338382 10 25 17575 27.18800000 3175398618 3175398618 7.00000000
1.38370550 -27.89279747 2.27983260 7 26 17576 28.02000000 3175398620 3175398620 4.66700000
18.12853050 -122.17589569 -5.03207111 28 27 17576 123.61600000 3175398620 3175398620 -2.33300000
0.01450532 -27.70310974 -0.96741402 7 28 17577 27.72000000 3175398622 3175398622 -2.00000000
-0.03883582 -27.81408882 -0.32380837 4 6 17588 27.81600000 3175398652 3175398652 -0.66700000
2.11694884 -21.90520477 -3.42381787 8 7 17588 22.27200000 3175398652 3175398652 -8.84300000
1.40623343 -29.59952354 -3.77188444 12 8 17588 29.87200000 3175398654 3175398654 -7.25400000
3.09772062 -32.11231232 -3.47508502 13 11 17589 32.44800000 3175398657 3175398657 -6.14800000
-0.04783048 -27.40481567 -2.55819249 21 12 17590 27.52400000 3175398659 3175398659 -5.33300000
-0.05349906 -27.86606026 0.32441372 4 14 17591 27.86800000 3175398661 3175398661 0.66700000
6.04739475 -62.91970062 -4.42004919 14 15 17591 63.36400000 3175398661 3175398661 -4.00000000
2.61497307 -55.86478806 -4.56552315 21 16 17592 56.11200000 3175398664 3175398664 -4.66700000
9.54158878 -65.56542206 -4.24626875 28 19 17592 66.39200000 3175398666 3175398666 -3.66700000
2.56261182 -26.85940361 3.31289625 10 25 17595 27.18400000 3175398673 3175398673 7.00000000
1.27825320 -27.72222710 2.26551247 7 26 17596 27.84400000 3175398675 3175398675 4.66700000
18.04505730 -124.60773468 -5.12960577 28 27 17596 126.01200000 3175398675 3175398675 -2.33300000
-0.08169851 -27.53509521 -0.96155095 11 28 17597 27.55200000 3175398677 3175398677 -2.00000000
-0.13031651 -27.65381813 -0.32194579 9 6 17607 27.65600000 3175398707 3175398707 -0.66700000
2.14452910 -22.98645782 -3.59168816 48 7 17607 23.36400000 3175398707 3175398707 -8.84300000
1.31860507 -29.96102524 -3.81734085 12 8 17608 30.23200000 3175398710 3175398710 -7.25400000
3.00180316 -32.29716492 -3.49393415 13 11 17609 32.62400000 3175398712 3175398712 -6.14800000
-0.14334486 -27.37660408 -2.55559015 25 12 17610 27.49600000 3175398714 3175398714 -5.33300000
-0.14979562 -27.68571854 0.32231832 8 14 17611 27.68800000 3175398717 3175398717 0.66700000
5.86635542 -63.35762024 -4.44934702 15 15 17611 63.78400000 3175398717 3175398717 -4.00000000
2.42254019 -55.93331909 -4.57040501 21 16 17612 56.17200000 3175398719 3175398719 -4.66700000
9.36877155 -65.99355316 -4.27185202 28 19 17612 66.79200000 3175398721 3175398721 -3.66700000
-0.15793584 -27.42108345 -1.59696257 100 20 17613 27.46800000 3175398724 3175398724 -3.33300000
2.46920276 -26.87213898 3.31338382 10 25 17615 27.18800000 3175398728 3175398728 7.00000000
1.20286250 -28.22839355 2.30651999 3 26 17616 28.34800000 3175398730 3175398730 4.66700000
17.97333145 -127.24227142 -5.23544455 28 27 17616 128.61200000 3175398730 3175398730 -2.33300000
-0.17716806 -27.43470573 -0.95806098 7 28 17617 27.45200000 3175398733 3175398733 -2.00000000
-0.22694400 -27.66519356 -0.32208550 9 6 17627 27.66800000 3175398763 3175398763 -0.66700000
2.06109762 -22.95837402 -3.58615398 10 7 17627 23.32800000 3175398763 3175398763 -8.84300000
1.21610165 -30.01698685 -3.82390690 17 8 17628 30.28400000 3175398765 3175398765 -7.25400000
2.90286136 -32.46193314 -3.51064134 13 11 17629 32.78000000 3175398767 3175398767 -6.14800000
-0.23901044 -27.38788414 -2.55670547 21 12 17630 27.50800000 3175398770 3175398770 -5.33300000
-0.24458461 -27.47704887 0.31989697 8 14 17631 27.48000000 3175398772 3175398772 0.66700000
5.65719700 -63.51284409 -4.45883369 15 15 17631 63.92000000 3175398772 3175398772 -4.00000000
2.22902632 -55.98525620 -4.57398510 21 16 17632 56.21600000 3175398774 3175398774 -4.66700000
9.19308090 -66.42126465 -4.29743481 28 19 17632 67.19200000 3175398777 3175398777 -3.66700000
4.70660305 -119.79105377 -6.28282690 28 24 17635 120.04800000 3175398783 3175398783 -3.00000000
2.37468743 -26.87268448 3.31240869 6 25 17635 27.18000000 3175398783 3175398783 7.00000000
1.10696876 -28.30014229 2.31205297 12 26 17636 28.41600000 3175398786 3175398786 4.66700000
17.93740082 -130.26977539 -5.35740376 28 27 17636 131.60800000 3175398786 3175398786 -2.33300000
-0.27285242 -27.42592430 -0.95778179 7 28 17637 27.44400000 3175398788 3175398788 -2.00000000
-0.32848290 -27.67617607 -0.32222518 9 6 17648 27.68000000 3175398818 3175398818 -0.66700000
1.98100495 -23.01302910 -3.59353280 11 7 17648 23.37600000 3175398818 3175398818 -8.84300000
1.10271561 -29.93004036 -3.81229019 12 8 17649 30.19200000 3175398820 3175398820 -7.25400000
2.79813051 -32.63877869 -3.52863359 13 11 17650 32.94800000 3175398823 3175398823 -6.14800000
-0.34018007 -27.45054245 -2.56265378 18 12 17651 27.57200000 3175398825 3175398825 -5.33300000
-0.34534165 -27.47996712 0.31994352 8 14 17652 27.48400000 3175398827 3175398827 0.66700000
5.45560217 -63.89892578 -4.48450422 15 15 17652 64.28800000 3175398827 3175398827 -4.00000000
1.69707286 -46.95304489 -3.83552122 10 16 17653 47.14000000 3175398830 3175398830 -4.66700000
9.00285053 -66.85012054 -4.32301807 28 19 17653 67.59200000 3175398832 3175398832 -3.66700000
-0.35451230 -27.44720078 -1.59859049 17 20 17654 27.49600000 3175398834 3175398834 -3.33300000
7.94560528 -93.64160156 -4.37764788 28 23 17655 94.08000000 3175398836 3175398836 -2.66700000
2.27517319 -26.86934090 3.31094623 6 25 17656 27.16800000 3175398839 3175398839 7.00000000
0.99998802 -28.21237183 2.30456734 7 26 17657 28.32400000 3175398841 3175398841 4.66700000
-0.37407908 -27.47670364 -0.95959657 7 28 17658 27.49600000 3175398843 3175398843 -2.00000000
7.87993240 -93.64360809 -2.18673515 28 31 17659 94.00000000 3175398846 3175398846 -1.33300000
-0.42250562 -27.82290649 -0.32394806 9 6 17667 27.82800000 3175398873 3175398873 -0.66700000
1.00731325 -30.04854012 -3.82693744 12 8 17668 30.30800000 3175398876 3175398876 -7.25400000
2.70131063 -32.78660202 -3.54362702 14 11 17669 33.08800000 3175398878 3175398878 -6.14800000
-0.43220839 -27.51297760 -2.56860232 7 12 17670 27.63600000 3175398880 3175398880 -5.33300000
-0.43710184 -27.51866341 0.32040918 8 14 17671 27.52400000 3175398882 3175398882 0.66700000
5.26814508 -64.21493530 -4.50543118 15 15 17671 64.58800000 3175398882 3175398882 -4.00000000
1.31404829 -40.03319168 -3.26987553 8 16 17672 40.18800000 3175398885 3175398885 -4.66700000
8.80658150 -67.07353973 -4.33555365 28 19 17672 67.78800000 3175398887 3175398887 -3.66700000
-0.44708407 -27.54170036 -1.60417187 12 20 17673 27.59200000 3175398889 3175398889 -3.33300000
7.63503456 -93.66743469 -4.37764788 28 23 17674 94.08000000 3175398892 3175398892 -2.66700000
2.18638062 -26.88069344 3.31143379 6 25 17675 27.17200000 3175398894 3175398894 7.00000000
0.88044125 -27.40664291 2.23849940 3 26 17676 27.51200000 3175398896 3175398896 4.66700000
-0.46681726 -27.57123947 -0.96294689 3 28 17677 27.59200000 3175398899 3175398899 -2.00000000
7.58095169 -93.81271362 -2.19008517 56 31 17678 94.14400000 3175398901 3175398901 -1.33300000
-0.51992190 -27.83725929 -0.32413432 4 6 17687 27.84400000 3175398929 3175398929 -0.66700000
0.90503836 -30.13912964 -3.83804893 12 8 17688 30.39600000 3175398931 3175398931 -7.25400000
2.63281775 -33.37863922 -3.60660028 14 11 17689 33.67600000 3175398933 3175398933 -6.14800000
-0.92490482 -48.16966629 -4.49737740 17 12 17690 48.38800000 3175398935 3175398935 -5.33300000
-0.53548169 -27.63694000 0.32180610 4 14 17691 27.64400000 3175398938 3175398938 0.66700000
5.09081793 -64.82962799 -4.54728508 16 15 17691 65.18800000 3175398938 3175398938 -4.00000000
1.65946937 -56.57936859 -4.62085104 22 16 17692 56.79200000 3175398940 3175398940 -4.66700000
8.62298107 -67.49983978 -4.36113691 28 19 17692 68.18800000 3175398942 3175398942 -3.66700000
7.30026007 -93.59392548 -4.37299490 28 23 17694 93.98000000 3175398947 3175398947 -2.66700000
2.09161210 -26.87628746 3.30997133 3 25 17695 27.16000000 3175398949 3175398949 7.00000000
0.78956097 -27.57692337 2.25216866 3 26 17696 27.68000000 3175398952 3175398952 4.66700000
-0.56387228 -27.60940933 -0.96434289 3 28 17697 27.63200000 3175398954 3175398954 -2.00000000
7.26857996 -93.82138824 -2.18971276 56 31 17697 94.12800000 3175398956 3175398956 -1.33300000
1.04263532 -13.80216599 -2.15341401 190 7 17708 14.00800000 3175398984 3175398984 -8.84300000
0.72951776 -27.49242401 -3.50066018 10 8 17708 27.72400000 3175398986 3175398986 -7.25400000
2.51838088 -33.41539001 -3.60959888 14 11 17709 33.70400000 3175398988 3175398988 -6.14800000
-1.09430766 -48.22188568 -4.50258255 17 12 17710 48.44400000 3175398991 3175398991 -5.33300000
-0.63423538 -27.73486900 0.32297021 4 14 17711 27.74400000 3175398993 3175398993 0.66700000
4.87195158 -64.94648743 -4.55426073 16 15 17711 65.28800000 3175398993 3175398993 -4.00000000
1.11207020 -43.04240417 -3.51494527 18 16 17712 43.20000000 3175398995 3175398995 -4.66700000
8.42465591 -67.92713165 -4.38671970 28 19 17713 68.58800000 3175398998 3175398998 -3.66700000
-2.24226284 -96.57829285 -5.62599659 28 20 17713 96.76800000 3175399000 3175399000 -3.33300000
1.99954891 -26.90718079 3.31289625 3 25 17715 27.18400000 3175399005 3175399005 7.00000000
0.69279379 -27.55958366 2.25054121 7 26 17716 27.66000000 3175399007 3175399007 4.66700000
6.93071461 -93.70661163 -2.18645597 28 31 17717 93.98800000 3175399012 3175399012 -1.33300000
0.99416643 -13.80177879 -2.15279913 159 7 17728 14.00400000 3175399039 3175399039 -8.84300000
0.62596005 -27.16554642 -3.45873928 28 8 17728 27.39200000 3175399041 3175399041 -7.25400000
2.44419456 -34.01502228 -3.67342877 15 11 17729 34.30000000 3175399044 3175399044 -6.14800000
-1.26012468 -48.12222290 -4.49365997 17 12 17730 48.34800000 3175399046 3175399046 -5.33300000
4.67367601 -65.36110687 -4.58216333 16 15 17731 65.68800000 3175399048 3175399048 -4.00000000
0.96190643 -43.05000687 -3.51527071 18 16 17732 43.20400000 3175399051 3175399051 -4.66700000
8.24717331 -68.35100555 -4.41230249 28 19 17732 68.98800000 3175399053 3175399053 -3.66700000
-2.58214259 -96.67366028 -5.63204336 28 20 17733 96.87200000 3175399055 3175399055 -3.33300000
6.63253355 -93.44332886 -4.36368895 21 23 17734 93.78000000 3175399058 3175399058 -2.66700000
1.92131567 -27.13577080 3.34019494 3 25 17735 27.40800000 3175399060 3175399060 7.00000000
0.58925533 -27.22304153 2.22287750 3 26 17736 27.32000000 3175399062 3175399062 4.66700000
6.60245085 -93.71427917 -2.18608379 28 31 17737 93.97200000 3175399067 3175399067 -1.33300000
0.94785082 -13.79711342 -2.15156937 169 7 17747 13.99600000 3175399094 3175399094 -8.84300000
0.53353512 -27.29055023 -3.47439647 14 8 17748 27.51600000 3175399096 3175399096 -7.25400000
2.32571626 -34.02731705 -3.67385721 15 11 17749 34.30400000 3175399099 3175399099 -6.14800000
-1.43329358 -48.29269028 -4.51001787 8 12 17750 48.52400000 3175399101 3175399101 -5.33300000
4.47933245 -65.87464905 -4.61704159 17 15 17751 66.18800000 3175399103 3175399103 -4.00000000
0.81050086 -42.99331284 -3.51038885 27 16 17752 43.14400000 3175399105 3175399105 -4.66700000
8.05496788 -68.77584839 -4.43788576 28 19 17752 69.38800000 3175399108 3175399108 -3.66700000
-2.92042470 -96.69200134 -5.63367128 28 20 17753 96.90000000 3175399110 3175399110 -3.33300000
1.82578278 -27.13043022 3.33873248 3 25 17755 27.39600000 3175399115 3175399115 7.00000000
0.49762654 -27.41227913 2.23817396 7 26 17756 27.50800000 3175399117 3175399117 4.66700000
6.27341700 -93.70882416 -2.18543243 28 31 17757 93.94400000 3175399122 3175399122 -1.33300000
0.90157712 -13.79229259 -2.15033960 159 7 17766 13.98800000 3175399149 3175399149 -8.84300000
0.44058612 -27.14140701 -3.45520377 14 8 17767 27.36400000 3175399152 3175399152 -7.25400000
2.22112179 -34.16183853 -3.68756557 15 11 17768 34.43200000 3175399154 3175399154 -6.14800000
-1.23864853 -37.53629303 -3.50585032 11 12 17769 37.72000000 3175399156 3175399156 -5.33300000
4.28017235 -66.18778992 -4.63796854 17 15 17770 66.48800000 3175399158 3175399158 -4.00000000
7.87197399 -69.19880676 -4.46346855 28 19 17771 69.78800000 3175399163 3175399163 -3.66700000
-3.24586725 -96.82546234 -5.64204311 28 20 17772 97.04400000 3175399165 3175399165 -3.33300000
1.70421505 -113.53138733 -5.95059824 28 24 17774 113.70000000 3175399170 3175399170 -3.00000000
1.73605835 -27.14029694 3.33922005 3 25 17774 27.40000000 3175399170 3175399170 7.00000000
0.40624827 -27.38188744 2.23557019 11 26 17775 27.47600000 3175399172 3175399172 4.66700000
5.96263313 -93.72911072 -2.18543243 28 31 17776 93.94400000 3175399177 3175399177 -1.33300000
0.85318351 -13.79141140 -2.14972472 117 7 17786 13.98400000 3175399205 3175399205 -8.84300000
0.34695444 -27.23006821 -3.46631527 14 8 17787 27.45200000 3175399207 3175399207 -7.25400000
2.11260486 -34.34403992 -3.70641470 15 11 17788 34.60800000 3175399209 3175399209 -6.14800000
-1.37809134 -37.76258087 -3.52741337 5 12 17789 37.95200000 3175399211 3175399211 -5.33300000
4.06737757 -66.50103760 -4.65889549 17 15 17790 66.78800000 3175399214 3175399214 -4.00000000
0.51577371 -42.82641602 -3.49639416 18 16 17791 42.97200000 3175399216 3175399216 -4.66700000
7.64012718 -69.42558289 -4.47626019 28 19 17792 69.98800000 3175399218 3175399218 -3.66700000
-3.60067153 -97.26845551 -5.66855478 28 20 17792 97.50000000 3175399221 3175399221 -3.33300000
1.64035201 -27.13034058 3.33727002 7 25 17794 27.38400000 3175399225 3175399225 7.00000000
0.31030336 -27.35124779 2.23296666 7 26 17795 27.44400000 3175399228 3175399228 4.66700000
5.63686085 -93.77330017 -2.18599081 28 31 17796 93.96800000 3175399232 3175399232 -1.33300000
0.79895550 -13.81445408 -2.15279913 20 7 17809 14.00400000 3175399260 3175399260 -8.84300000
0.24031235 -26.99709702 -3.43651605 24 8 17809 27.21600000 3175399262 3175399262 -7.25400000
1.98140478 -34.36380768 -3.70769978 25 11 17810 34.62000000 3175399264 3175399264 -6.14800000
-1.52388132 -37.77690887 -3.52927208 11 12 17811 37.97200000 3175399267 3175399267 -5.33300000
3.83483315 -66.91453552 -4.68679810 17 15 17812 67.18800000 3175399269 3175399269 -4.00000000
0.45068046 -54.93938446 -4.48513508 19 16 17813 55.12400000 3175399271 3175399271 -4.66700000
-3.95896530 -96.88285065 -5.64692688 28 20 17814 97.12800000 3175399276 3175399276 -3.33300000
5.88989019 -103.72425842 -4.83942318 28 23 17815 104.00400000 3175399278 3175399278 -2.66700000
1.52472341 -26.93428230 3.31240869 10 25 17816 27.18000000 3175399281 3175399281 7.00000000
0.20531000 -27.35622406 2.23329210 11 26 17817 27.44800000 3175399283 3175399283 4.66700000
0.75490487 -13.80505657 -2.15095448 15 7 17827 13.99200000 3175399315 3175399315 -8.84300000
0.15556598 -27.00962257 -3.43803120 24 8 17827 27.22800000 3175399317 3175399317 -7.25400000
1.90460789 -34.94170380 -3.76938772 21 11 17828 35.19600000 3175399320 3175399320 -6.14800000
-1.54877222 -35.61535645 -3.32776952 5 12 17829 35.80400000 3175399322 3175399322 -5.33300000
3.64099622 -67.22907257 -4.70800400 18 15 17830 67.49200000 3175399324 3175399324 -4.00000000
7.24931622 -70.27012634 -4.52742624 28 19 17831 70.78800000 3175399329 3175399329 -3.66700000
-4.26278496 -96.85797119 -5.64622927 28 20 17832 97.11600000 3175399331 3175399331 -3.33300000
5.56100607 -103.68638611 -4.83681726 28 23 17833 103.94800000 3175399334 3175399334 -2.66700000
0.48470223 -106.81231689 -5.59785366 60 24 17834 106.96000000 3175399336 3175399336 -3.00000000
1.43882787 -26.91515160 3.30948400 6 25 17834 27.15600000 3175399336 3175399336 7.00000000
0.11929744 -27.34078598 2.23199034 7 26 17835 27.43200000 3175399338 3175399338 4.66700000
0.07275981 -27.79213715 -0.80883318 4 2 17845 27.80400000 3175399366 3175399366 -1.66700000
0.70871603 -13.79958916 -2.14972472 15 7 17846 13.98400000 3175399370 3175399370 -8.84300000
0.06128385 -27.01000214 -3.43803120 17 8 17847 27.22800000 3175399373 3175399373 -7.25400000
0.05833206 -27.85146904 -0.16187342 7 10 17848 27.85200000 3175399375 3175399375 -0.33300000
1.78748930 -35.04346085 -3.77966905 26 11 17848 35.29200000 3175399375 3175399375 -6.14800000
-1.78541994 -38.00069046 -3.55120707 11 12 17849 38.20800000 3175399377 3175399377 -5.33300000
3.42931509 -67.69567871 -4.73981285 18 15 17850 67.94800000 3175399380 3175399380 -4.00000000
0.04312881 -27.45662880 -2.24142861 20 16 17851 27.54800000 3175399382 3175399382 -4.66700000
0.04408866 -28.06768990 0.48992395 3 18 17851 28.07200000 3175399384 3175399384 1.00000000
7.06334925 -70.89082336 -4.56580067 28 19 17851 71.38800000 3175399384 3175399384 -3.66700000
0.03439982 -28.15662193 1.14713120 4 22 17853 28.18000000 3175399389 3175399389 2.33300000
0.02880029 -27.50224304 -1.44133222 19 24 17854 27.54000000 3175399391 3175399391 -3.00000000
1.34466958 -26.91604614 3.30899644 10 25 17854 27.15200000 3175399391 3175399391 7.00000000
0.02378650 -27.25731468 2.22515559 7 26 17855 27.34800000 3175399393 3175399393 4.66700000
-0.02407186 -27.58431053 -0.80278236 8 2 17865 27.59600000 3175399421 3175399421 -1.66700000
-9.82698917 -196.70533752 -2.29287434 29 6 17866 196.96400000 3175399426 3175399426 -0.66700000
0.65978640 -13.78618717 -2.14726496 15 7 17866 13.96800000 3175399426 3175399426 -8.84300000
-0.03306689 -27.06560326 -3.44510221 21 8 17867 27.28400000 3175399428 3175399428 -7.25400000
-0.03859206 -27.63950539 -0.16064130 11 10 17868 27.64000000 3175399430 3175399430 -0.33300000
1.69327450 -35.64139175 -3.84349895 10 11 17868 35.88800000 3175399430 3175399430 -6.14800000
-1.79436255 -35.54401398 -3.32219267 5 12 17869 35.74400000 3175399433 3175399433 -5.33300000
3.21103692 -68.08987427 -4.76659918 18 15 17870 68.33200000 3175399435 3175399435 -4.00000000
-0.05262878 -27.41275787 -2.23784852 28 16 17871 27.50400000 3175399437 3175399437 -4.66700000
-0.05357132 -27.90369797 0.48706177 7 18 17871 27.90800000 3175399440 3175399440 1.00000000
6.83494616 -71.11372375 -4.57859230 28 19 17871 71.58800000 3175399440 3175399440 -3.66700000
-0.06332311 -27.90877533 1.13703573 4 22 17873 27.93200000 3175399444 3175399444 2.33300000
-0.06702494 -27.43027496 -1.43756402 14 24 17874 27.46800000 3175399446 3175399446 -3.00000000
1.25107527 -26.92850685 3.30997133 16 25 17874 27.16000000 3175399446 3175399446 7.00000000
-0.07110894 -27.16155052 2.21734452 10 26 17875 27.25200000 3175399449 3175399449 4.66700000
-0.11985299 -27.46810913 -0.79940790 8 2 17885 27.48000000 3175399476 3175399476 -1.66700000
0.61183476 -13.79235458 -2.14787984 15 7 17886 13.97200000 3175399481 3175399481 -8.84300000
-0.12731889 -27.01770592 -3.43904138 21 8 17887 27.23600000 3175399483 3175399483 -7.25400000
-0.13428982 -27.47920799 -0.15971139 7 10 17888 27.48000000 3175399486 3175399486 -0.33300000
1.57444799 -35.77422714 -3.85720730 16 11 17888 36.01600000 3175399486 3175399486 -6.14800000
-1.92293179 -35.62104797 -3.33000016 10 12 17889 35.82800000 3175399488 3175399488 -5.33300000
2.98552299 -68.37972260 -4.78613138 19 15 17890 68.61200000 3175399490 3175399490 -4.00000000
-0.14825213 -27.40044594 -2.23687220 32 16 17891 27.49200000 3175399493 3175399493 -4.66700000
-0.14932853 -27.59939194 0.48175624 7 18 17891 27.60400000 3175399495 3175399495 1.00000000
6.64150810 -71.72939301 -4.61671114 28 19 17891 72.18400000 3175399495 3175399495 -3.66700000
-4.69217920 -86.08214569 -5.02065325 28 20 17892 86.35600000 3175399497 3175399497 -3.33300000
-0.16060442 -27.88440514 1.13605881 8 22 17893 27.90800000 3175399499 3175399499 2.33300000
-0.16265553 -27.40990067 -1.43651736 14 24 17894 27.44800000 3175399502 3175399502 -3.00000000
1.15724003 -26.93667603 3.31045890 13 25 17894 27.16400000 3175399502 3175399502 7.00000000
-0.16550601 -27.09336281 2.21181178 10 26 17895 27.18400000 3175399504 3175399504 4.66700000
-0.21557684 -27.44753265 -0.79882604 8 2 17905 27.46000000 3175399532 3175399532 -1.66700000
0.56352532 -13.79045773 -2.14726496 15 7 17906 13.96800000 3175399536 3175399536 -8.84300000
-0.22139966 -26.98932266 -3.43550587 17 8 17907 27.20800000 3175399539 3175399539 -7.25400000
-0.23017582 -27.47457123 -0.15968814 7 10 17908 27.47600000 3175399541 3175399541 -0.33300000
1.45841765 -35.99806213 -3.88076854 16 11 17908 36.23600000 3175399541 3175399541 -6.14800000
-2.04246092 -35.53062057 -3.32219267 10 12 17909 35.74400000 3175399543 3175399543 -5.33300000
2.76971459 -68.95986938 -4.82603168 19 15 17910 69.18400000 3175399545 3175399545 -4.00000000
-0.24418053 -27.43165588 -2.23947573 24 16 17911 27.52400000 3175399548 3175399548 -4.66700000
-0.24559629 -27.59070396 0.48161662 7 18 17911 27.59600000 3175399550 3175399550 1.00000000
6.42650080 -72.14974976 -4.64229393 28 19 17911 72.58400000 3175399550 3175399550 -3.66700000
-4.83676529 -83.37831879 -4.86391068 28 20 17912 83.66000000 3175399552 3175399552 -3.33300000
-0.25764242 -27.85170174 1.13475621 8 22 17913 27.87600000 3175399555 3175399555 2.33300000
-0.25833297 -27.40916634 -1.43651736 47 24 17914 27.44800000 3175399557 3175399557 -3.00000000
1.06289339 -26.93261719 3.30948400 10 25 17914 27.15600000 3175399557 3175399557 7.00000000
-0.25996366 -27.08066177 2.21083546 10 26 17915 27.17200000 3175399559 3175399559 4.66700000
8.29599285 -93.87998199 -3.83967352 28 27 17915 94.32400000 3175399559 3175399559 -2.33300000
-0.31143066 -27.45060921 -0.79894245 8 2 17925 27.46400000 3175399587 3175399587 -1.66700000
-0.31505185 -26.94077301 -3.42944503 14 8 17927 27.16000000 3175399594 3175399594 -7.25400000
-0.32641086 -27.50159836 -0.15985088 7 10 17928 27.50400000 3175399596 3175399596 -0.33300000
1.33687139 -36.11421204 -3.89276361 16 11 17928 36.34800000 3175399596 3175399596 -6.14800000
-2.18223214 -35.78166962 -3.34635830 10 12 17929 36.00400000 3175399598 3175399598 -5.33300000
2.54360461 -69.36787415 -4.85393429 19 15 17930 69.58400000 3175399601 3175399601 -4.00000000
-0.34057561 -27.48246002 -2.24370670 20 16 17931 27.57600000 3175399603 3175399603 -4.66700000
-0.34195387 -27.59367752 0.48168641 7 18 17931 27.60000000 3175399605 3175399605 1.00000000
6.20863962 -72.56947327 -4.66787720 28 19 17931 72.98400000 3175399605 3175399605 -3.66700000
-0.35486144 -27.85063362 1.13475621 8 22 17933 27.87600000 3175399610 3175399610 2.33300000
-0.35441995 -27.44005013 -1.43819213 33 24 17934 27.48000000 3175399612 3175399612 -3.00000000
0.96901721 -26.94013214 3.30997133 10 25 17934 27.16000000 3175399612 3175399612 7.00000000
-0.35428250 -27.06364250 2.20953369 7 26 17935 27.15600000 3175399615 3175399615 4.66700000
7.95607567 -93.76499939 -3.83381176 28 27 17935 94.18000000 3175399615 3175399615 -2.33300000
7.81738663 -93.88073730 -1.64436579 28 1 17944 94.22000000 3175399640 3175399640 -1.00000000
-0.40813899 -27.50932312 -0.80068785 8 2 17945 27.52400000 3175399642 3175399642 -1.66700000
-8.32710934 -129.82440186 -1.51450491 29 6 17947 130.10000000 3175399647 3175399647 -0.66700000
0.76593012 -22.72951317 -3.53819108 4 7 17947 23.01600000 3175399647 3175399647 -8.84300000
-0.41005474 -27.00298882 -3.43752623 14 8 17947 27.22400000 3175399649 3175399649 -7.25400000
-0.42332885 -27.56028366 -0.16019958 7 10 17948 27.56400000 3175399651 3175399651 -0.33300000
1.22305965 -36.48433685 -3.93217516 16 11 17948 36.71600000 3175399651 3175399651 -6.14800000
