# .PCD v0.7 - Point Cloud Data file format
VERSION 0.7
FIELDS x y z intensity laser_id azimuth distance_m adjustedtime timestamp vertical_angle
SIZE 4 4 4 1 1 2 8 8 4 8
TYPE F F F U U U F U U F
COUNT 1 1 1 1 1 1 1 1 1 1
WIDTH 521
HEIGHT 1
VIEWPOINT 0 0 0 1 0 0 0
POINTS 521
DATA ascii
40.79862595 39.89720917 0.66433334 25 14 4144 57.06800000 3177961299 3177961299 0.66700000
15.03503990 17.89267921 -1.63425469 4 15 4144 23.42800000 3177961299 3177961299 -4.00000000
14.50548649 15.63710594 -1.74119973 2 16 4145 21.40000000 3177961302 3177961302 -4.66700000
40.07528305 52.70167542 1.92684066 28 17 4145 66.23600000 3177961302 3177961302 1.66700000
40.97274017 44.16915512 1.05161226 28 18 4145 60.25600000 3177961304 3177961304 1.00000000
14.85491371 19.53520393 -1.57284379 3 19 4145 24.59200000 3177961304 3177961304 -3.66700000
17.86130333 17.45447731 -1.45440578 3 20 4146 25.01600000 3177961306 3177961306 -3.33300000
40.26938248 47.88924408 3.64392138 40 21 4146 62.67600000 3177961306 3177961306 3.33300000
39.51386261 42.56665421 2.36623287 25 22 4147 58.12800000 3177961308 3177961308 2.33300000
17.82210159 21.18693161 -1.28965664 2 23 4147 27.71600000 3177961308 3177961308 -2.66700000
18.26855278 19.67307281 -1.40699983 4 24 4148 26.88400000 3177961311 3177961311 -3.00000000
50.99422073 60.60050583 9.72468567 28 25 4148 79.79600000 3177961311 3177961311 7.00000000
113.15465546 121.81154633 13.57257080 28 26 4149 166.81200000 3177961313 3177961313 4.66700000
18.17494965 23.86667252 -1.22219539 4 27 4149 30.02400000 3177961313 3177961313 -2.33300000
20.85688782 20.35338402 -1.01766932 12 28 4150 29.16000000 3177961315 3177961315 -2.00000000
20.98421669 24.91073227 -0.75791311 12 31 4151 32.58000000 3177961318 3177961318 -1.33300000
3.63127828 3.89543200 -2.48330498 12 0 4159 5.87600000 3177961338 3177961338 -25.00000000
21.00234985 27.47987175 -0.60371363 18 1 4159 34.59200000 3177961338 3177961338 -1.00000000
20.90667343 22.41966248 -0.89214849 14 2 4160 30.66800000 3177961341 3177961341 -1.66700000
5.89738417 6.97861147 -2.55773115 6 3 4160 9.48800000 3177961341 3177961341 -15.63900000
8.14695168 8.73347950 -2.38870859 3 4 4161 12.18000000 3177961343 3177961343 -11.31000000
37.70767975 44.60521698 0.00000000 19 5 4161 58.40800000 3177961343 3177961343 0.00000000
20.96460342 20.38006783 -0.34038526 15 6 4161 29.24000000 3177961345 3177961345 -0.66700000
9.07628345 10.73652935 -2.18723416 1 7 4161 14.22800000 3177961345 3177961345 -8.84300000
11.03713894 11.82760239 -2.05918217 4 8 4162 16.30800000 3177961348 3177961348 -7.25400000
39.76900864 51.97809219 0.38037813 28 9 4162 65.44800000 3177961348 3177961348 0.33300000
35.12293243 37.62521744 -0.29915082 12 10 4163 51.47200000 3177961350 3177961350 -0.33300000
11.56370926 13.66927814 -1.92860365 3 11 4163 18.00800000 3177961350 3177961350 -6.14800000
14.15726280 13.74811935 -1.84215140 2 12 4164 19.82000000 3177961352 3177961352 -5.33300000
40.43066025 47.77553177 1.45636559 18 13 4164 62.60400000 3177961352 3177961352 1.33300000
40.94458389 39.74740601 0.66433334 25 14 4165 57.06800000 3177961354 3177961354 0.66700000
15.09536266 17.83136177 -1.63369656 2 15 4165 23.42000000 3177961354 3177961354 -4.00000000
14.55725765 15.57800961 -1.74054885 2 16 4166 21.39200000 3177961357 3177961357 -4.66700000
40.19522476 52.45922470 1.92334974 28 17 4166 66.11600000 3177961357 3177961357 1.66700000
40.96505356 43.83751297 1.04728401 28 18 4166 60.00800000 3177961359 3177961359 1.00000000
14.92641449 19.48062515 -1.57284379 3 19 4166 24.59200000 3177961359 3177961359 -3.66700000
17.92515755 17.38889503 -1.45440578 3 20 4167 25.01600000 3177961361 3177961361 -3.33300000
40.34396744 47.62250137 3.63485169 40 21 4167 62.52000000 3177961361 3177961361 3.33300000
39.47306442 42.21136093 2.35450912 49 22 4168 57.84000000 3177961364 3177961364 2.33300000
17.88672066 21.10622787 -1.28872597 2 23 4168 27.69600000 3177961364 3177961364 -2.66700000
18.33234978 19.59723091 -1.40637183 4 24 4169 26.87200000 3177961366 3177961366 -3.00000000
18.26473618 23.80306816 -1.22235823 4 27 4170 30.02800000 3177961368 3177961368 -2.33300000
20.86243629 20.21004677 -1.01431894 12 28 4171 29.06400000 3177961371 3177961371 -2.00000000
20.98222733 24.72389221 -0.75456321 12 31 4172 32.43600000 3177961373 3177961373 -1.33300000
3.65409899 3.89394307 -2.49006677 11 0 4178 5.89200000 3177961394 3177961394 -25.00000000
20.99579620 27.28329277 -0.60092127 18 1 4178 34.43200000 3177961394 3177961394 -1.00000000
20.89333725 22.25692749 -0.88842493 14 2 4179 30.54000000 3177961396 3177961396 -1.66700000
5.91550159 6.95314884 -2.55557442 6 3 4179 9.48000000 3177961396 3177961396 -15.63900000
8.17586803 8.70641518 -2.38870859 3 4 4180 12.18000000 3177961398 3177961398 -11.31000000
37.93316269 44.57131577 0.00000000 19 5 4180 58.52800000 3177961398 3177961398 0.00000000
20.96014214 20.24097252 -0.33922115 15 6 4180 29.14000000 3177961401 3177961401 -0.66700000
9.10671425 10.70035267 -2.18600440 1 7 4180 14.22000000 3177961401 3177961401 -8.84300000
11.05456638 11.76780033 -2.05514169 33 8 4181 16.27600000 3177961403 3177961403 -7.25400000
39.79224777 51.65263748 0.37896001 28 9 4181 65.20400000 3177961403 3177961403 0.33300000
35.20094299 37.45898438 -0.29875562 12 10 4182 51.40400000 3177961405 3177961405 -0.33300000
11.59608173 13.61571789 -1.92646170 3 11 4182 17.98800000 3177961405 3177961405 -6.14800000
14.19130993 13.69003582 -1.84066439 2 12 4183 19.80400000 3177961407 3177961407 -5.33300000
40.24913788 47.24243546 1.44417572 18 13 4183 62.08000000 3177961407 3177961407 1.33300000
40.91493607 39.45592880 0.66172576 24 14 4184 56.84400000 3177961410 3177961410 0.66700000
15.14664555 17.77209473 -1.63285959 2 15 4184 23.40800000 3177961410 3177961410 -4.00000000
14.59790993 15.51803493 -1.73924696 2 16 4185 21.37600000 3177961412 3177961412 -4.66700000
40.10275269 51.98058319 1.91066623 28 17 4185 65.68000000 3177961412 3177961412 1.66700000
40.98962402 43.57325363 1.04421234 27 18 4185 59.83200000 3177961414 3177961414 1.00000000
14.97142506 19.40573692 -1.57079720 3 19 4185 24.56000000 3177961414 3177961414 -3.66700000
17.96547127 17.31273270 -1.45301044 3 20 4186 24.99200000 3177961417 3177961417 -3.33300000
40.45761490 47.43680191 3.63089824 40 21 4186 62.45200000 3177961417 3177961417 3.33300000
39.45941544 41.91726685 2.34539056 48 22 4187 57.61600000 3177961419 3177961419 2.33300000
17.93845940 21.02551842 -1.28742313 2 23 4187 27.66800000 3177961419 3177961419 -2.66700000
18.37532806 19.51306725 -1.40469706 4 24 4188 26.84000000 3177961421 3177961421 -3.00000000
18.33135223 23.72655487 -1.22154403 4 27 4189 30.00800000 3177961424 3177961424 -2.33300000
20.86020851 20.07422829 -1.01096857 12 28 4190 28.96800000 3177961426 3177961426 -2.00000000
20.97409248 24.55750656 -0.75149250 12 31 4190 32.30400000 3177961428 3177961428 -1.33300000
3.66019917 3.87325954 -2.48499537 10 0 4198 5.88000000 3177961449 3177961449 -25.00000000
20.99044800 27.08023643 -0.59805906 18 1 4198 34.26800000 3177961449 3177961449 -1.00000000
20.89673996 22.10540962 -0.88528311 14 2 4199 30.43200000 3177961451 3177961451 -1.66700000
5.93723011 6.92953253 -2.55449605 5 3 4199 9.47600000 3177961451 3177961451 -15.63900000
8.20351410 8.67497253 -2.38792419 3 4 4200 12.17600000 3177961454 3177961454 -11.31000000
39.03864288 45.54716873 0.00000000 21 5 4200 59.98800000 3177961454 3177961454 0.00000000
20.95911789 20.09205055 -0.33801049 15 6 4201 29.03600000 3177961456 3177961456 -0.66700000
9.13815308 10.65790176 -2.18415952 2 7 4201 14.20800000 3177961456 3177961456 -8.84300000
11.10648346 11.74067211 -2.05716181 23 8 4201 16.29200000 3177961458 3177961458 -7.25400000
39.84234619 51.34593582 0.37772790 28 9 4201 64.99200000 3177961458 3177961458 0.33300000
35.48269653 37.49567413 -0.30003422 12 10 4202 51.62400000 3177961460 3177961460 -0.33300000
11.65389538 13.58723164 -1.92817521 3 11 4202 18.00400000 3177961460 3177961460 -6.14800000
14.23613453 13.63766098 -1.84029257 4 12 4203 19.80000000 3177961463 3177961463 -5.33300000
40.15340042 46.79816437 1.43487048 18 13 4203 61.68000000 3177961463 3177961463 1.33300000
40.89641953 39.16348648 0.65921128 24 14 4204 56.62800000 3177961465 3177961465 0.66700000
15.20339108 17.71306038 -1.63230145 2 15 4204 23.40000000 3177961465 3177961465 -4.00000000
14.64650536 15.46119595 -1.73859608 2 16 4205 21.36800000 3177961467 3177961467 -4.66700000
39.77856445 51.18991089 1.88669562 28 17 4205 64.85600000 3177961467 3177961467 1.66700000
40.75016403 43.00179672 1.03409004 27 18 4206 59.25200000 3177961470 3177961470 1.00000000
15.03510094 19.34127808 -1.57002974 3 19 4206 24.54800000 3177961470 3177961470 -3.66700000
18.01136780 17.23611069 -1.45184767 3 20 4206 24.97200000 3177961472 3177961472 -3.33300000
40.48765945 47.13777161 3.61880517 39 21 4206 62.24400000 3177961472 3177961472 3.33300000
39.61374283 41.78797150 2.34587908 48 22 4207 57.62800000 3177961474 3177961474 2.33300000
18.00653458 20.95671272 -1.28705084 2 23 4207 27.66000000 3177961474 3177961474 -2.66700000
18.44882584 19.45460320 -1.40511572 4 24 4208 26.84800000 3177961477 3177961477 -3.00000000
18.33306122 23.55833626 -1.21617067 4 27 4209 29.87600000 3177961479 3177961479 -2.33300000
20.86368179 19.93776703 -1.00775790 12 28 4210 28.87600000 3177961481 3177961481 -2.00000000
20.97363281 24.38409805 -0.74842173 12 31 4210 32.17200000 3177961484 3177961484 -1.33300000
3.70186615 3.88870120 -2.50359058 9 0 4219 5.92400000 3177961504 3177961504 -25.00000000
20.99355507 26.88019371 -0.59533650 18 1 4219 34.11200000 3177961504 3177961504 -1.00000000
20.89490128 21.94180679 -0.88179225 14 2 4220 30.31200000 3177961507 3177961507 -1.66700000
5.96258831 6.90772486 -2.55449605 6 3 4220 9.47600000 3177961507 3177961507 -15.63900000
8.22984314 8.63916683 -2.38635516 3 4 4221 12.16800000 3177961509 3177961509 -11.31000000
38.97003937 45.13130188 0.00000000 20 5 4221 59.62800000 3177961509 3177961509 0.00000000
20.96307755 19.94892120 -0.33689293 15 6 4222 28.94000000 3177961511 3177961511 -0.66700000
9.17973900 10.62732792 -2.18477464 2 7 4222 14.21200000 3177961511 3177961511 -8.84300000
11.12754154 11.67690563 -2.05312133 22 8 4222 16.26000000 3177961513 3177961513 -7.25400000
39.93172073 51.07351303 0.37679797 28 9 4222 64.83200000 3177961513 3177961513 0.33300000
35.87932205 37.63751984 -0.30221951 13 10 4223 52.00000000 3177961516 3177961516 -0.33300000
11.69841671 13.53840828 -1.92731845 4 11 4223 17.99600000 3177961516 3177961516 -6.14800000
14.27736568 13.57715797 -1.83917725 2 12 4224 19.78800000 3177961518 3177961518 -5.33300000
40.32204056 46.64765167 1.43477738 18 13 4224 61.67600000 3177961518 3177961518 1.33300000
40.90633774 38.88656616 0.65706933 24 14 4225 56.44400000 3177961520 3177961520 0.66700000
15.18208218 17.55761337 -1.62309361 4 15 4225 23.26800000 3177961520 3177961520 -4.00000000
14.70032310 15.40452576 -1.73827064 2 16 4226 21.36400000 3177961523 3177961523 -4.66700000
40.08916092 51.20117950 1.89251375 28 17 4226 65.05600000 3177961523 3177961523 1.66700000
40.44167709 42.37899017 1.02250159 26 18 4226 58.58800000 3177961525 3177961525 1.00000000
15.08775711 19.26982117 -1.56849468 3 19 4226 24.52400000 3177961525 3177961525 -3.66700000
18.09758186 17.19198227 -1.45370805 3 20 4227 25.00400000 3177961527 3177961527 -3.33300000
40.43021393 46.72332764 3.59834027 38 21 4227 61.89200000 3177961527 3177961527 3.33300000
39.79147720 41.66851425 2.34734464 24 22 4228 57.66400000 3177961530 3177961530 2.33300000
18.07014847 20.87546921 -1.28612030 2 23 4228 27.64000000 3177961530 3177961530 -2.66700000
18.51448822 19.38107681 -1.40469706 4 24 4229 26.84000000 3177961532 3177961532 -3.00000000
115.79358673 121.17106628 13.68225002 28 26 4230 168.16000000 3177961534 3177961534 4.66700000
18.41435242 23.48469353 -1.21584511 4 27 4230 29.86800000 3177961534 3177961534 -2.33300000
20.85831261 19.78688049 -1.00398874 12 28 4231 28.76800000 3177961537 3177961537 -2.00000000
20.97120667 24.20128632 -0.74516493 17 31 4231 32.03200000 3177961539 3177961539 -1.33300000
3.72545266 3.88622355 -2.51035237 11 0 4239 5.94000000 3177961560 3177961560 -25.00000000
20.99329376 26.68729973 -0.59268373 17 1 4239 33.96000000 3177961560 3177961560 -1.00000000
20.88557434 21.77927589 -0.87818503 14 2 4240 30.18800000 3177961562 3177961562 -1.66700000
5.98413754 6.88396263 -2.55341792 6 3 4240 9.47200000 3177961562 3177961562 -15.63900000
8.27081108 8.62170887 -2.38949299 3 4 4241 12.18400000 3177961565 3177961565 -11.31000000
39.08009720 44.94066238 0.00000000 20 5 4241 59.55600000 3177961565 3177961565 0.00000000
20.95354462 19.80785561 -0.33568227 15 6 4241 28.83600000 3177961567 3177961567 -0.66700000
9.20455551 10.58489799 -2.18231487 2 7 4241 14.19600000 3177961567 3177961567 -8.84300000
39.94642639 50.72640991 0.37526363 56 9 4242 64.56800000 3177961569 3177961569 0.33300000
36.01048279 37.51204681 -0.30221951 13 10 4243 52.00000000 3177961572 3177961572 -0.33300000
11.68294621 13.42548847 -1.91703713 2 11 4243 17.90000000 3177961572 3177961572 -6.14800000
14.31019306 13.51356506 -1.83731830 2 12 4244 19.76800000 3177961574 3177961574 -5.33300000
40.34809113 46.34977722 1.42993867 17 13 4244 61.46800000 3177961574 3177961574 1.33300000
40.91385269 38.62273026 0.65502048 24 14 4245 56.26800000 3177961576 3177961576 0.66700000
15.22755527 17.48645592 -1.62141943 4 15 4245 23.24400000 3177961576 3177961576 -4.00000000
14.74571800 15.34449482 -1.73729420 2 16 4246 21.35200000 3177961578 3177961578 -4.66700000
40.40381622 51.23360062 1.89891374 28 17 4246 65.27600000 3177961578 3177961578 1.66700000
39.57511139 41.18213272 0.99695128 24 18 4246 57.12400000 3177961581 3177961581 1.00000000
15.15740108 19.22017097 -1.56875050 3 19 4246 24.52800000 3177961581 3177961581 -3.66700000
18.12843513 17.10130310 -1.45138252 3 20 4247 24.96400000 3177961583 3177961583 -3.33300000
40.45139694 46.41934586 3.58578229 38 21 4247 61.67600000 3177961583 3177961583 3.33300000
39.40478897 40.97625351 2.31608152 22 22 4248 56.89600000 3177961585 3177961585 2.33300000
18.13765526 20.80624199 -1.28574800 2 23 4248 27.63200000 3177961585 3177961585 -2.66700000
97.40679169 101.22063446 11.46783447 28 26 4250 140.94400000 3177961590 3177961590 4.66700000
18.49126244 23.41399956 -1.21551943 4 27 4250 29.86000000 3177961590 3177961590 -2.33300000
20.86323738 19.65364647 -1.00091755 12 28 4251 28.68000000 3177961592 3177961592 -2.00000000
20.97667694 24.03754616 -0.74237335 16 31 4251 31.91200000 3177961595 3177961595 -1.33300000
3.82460189 3.96187496 -2.56782866 14 0 4259 6.07600000 3177961615 3177961615 -25.00000000
20.99194145 26.49473763 -0.59003097 17 1 4259 33.80800000 3177961615 3177961615 -1.00000000
20.88648033 21.62858391 -0.87504327 14 2 4260 30.08000000 3177961618 3177961618 -1.66700000
6.00305605 6.85723543 -2.55126119 6 3 4260 9.46400000 3177961618 3177961618 -15.63900000
8.29268074 8.58432293 -2.38713956 3 4 4261 12.17200000 3177961620 3177961620 -11.31000000
39.14712906 44.70166397 0.00000000 20 5 4261 59.42000000 3177961620 3177961620 0.00000000
20.95548820 19.67163086 -0.33461130 15 6 4261 28.74400000 3177961622 3177961622 -0.66700000
9.23363590 10.54378319 -2.18047023 2 7 4261 14.18400000 3177961622 3177961622 -8.84300000
11.20878983 11.59893608 -2.05312133 2 8 4262 16.26000000 3177961625 3177961625 -7.25400000
40.11828232 50.58039474 0.37521714 28 9 4262 64.56000000 3177961625 3177961625 0.33300000
36.17178726 37.41775513 -0.30247524 13 10 4263 52.04400000 3177961627 3177961627 -0.33300000
11.72187519 13.37565231 -1.91575205 2 11 4263 17.88800000 3177961627 3177961627 -6.14800000
14.37180328 13.47715282 -1.83917725 2 12 4264 19.78800000 3177961629 3177961629 -5.33300000
40.50172806 46.19963074 1.42965949 35 13 4264 61.45600000 3177961629 3177961629 1.33300000
40.90251923 38.34290695 0.65269226 24 14 4265 56.06800000 3177961631 3177961631 0.66700000
15.29902458 17.44519424 -1.62253559 2 15 4265 23.26000000 3177961631 3177961631 -4.00000000
14.79919052 15.29292870 -1.73729420 2 16 4266 21.35200000 3177961634 3177961634 -4.66700000
40.46303940 50.94197464 1.89332831 28 17 4266 65.08400000 3177961634 3177961634 1.66700000
40.53073883 41.88294983 1.01733565 25 18 4266 58.29200000 3177961636 3177961636 1.00000000
15.21198654 19.15151596 -1.56747139 3 19 4266 24.50800000 3177961636 3177961636 -3.66700000
18.18802071 17.03792000 -1.45138252 3 20 4267 24.96400000 3177961638 3177961638 -3.33300000
40.47621536 46.12179184 3.57368946 37 21 4267 61.46800000 3177961638 3177961638 3.33300000
39.65045547 40.94468307 2.32210612 23 22 4268 57.04400000 3177961641 3177961641 2.33300000
18.19435692 20.72478676 -1.28463125 2 23 4268 27.60800000 3177961641 3177961641 -2.66700000
18.47146416 19.06772995 -1.39129901 23 24 4269 26.58400000 3177961643 3177961643 -3.00000000
96.28353119 99.35689545 11.29469109 28 26 4270 138.81600000 3177961645 3177961645 4.66700000
18.57039070 23.34618187 -1.21535659 4 27 4270 29.85600000 3177961645 3177961645 -2.33300000
20.85581207 19.50969696 -0.99728799 12 28 4271 28.57600000 3177961648 3177961648 -2.00000000
20.97070312 23.86204910 -0.73920953 12 31 4271 31.77600000 3177961650 3177961650 -1.33300000
3.66086555 3.76718092 -2.44949555 11 0 4278 5.79600000 3177961671 3177961671 -25.00000000
20.97743034 26.29679489 -0.58716875 17 1 4278 33.64400000 3177961671 3177961671 -1.00000000
20.88005257 21.47892952 -0.87178510 13 2 4279 29.96800000 3177961673 3177961673 -1.66700000
6.02321577 6.83440113 -2.55018282 6 3 4279 9.46000000 3177961673 3177961673 -15.63900000
8.32110119 8.55677605 -2.38713956 1 4 4280 12.17200000 3177961675 3177961675 -11.31000000
39.21579361 44.48158646 0.00000000 20 5 4280 59.30000000 3177961675 3177961675 0.00000000
20.95332718 19.53929329 -0.33354032 15 6 4280 28.65200000 3177961678 3177961678 -0.66700000
9.28423214 10.53089428 -2.18415952 2 7 4280 14.20800000 3177961678 3177961678 -8.84300000
11.23612404 11.55032635 -2.05110097 2 8 4281 16.24400000 3177961680 3177961680 -7.25400000
40.19843292 50.33768463 0.37440348 28 9 4281 64.42000000 3177961680 3177961680 0.33300000
36.37656784 37.38072968 -0.30314943 13 10 4282 52.16000000 3177961682 3177961682 -0.33300000
11.76353455 13.33372593 -1.91532362 2 11 4282 17.88400000 3177961682 3177961682 -6.14800000
14.40475941 13.41856098 -1.83769011 2 12 4283 19.77200000 3177961684 3177961684 -5.33300000
40.61501694 46.02009583 1.42826378 17 13 4283 61.39600000 3177961684 3177961684 1.33300000
40.31815338 37.54469681 0.64137709 22 14 4284 55.09600000 3177961687 3177961687 0.66700000
15.36735439 17.40633011 -1.62365162 4 15 4284 23.27600000 3177961687 3177961687 -4.00000000
14.84704018 15.24091339 -1.73696876 5 16 4285 21.34800000 3177961689 3177961689 -4.66700000
40.74162292 50.94490814 1.89844823 28 17 4285 65.26000000 3177961689 3177961689 1.66700000
40.52875519 41.58940887 1.01363575 25 18 4286 58.08000000 3177961691 3177961691 1.00000000
15.27625084 19.09518242 -1.56721556 3 19 4286 24.50400000 3177961691 3177961691 -3.66700000
18.22687912 16.96119118 -1.44998717 3 20 4286 24.94000000 3177961694 3177961694 -3.33300000
40.10015869 45.38879395 3.52717805 35 21 4286 60.66800000 3177961694 3177961694 3.33300000
39.81670380 40.84445572 2.32389712 46 22 4287 57.08800000 3177961696 3177961696 2.33300000
18.22593689 20.62242317 -1.28202558 2 23 4287 27.55200000 3177961696 3177961696 -2.66700000
18.50391579 18.97491455 -1.38899624 23 24 4288 26.54000000 3177961698 3177961698 -3.00000000
96.87138367 99.30246735 11.32495785 28 26 4289 139.18800000 3177961701 3177961701 4.66700000
20.85011292 19.37512016 -0.99393767 12 28 4290 28.48000000 3177961703 3177961703 -2.00000000
20.95962524 23.69054604 -0.73604578 16 31 4290 31.64000000 3177961705 3177961705 -1.33300000
3.56242967 3.64037442 -2.37511468 6 0 4298 5.62000000 3177961726 3177961726 -25.00000000
20.97891808 26.11116982 -0.58465564 17 1 4298 33.50000000 3177961726 3177961726 -1.00000000
20.88497734 21.33448410 -0.86887610 13 2 4299 29.86800000 3177961728 3177961728 -1.66700000
6.04703522 6.81333447 -2.55018282 6 3 4299 9.46000000 3177961728 3177961728 -15.63900000
8.35091972 8.52767849 -2.38713956 3 4 4300 12.17200000 3177961730 3177961730 -11.31000000
39.24866104 44.20683289 0.00000000 20 5 4300 59.11600000 3177961730 3177961730 0.00000000
20.95142174 19.39443779 -0.33237621 15 6 4301 28.55200000 3177961733 3177961733 -0.66700000
9.31226921 10.48497486 -2.18169999 1 7 4301 14.19200000 3177961733 3177961733 -8.84300000
11.27637386 11.51103401 -2.05110097 2 8 4301 16.24400000 3177961735 3177961735 -7.25400000
40.33378601 50.14718628 0.37403151 56 9 4301 64.35600000 3177961735 3177961735 0.33300000
36.69440460 37.44493484 -0.30470702 13 10 4302 52.42800000 3177961737 3177961737 -0.33300000
11.80736542 13.28960896 -1.91489518 2 11 4302 17.88000000 3177961737 3177961737 -6.14800000
14.44566345 13.36278820 -1.83694661 4 12 4303 19.76400000 3177961740 3177961740 -5.33300000
40.50178528 45.57017517 1.41867936 17 13 4303 60.98400000 3177961740 3177961740 1.33300000
40.42840576 37.38472366 0.64105117 45 14 4304 55.06800000 3177961742 3177961742 0.66700000
15.41741562 17.34065437 -1.62253559 4 15 4304 23.26000000 3177961742 3177961742 -4.00000000
14.89735889 15.18614864 -1.73664331 2 16 4305 21.34400000 3177961744 3177961744 -4.66700000
40.80383682 50.65914536 1.89309561 28 17 4305 65.07600000 3177961744 3177961744 1.66700000
40.66084671 41.44906998 1.01349616 25 18 4305 58.07200000 3177961747 3177961747 1.00000000
15.28690529 18.97913551 -1.56184316 3 19 4305 24.42000000 3177961747 3177961747 -3.66700000
18.28890800 16.90017319 -1.45021975 3 20 4306 24.94400000 3177961749 3177961749 -3.33300000
40.13890457 45.11429214 3.51671314 35 21 4306 60.48800000 3177961749 3177961749 3.33300000
39.96183395 40.70807266 2.32405996 23 22 4307 57.09200000 3177961751 3177961751 2.33300000
18.27655983 20.53479958 -1.28053653 5 23 4307 27.52000000 3177961751 3177961751 -2.66700000
18.56444168 18.90450859 -1.38857758 9 24 4308 26.53200000 3177961754 3177961754 -3.00000000
97.39344025 99.14289093 11.34546185 28 26 4309 139.44000000 3177961756 3177961756 4.66700000
18.52060699 22.96103859 -1.20184171 25 27 4309 29.52400000 3177961756 3177961756 -2.33300000
20.84417152 19.23444748 -0.99044770 12 28 4310 28.38000000 3177961758 3177961758 -2.00000000
20.97447395 23.53296280 -0.73353332 20 31 4311 31.53200000 3177961760 3177961760 -1.33300000
3.56748152 3.62017059 -2.37004328 6 0 4318 5.60800000 3177961781 3177961781 -25.00000000
20.98188019 25.92896652 -0.58221227 16 1 4318 33.36000000 3177961781 3177961781 -1.00000000
20.88072777 21.18172455 -0.86561793 13 2 4319 29.75600000 3177961783 3177961783 -1.66700000
6.06308079 6.78356934 -2.54694796 6 3 4319 9.44800000 3177961783 3177961783 -15.63900000
8.37788200 8.49568367 -2.38635516 3 4 4320 12.16800000 3177961786 3177961786 -11.31000000
39.23743439 43.88468170 0.00000000 19 5 4320 58.86800000 3177961786 3177961786 0.00000000
20.93948746 19.24810028 -0.33111897 14 6 4321 28.44400000 3177961788 3177961788 -0.66700000
9.33563709 10.43767452 -2.17862535 1 7 4321 14.17200000 3177961788 3177961788 -8.84300000
11.31648636 11.47160244 -2.05110097 2 8 4321 16.24400000 3177961790 3177961790 -7.25400000
40.32227325 49.77609253 0.37231120 28 9 4321 64.06000000 3177961790 3177961790 0.33300000
36.99065018 37.48459625 -0.30607861 14 10 4322 52.66400000 3177961793 3177961793 -0.33300000
11.85368252 13.24831295 -1.91489518 2 11 4322 17.88000000 3177961793 3177961793 -6.14800000
14.46582317 13.28803444 -1.83360052 2 12 4323 19.72800000 3177961795 3177961795 -5.33300000
40.12988281 44.83555984 1.40016186 17 13 4323 60.18800000 3177961795 3177961795 1.33300000
40.82675171 37.48955154 0.64528853 23 14 4324 55.43200000 3177961797 3177961797 0.66700000
15.46720505 17.27484131 -1.62141943 2 15 4324 23.24400000 3177961797 3177961797 -4.00000000
14.94747543 15.13121796 -1.73631787 2 16 4325 21.34000000 3177961800 3177961800 -4.66700000
40.15169525 49.49483490 1.85481250 28 17 4325 63.76000000 3177961800 3177961800 1.66700000
40.12229156 40.61549759 0.99653238 24 18 4325 57.10000000 3177961802 3177961802 1.00000000
15.34803200 18.91945839 -1.56133151 3 19 4325 24.41200000 3177961802 3177961802 -3.66700000
18.33601952 16.82543182 -1.44928956 3 20 4326 24.92800000 3177961804 3177961804 -3.33300000
40.13891983 44.79843521 3.50299239 51 21 4326 60.25200000 3177961804 3177961804 3.33300000
39.78899384 40.24999237 2.30582309 22 22 4327 56.64400000 3177961807 3177961807 2.33300000
18.33212662 20.45302391 -1.27941978 2 23 4327 27.49600000 3177961807 3177961807 -2.66700000
18.61908150 18.82822990 -1.38774025 4 24 4328 26.51600000 3177961809 3177961809 -3.00000000
96.51087189 97.56091309 11.20291138 28 26 4329 137.68800000 3177961811 3177961811 4.66700000
18.56788254 22.85592270 -1.19972491 12 27 4329 29.47200000 3177961811 3177961811 -2.33300000
20.85518646 19.11025620 -0.98779535 12 28 4330 28.30400000 3177961813 3177961813 -2.00000000
20.95892525 23.35910416 -0.73027653 16 31 4330 31.39200000 3177961816 3177961816 -1.33300000
3.56732869 3.59482956 -2.36159086 7 0 4338 5.58800000 3177961836 3177961836 -25.00000000
20.97624969 25.73776054 -0.57955950 16 1 4338 33.20800000 3177961836 3177961836 -1.00000000
20.88693428 21.04060745 -0.86282521 13 2 4339 29.66000000 3177961839 3177961839 -1.66700000
6.08929968 6.76522684 -2.54802632 6 3 4339 9.45200000 3177961839 3177961839 -15.63900000
8.41301346 8.47195339 -2.38792419 3 4 4340 12.17600000 3177961841 3177961841 -11.31000000
39.26993561 43.61368179 0.00000000 19 5 4340 58.68800000 3177961841 3177961841 0.00000000
20.94117355 19.12191963 -0.33014113 14 6 4340 28.36000000 3177961843 3177961843 -0.66700000
9.37284279 10.40959644 -2.17924023 2 7 4340 14.17600000 3177961843 3177961843 -8.84300000
11.34527493 11.42076969 -2.04908085 4 8 4341 16.22800000 3177961846 3177961846 -7.25400000
40.30107498 49.39639282 0.37052113 28 9 4341 63.75200000 3177961846 3177961846 0.33300000
37.09307480 37.32687378 -0.30584615 14 10 4342 52.62400000 3177961848 3177961848 -0.33300000
11.89453125 13.20094585 -1.91403842 2 11 4342 17.87200000 3177961848 3177961848 -6.14800000
14.51800346 13.24282646 -1.83434415 2 12 4343 19.73600000 3177961850 3177961850 -5.33300000
40.15762711 44.55263138 1.39569533 17 13 4343 59.99600000 3177961850 3177961850 1.33300000
40.42832947 36.86441422 0.63695353 22 14 4344 54.71600000 3177961853 3177961853 0.66700000
15.54077148 17.23556137 -1.62281466 2 15 4344 23.26400000 3177961853 3177961853 -4.00000000
14.91866398 14.99698353 -1.72687960 2 16 4345 21.22400000 3177961855 3177961855 -4.66700000
40.40769958 49.45655441 1.85865235 28 17 4345 63.89200000 3177961855 3177961855 1.66700000
40.36818314 40.58010483 0.99911535 24 18 4345 57.24800000 3177961857 3177961857 1.00000000
15.41397953 18.86576843 -1.56133151 3 19 4345 24.41200000 3177961857 3177961857 -3.66700000
18.23820305 16.61877632 -1.43696404 3 20 4346 24.71600000 3177961860 3177961860 -3.33300000
40.05963898 44.39715195 3.48252726 33 21 4346 59.90000000 3177961860 3177961860 3.33300000
39.84184265 40.02304840 2.30077553 22 22 4347 56.52000000 3177961862 3177961862 2.33300000
18.39002419 20.37407875 -1.27848911 2 23 4347 27.47600000 3177961862 3177961862 -2.66700000
18.71569633 18.79425621 -1.39004302 4 24 4348 26.56000000 3177961864 3177961864 -3.00000000
97.27288055 97.64710236 11.25172997 28 26 4349 138.28800000 3177961866 3177961866 4.66700000
18.67285919 22.82190132 -1.20135331 4 27 4349 29.51200000 3177961866 3177961866 -2.33300000
20.84489059 18.96739197 -0.98416579 12 28 4350 28.20000000 3177961869 3177961869 -2.00000000
53.28307724 58.96955109 21.29563141 28 29 4350 82.28000000 3177961869 3177961869 15.00000000
20.96663666 23.19609642 -0.72757798 16 31 4351 31.27600000 3177961871 3177961871 -1.33300000
3.56766558 3.56891108 -2.35313845 6 0 4359 5.56800000 3177961892 3177961892 -25.00000000
20.98161316 25.55252457 -0.57711619 16 1 4359 33.06800000 3177961892 3177961892 -1.00000000
20.88757515 20.88757515 -0.85968345 13 2 4360 29.55200000 3177961894 3177961894 -1.66700000
6.10888004 6.73715591 -2.54586983 6 3 4360 9.44400000 3177961894 3177961894 -15.63900000
8.43568611 8.43274212 -2.38557076 3 4 4361 12.16400000 3177961896 3177961896 -11.31000000
39.38115311 43.41613007 0.00000000 19 5 4361 58.61600000 3177961896 3177961896 0.00000000
20.93999481 18.98056984 -0.32902357 14 6 4361 28.26400000 3177961899 3177961899 -0.66700000
9.41093349 10.37517357 -2.17924023 2 7 4361 14.17600000 3177961899 3177961899 -8.84300000
11.38986492 11.38191605 -2.04958582 2 8 4362 16.23200000 3177961901 3177961901 -7.25400000
40.14403534 48.83738327 0.36742920 28 9 4362 63.22000000 3177961901 3177961901 0.33300000
37.28340530 37.24438095 -0.30628785 14 10 4363 52.70000000 3177961903 3177961903 -0.33300000
11.92947006 13.14253712 -1.91189647 2 11 4363 17.85200000 3177961903 3177961903 -6.14800000
14.56644344 13.18952560 -1.83434415 2 12 4364 19.73600000 3177961906 3177961906 -5.33300000
40.60829163 44.72192383 1.40565193 17 13 4364 60.42400000 3177961906 3177961906 1.33300000
40.53351974 36.68914795 0.63648784 22 14 4365 54.67600000 3177961908 3177961908 0.66700000
15.58505821 17.15781021 -1.62086141 2 15 4365 23.23600000 3177961908 3177961908 -4.00000000
14.96224308 14.93093872 -1.72557771 2 16 4366 21.20800000 3177961910 3177961910 -4.66700000
40.36508179 49.03646851 1.84841251 28 17 4366 63.54000000 3177961910 3177961910 1.66700000
40.31281662 40.22847366 0.99408907 23 18 4366 56.96000000 3177961913 3177961913 1.00000000
15.47033787 18.79373741 -1.56005228 3 19 4366 24.39200000 3177961913 3177961913 -3.66700000
18.29899025 16.55181885 -1.43696404 3 20 4367 24.71600000 3177961915 3177961915 -3.33300000
39.84874725 43.83929443 3.45020199 32 21 4367 59.34400000 3177961915 3177961915 3.33300000
39.57225037 39.46189880 2.27683949 42 22 4368 55.93200000 3177961917 3177961917 2.33300000
18.45919991 20.30062675 -1.27811694 5 23 4368 27.46800000 3177961917 3177961917 -2.66700000
18.86366653 18.80449677 -1.39590466 4 24 4369 26.67200000 3177961919 3177961919 -3.00000000
97.06533051 96.72709656 11.18663883 28 26 4370 137.48800000 3177961922 3177961922 4.66700000
18.74875450 22.74405670 -1.20086479 4 27 4370 29.50000000 3177961922 3177961922 -2.33300000
20.85197258 18.83459282 -0.98123425 12 28 4371 28.11600000 3177961924 3177961924 -2.00000000
20.96535873 23.02447701 -0.72460032 16 31 4372 31.14800000 3177961926 3177961926 -1.33300000
3.56981397 3.54621625 -2.34637666 5 0 4379 5.55200000 3177961947 3177961947 -25.00000000
20.97637558 25.36509323 -0.57453322 16 1 4379 32.92000000 3177961947 3177961947 -1.00000000
20.89226913 20.74692154 -0.85689080 13 2 4380 29.45600000 3177961949 3177961949 -1.66700000
6.12716484 6.71010208 -2.54371309 6 3 4380 9.43600000 3177961949 3177961949 -15.63900000
8.46785450 8.40600777 -2.38635516 4 4 4381 12.16800000 3177961952 3177961952 -11.31000000
39.32743454 43.05394363 0.00000000 19 5 4381 58.31200000 3177961952 3177961952 0.00000000
20.95558357 18.86187172 -0.32823199 14 6 4381 28.19600000 3177961954 3177961954 -0.66700000
9.44176006 10.33642387 -2.17801046 1 7 4381 14.16800000 3177961954 3177961954 -8.84300000
11.42952538 11.34208870 -2.04958582 2 8 4382 16.23200000 3177961956 3177961956 -7.25400000
40.16122055 48.51208878 0.36603433 28 9 4382 62.98000000 3177961956 3177961956 0.33300000
37.55516815 37.25485992 -0.30745023 14 10 4383 52.90000000 3177961959 3177961959 -0.33300000
11.97259045 13.09788036 -1.91146815 2 11 4383 17.84800000 3177961959 3177961959 -6.14800000
14.60647202 13.13327312 -1.83360052 2 12 4384 19.72800000 3177961961 3177961961 -5.33300000
40.49160004 44.28183746 1.39625371 17 13 4384 60.02000000 3177961961 3177961961 1.33300000
40.33412552 36.25332260 0.63136578 43 14 4385 54.23600000 3177961963 3177961963 0.66700000
15.64485455 17.10330391 -1.62086141 2 15 4385 23.23600000 3177961963 3177961963 -4.00000000
15.01710224 14.88142586 -1.72590315 2 16 4386 21.21200000 3177961966 3177961966 -4.66700000
40.34972000 48.67057037 1.83991814 28 17 4386 63.24800000 3177961966 3177961966 1.66700000
40.64616776 40.27894211 0.99883610 24 18 4386 57.23200000 3177961968 3177961968 1.00000000
15.52565479 18.72732925 -1.55902898 3 19 4386 24.37600000 3177961968 3177961968 -3.66700000
18.35665703 16.48784256 -1.43696404 3 20 4387 24.71600000 3177961970 3177961970 -3.33300000
39.98805237 43.68519974 3.44903922 32 21 4387 59.32400000 3177961970 3177961970 3.33300000
39.76655579 39.37977219 2.28009629 42 22 4388 56.01200000 3177961972 3177961972 2.33300000
18.92067528 18.73010635 -1.39527655 4 24 4389 26.66000000 3177961975 3177961975 -3.00000000
97.96913147 96.94853973 11.25172997 28 26 4390 138.28800000 3177961977 3177961977 4.66700000
18.91738510 22.78610039 -1.20656383 4 27 4390 29.64000000 3177961977 3177961977 -2.33300000
20.84914398 18.70030022 -0.97802347 12 28 4391 28.02400000 3177961979 3177961979 -2.00000000
20.95911598 22.85683823 -0.72162259 16 31 4392 31.02000000 3177961982 3177961982 -1.33300000
3.56865215 3.52162695 -2.33792424 6 0 4398 5.53200000 3177962002 3177962002 -25.00000000
20.97080994 25.18782043 -0.57208991 16 1 4398 32.78000000 3177962002 3177962002 -1.00000000
20.88125420 20.59890366 -0.85363263 13 2 4399 29.34400000 3177962005 3177962005 -1.66700000
6.14416933 6.68407488 -2.54155660 6 3 4399 9.42800000 3177962005 3177962005 -15.63900000
8.40072823 8.28424358 -2.35968328 3 4 4400 12.03200000 3177962007 3177962007 -11.31000000
39.46998978 42.92329407 0.00000000 19 5 4400 58.31200000 3177962007 3177962007 0.00000000
20.94049263 18.72296143 -0.32702130 14 6 4400 28.09200000 3177962009 3177962009 -0.66700000
9.47331047 10.30214691 -2.17739558 1 7 4400 14.16400000 3177962009 3177962009 -8.84300000
11.46142292 11.29855347 -2.04857564 2 8 4401 16.22400000 3177962012 3177962012 -7.25400000
40.19382477 48.22500992 0.36487195 56 9 4401 62.78000000 3177962012 3177962012 0.33300000
37.71839142 37.16942596 -0.30777571 14 10 4402 52.95600000 3177962014 3177962014 -0.33300000
12.01595879 13.05810547 -1.91146815 2 11 4402 17.84800000 3177962014 3177962014 -6.14800000
14.64103222 13.07680511 -1.83248520 2 12 4403 19.71600000 3177962016 3177962016 -5.33300000
39.30031586 42.69388580 1.35028565 15 13 4403 58.04400000 3177962016 3177962016 1.33300000
40.31091309 35.99150467 0.62913072 43 14 4404 54.04400000 3177962018 3177962018 0.66700000
15.70418835 17.05426598 -1.62114048 2 15 4404 23.24000000 3177962018 3177962018 -4.00000000
15.05500412 14.82035828 -1.72460139 2 16 4405 21.19600000 3177962021 3177962021 -4.66700000
40.36742020 48.36460114 1.83340180 28 17 4405 63.02400000 3177962021 3177962021 1.66700000
40.78521729 40.14954376 0.99897575 24 18 4405 57.24000000 3177962023 3177962023 1.00000000
15.57744026 18.66348267 -1.55800569 3 19 4405 24.36000000 3177962023 3177962023 -3.66700000
18.41123009 16.42687988 -1.43696404 3 20 4406 24.71600000 3177962025 3177962025 -3.33300000
39.94868851 43.35266876 3.43322539 48 21 4406 59.05200000 3177962025 3177962025 3.33300000
39.78295898 39.13557053 2.27358294 42 22 4407 55.85200000 3177962028 3177962028 2.33300000
18.48862648 20.05699348 -1.27067196 25 23 4407 27.30800000 3177962028 3177962028 -2.66700000
18.95704842 18.64205170 -1.39339244 4 24 4408 26.62400000 3177962030 3177962030 -3.00000000
68.13380432 66.97828674 7.79959822 28 26 4409 95.86000000 3177962032 3177962032 4.66700000
18.98258972 22.71097565 -1.20591247 4 27 4409 29.62400000 3177962032 3177962032 -2.33300000
20.84537888 18.57255363 -0.97495234 11 28 4410 27.93600000 3177962035 3177962035 -2.00000000
20.95613670 22.70199776 -0.71892411 16 31 4411 30.90400000 3177962037 3177962037 -1.33300000
3.58351231 3.51168585 -2.33961463 7 0 4418 5.53600000 3177962058 3177962058 -25.00000000
20.96866417 25.00720406 -0.56964654 16 1 4418 32.64000000 3177962058 3177962058 -1.00000000
20.88448334 20.45873833 -0.85083991 13 2 4419 29.24800000 3177962060 3177962060 -1.66700000
6.17008018 6.66541386 -2.54263473 6 3 4419 9.43200000 3177962060 3177962060 -15.63900000
8.42679214 8.25212479 -2.35889888 3 4 4420 12.02800000 3177962062 3177962062 -11.31000000
39.46738815 42.62089920 0.00000000 18 5 4420 58.08800000 3177962062 3177962062 0.00000000
20.94290924 18.59398460 -0.32604346 14 6 4420 28.00800000 3177962065 3177962065 -0.66700000
9.49578667 10.25451660 -2.17432117 1 7 4420 14.14400000 3177962065 3177962065 -8.84300000
11.50362778 11.26125240 -2.04908085 2 8 4421 16.22800000 3177962067 3177962067 -7.25400000
40.13047028 47.80868149 0.36277965 56 9 4421 62.42000000 3177962067 3177962067 0.33300000
37.87935257 37.06830978 -0.30803144 14 10 4422 53.00000000 3177962069 3177962069 -0.33300000
12.05876350 13.01316547 -1.91103971 2 11 4422 17.84400000 3177962069 3177962069 -6.14800000
14.68062973 13.02033329 -1.83174169 2 12 4423 19.70800000 3177962071 3177962071 -5.33300000
40.80295181 44.01692581 1.39662588 17 13 4423 60.03600000 3177962071 3177962071 1.33300000
40.36447144 35.78689194 0.62801313 21 14 4424 53.94800000 3177962074 3177962074 0.66700000
15.75819683 16.99349213 -1.62058234 2 15 4424 23.23200000 3177962074 3177962074 -4.00000000
15.09524155 14.75656891 -1.72329950 2 16 4425 21.18000000 3177962076 3177962076 -4.66700000
40.43566132 48.10403061 1.82886374 28 17 4425 62.86800000 3177962076 3177962076 1.66700000
40.78498077 39.86994171 0.99555504 23 18 4425 57.04400000 3177962078 3177962078 1.00000000
15.63735580 18.60288239 -1.55749404 3 19 4425 24.35200000 3177962078 3177962078 -3.66700000
18.45351410 16.34927177 -1.43580127 3 20 4426 24.69600000 3177962081 3177962081 -3.33300000
39.98026276 43.08416367 3.42299294 32 21 4426 58.87600000 3177962081 3177962081 3.33300000
39.91646576 38.99367142 2.27342010 21 22 4427 55.84800000 3177962083 3177962083 2.33300000
18.51774979 19.94840813 -1.26788008 17 23 4427 27.24800000 3177962083 3177962083 -2.66700000
19.02486420 18.57855797 -1.39360189 4 24 4428 26.62800000 3177962085 3177962085 -3.00000000
19.05145454 22.63234520 -1.20526111 4 27 4429 29.60800000 3177962088 3177962088 -2.33300000
20.85618973 18.45199776 -0.97243959 11 28 4430 27.86400000 3177962090 3177962090 -2.00000000
20.95780754 22.55328560 -0.71641165 16 31 4430 30.79600000 3177962092 3177962092 -1.33300000
3.61393523 3.51685381 -2.35144806 8 0 4438 5.56400000 3177962113 3177962113 -25.00000000
20.97067642 24.83302116 -0.56734282 16 1 4438 32.50800000 3177962113 3177962113 -1.00000000
20.88698769 20.31880188 -0.84804726 13 2 4439 29.15200000 3177962115 3177962115 -1.66700000
6.18543005 6.63538265 -2.53939986 6 3 4439 9.42000000 3177962115 3177962115 -15.63900000
8.48647785 8.25273895 -2.36752796 1 4 4440 12.07200000 3177962118 3177962118 -11.31000000
39.56409073 42.42729187 0.00000000 18 5 4440 58.01200000 3177962118 3177962118 0.00000000
20.93590164 18.45098686 -0.32487935 14 6 4441 27.90800000 3177962120 3177962120 -0.66700000
9.53330708 10.21964359 -2.17432117 1 7 4441 14.14400000 3177962120 3177962120 -8.84300000
11.53717613 11.21549702 -2.04807067 2 8 4441 16.22000000 3177962122 3177962122 -7.25400000
40.12409210 47.46364594 0.36122206 56 9 4441 62.15200000 3177962122 3177962122 0.33300000
38.45314407 37.36794281 -0.31163481 16 10 4442 53.62000000 3177962124 3177962124 -0.33300000
12.10140133 12.96808529 -1.91061139 2 11 4442 17.84000000 3177962124 3177962124 -6.14800000
14.72001266 12.96374512 -1.83099818 4 12 4443 19.70000000 3177962127 3177962127 -5.33300000
40.92087555 43.83622742 1.39541626 17 13 4443 59.98400000 3177962127 3177962127 1.33300000
40.40508652 35.57177353 0.62670934 21 14 4444 53.83600000 3177962129 3177962129 0.66700000
15.80652618 16.92671585 -1.61946630 2 15 4444 23.21600000 3177962129 3177962129 -4.00000000
15.15238094 14.70934105 -1.72395051 2 16 4445 21.18800000 3177962131 3177962131 -4.66700000
40.62658310 47.99005508 1.82991099 28 17 4445 62.90400000 3177962131 3177962131 1.66700000
40.91648865 39.70626068 0.99520600 23 18 4446 57.02400000 3177962134 3177962134 1.00000000
15.69769478 18.53630447 -1.55672646 3 19 4446 24.34000000 3177962134 3177962134 -3.66700000
18.51346970 16.28739548 -1.43603384 7 20 4446 24.70000000 3177962136 3177962136 -3.33300000
39.91774750 42.71677017 3.40485358 31 21 4446 58.56400000 3177962136 3177962136 3.33300000
40.01791000 38.82070541 2.27146626 21 22 4447 55.80000000 3177962138 3177962138 2.33300000
18.57089806 19.86613274 -1.26676333 5 23 4447 27.22400000 3177962138 3177962138 -2.66700000
19.08386421 18.50647354 -1.39318311 4 24 4448 26.62000000 3177962141 3177962141 -3.00000000
98.30387115 95.29634857 11.17687511 28 26 4449 137.36800000 3177962143 3177962143 4.66700000
19.13809395 22.57485199 -1.20574963 4 27 4449 29.62000000 3177962143 3177962143 -2.33300000
20.84238815 18.31048584 -0.96881002 11 28 4450 27.76000000 3177962145 3177962145 -2.00000000
20.94896889 22.38655663 -0.71343398 16 31 4450 30.66800000 3177962148 3177962148 -1.33300000
3.63600349 3.51492882 -2.35820985 7 0 4457 5.58000000 3177962168 3177962168 -25.00000000
20.96483231 24.65974426 -0.56496930 15 1 4457 32.37200000 3177962168 3177962168 -1.00000000
20.88524818 20.18274307 -0.84525454 13 2 4458 29.05600000 3177962171 3177962171 -1.66700000
6.21267128 6.62045240 -2.54155660 6 3 4458 9.42800000 3177962171 3177962171 -15.63900000
8.50251389 8.21365070 -2.36439013 1 4 4459 12.05600000 3177962173 3177962173 -11.31000000
39.55399323 42.13545990 0.00000000 37 5 4459 57.79200000 3177962173 3177962173 0.00000000
20.93678284 18.32876778 -0.32394806 14 6 4460 27.82800000 3177962175 3177962175 -0.66700000
9.56443882 10.18509293 -2.17370605 1 7 4460 14.14000000 3177962175 3177962175 -8.84300000
11.56574154 11.16890717 -2.04655528 2 8 4460 16.20800000 3177962177 3177962177 -7.25400000
40.05831909 47.06836319 0.35922277 84 9 4460 61.80800000 3177962177 3177962177 0.33300000
38.58835983 37.25133133 -0.31172779 16 10 4461 53.63600000 3177962180 3177962180 -0.33300000
12.16884518 12.95397282 -1.91446686 2 11 4461 17.87600000 3177962180 3177962180 -6.14800000
14.70596695 12.86503696 -1.82393444 4 12 4462 19.62400000 3177962182 3177962182 -5.33300000
40.97838593 43.60703659 1.39243853 16 13 4462 59.85600000 3177962182 3177962182 1.33300000
40.37830353 35.31120682 0.62447429 21 14 4463 53.64400000 3177962184 3177962184 0.66700000
15.76691341 16.77244949 -1.60970044 2 15 4463 23.07600000 3177962184 3177962184 -4.00000000
15.20681477 14.66454697 -1.72460139 2 16 4464 21.19600000 3177962187 3177962187 -4.66700000
40.26939011 47.24950027 1.80675495 28 17 4464 62.10800000 3177962187 3177962187 1.66700000
40.91723633 39.45814514 0.99220419 23 18 4464 56.85200000 3177962189 3177962189 1.00000000
15.75067234 18.48082161 -1.55621481 3 19 4464 24.33200000 3177962189 3177962189 -3.66700000
39.88133621 42.39510727 3.38973737 46 21 4465 58.30400000 3177962191 3177962191 3.33300000
40.12915802 38.67114639 2.27048922 20 22 4466 55.77600000 3177962194 3177962194 2.33300000
18.65310287 19.82189941 -1.26788008 5 23 4466 27.24800000 3177962194 3177962194 -2.66700000
19.15088272 18.44862938 -1.39360189 4 24 4467 26.62800000 3177962196 3177962196 -3.00000000
96.03511047 102.01694489 17.20307732 28 25 4467 141.16000000 3177962196 3177962196 7.00000000
98.70549011 95.05280304 11.18663883 28 26 4468 137.48800000 3177962198 3177962198 4.66700000
19.18949890 22.48390388 -1.20428419 4 27 4468 29.58400000 3177962198 3177962198 -2.33300000
20.84275436 18.18869972 -0.96601808 11 28 4469 27.68000000 3177962201 3177962201 -2.00000000
20.94631386 22.23546219 -0.71082848 16 31 4469 30.55600000 3177962203 3177962203 -1.33300000
3.66917253 3.52229977 -2.37173367 7 0 4477 5.61200000 3177962223 3177962223 -25.00000000
20.95974541 24.48008347 -0.56252599 15 1 4477 32.23200000 3177962223 3177962223 -1.00000000
20.87767982 20.03496933 -0.84211278 13 2 4478 28.94800000 3177962225 3177962225 -1.66700000
6.22780609 6.59032679 -2.53832150 6 3 4478 9.41600000 3177962225 3177962225 -15.63900000
8.52264118 8.17577553 -2.36203671 3 4 4479 12.04400000 3177962228 3177962228 -11.31000000
39.59366608 41.88376999 0.00000000 18 5 4479 57.63600000 3177962228 3177962228 0.00000000
20.93708420 18.20674706 -0.32301676 14 6 4479 27.74800000 3177962230 3177962230 -0.66700000
9.59273052 10.14757538 -2.17247629 1 7 4479 14.13200000 3177962230 3177962230 -8.84300000
11.60465813 11.12846756 -2.04655528 2 8 4480 16.20800000 3177962232 3177962232 -7.25400000
40.08441162 46.76728439 0.35799062 56 9 4480 61.59600000 3177962232 3177962232 0.33300000
38.68350601 37.08319092 -0.31144884 16 10 4481 53.58800000 3177962235 3177962235 -0.33300000
12.20305634 12.89985943 -1.91275334 2 11 4481 17.86000000 3177962235 3177962235 -6.14800000
14.74477196 12.80840111 -1.82319081 4 12 4482 19.61600000 3177962237 3177962237 -5.33300000
40.70431900 43.01352310 1.37801540 32 13 4482 59.23600000 3177962237 3177962237 1.33300000
40.49527740 35.16479874 0.62438112 21 14 4483 53.63600000 3177962239 3177962239 0.66700000
15.81987762 16.71151543 -1.60914230 2 15 4483 23.06800000 3177962239 3177962239 -4.00000000
15.24063492 14.59483242 -1.72264862 2 16 4484 21.17200000 3177962241 3177962241 -4.66700000
40.12679291 46.75063705 1.79302418 28 17 4484 61.63600000 3177962241 3177962241 1.66700000
40.68498611 38.96101379 0.98326856 23 18 4484 56.34000000 3177962244 3177962244 1.00000000
15.80468655 18.41361237 -1.55519152 3 19 4484 24.31600000 3177962244 3177962244 -3.66700000
18.44897652 16.00920677 -1.42254555 11 20 4485 24.46800000 3177962246 3177962246 -3.33300000
39.67206955 41.87876892 3.35950518 30 21 4485 57.78400000 3177962246 3177962246 3.33300000
39.93472290 38.21582413 2.25192666 40 22 4486 55.32000000 3177962248 3177962248 2.33300000
18.70019341 19.73346519 -1.26639104 5 23 4486 27.21600000 3177962248 3177962248 -2.66700000
19.13145638 18.30159187 -1.38753092 4 24 4487 26.51200000 3177962251 3177962251 -3.00000000
96.58728790 101.88855743 17.23817444 28 25 4487 141.44800000 3177962251 3177962251 7.00000000
99.99040222 95.61970520 11.29436493 28 26 4488 138.81200000 3177962253 3177962253 4.66700000
19.19231415 22.32888603 -1.19956219 4 27 4488 29.46800000 3177962253 3177962253 -2.33300000
20.83965302 18.05824089 -0.96294689 11 28 4489 27.59200000 3177962255 3177962255 -2.00000000
20.93573380 22.06937218 -0.70785081 16 31 4489 30.42800000 3177962258 3177962258 -1.33300000
3.68669343 3.51447344 -2.37511468 10 0 4497 5.62000000 3177962278 3177962278 -25.00000000
20.95627022 24.30378914 -0.56015241 15 1 4497 32.09600000 3177962278 3177962278 -1.00000000
20.87801933 19.89577103 -0.83932006 13 2 4498 28.85200000 3177962281 3177962281 -1.66700000
6.24546194 6.56296682 -2.53616500 6 3 4498 9.40800000 3177962281 3177962281 -15.63900000
8.55964851 8.15409184 -2.36439013 1 4 4499 12.05600000 3177962283 3177962283 -11.31000000
39.64033890 41.64100647 0.00000000 18 5 4499 57.49200000 3177962283 3177962283 0.00000000
20.93391037 18.07604408 -0.32199237 14 6 4499 27.66000000 3177962285 3177962285 -0.66700000
9.63081932 10.11689186 -2.17309117 2 7 4499 14.13600000 3177962285 3177962285 -8.84300000
11.64918041 11.09336472 -2.04756546 2 8 4500 16.21600000 3177962288 3177962288 -7.25400000
40.10105133 46.45751572 0.35668877 56 9 4500 61.37200000 3177962288 3177962288 0.33300000
38.74028778 36.87898636 -0.31086764 15 10 4501 53.48800000 3177962290 3177962290 -0.33300000
12.24252510 12.85142517 -1.91189647 2 11 4501 17.85200000 3177962290 3177962290 -6.14800000
14.78034401 12.74905014 -1.82207549 4 12 4502 19.60400000 3177962292 3177962292 -5.33300000
40.68317413 42.69169235 1.37224615 16 13 4502 58.98800000 3177962292 3177962292 1.33300000
40.51176071 34.93181229 0.62275141 21 14 4503 53.49600000 3177962294 3177962294 0.66700000
15.89188194 16.67063332 -1.61053741 2 15 4503 23.08800000 3177962294 3177962294 -4.00000000
15.30015373 14.54978561 -1.72362494 2 16 4504 21.18400000 3177962297 3177962297 -4.66700000
40.20083618 46.50743866 1.78906786 28 17 4504 61.50000000 3177962297 3177962297 1.66700000
