# .PCD v0.7 - Point Cloud Data file format
VERSION 0.7
FIELDS x y z intensity laser_id azimuth distance_m adjustedtime timestamp vertical_angle
SIZE 4 4 4 1 1 2 8 8 4 8
TYPE F F F U U U F U U F
COUNT 1 1 1 1 1 1 1 1 1 1
WIDTH 508
HEIGHT 1
VIEWPOINT 0 0 0 1 0 0 0
POINTS 508
DATA ascii
58.51278687 -119.49224091 10.86150646 28 26 15251 133.49200000 3179392263 3179392263 4.66700000
38.28321075 -62.01000595 -2.96902633 28 27 15251 72.93600000 3179392263 3179392263 -2.33300000
38.10016632 -88.55267334 -3.36640549 28 28 15252 96.46000000 3179392265 3179392265 -2.00000000
38.66051865 -70.09122467 -1.86263311 28 31 15252 80.06800000 3179392268 3179392268 -1.33300000
2.85635328 -5.85898685 -3.03947043 16 0 15261 7.19200000 3179392288 3179392288 -25.00000000
37.96612930 -61.73720551 -1.26508999 28 1 15261 72.48800000 3179392288 3179392288 -1.00000000
38.25600052 -78.50596619 -2.54158187 28 2 15262 87.36800000 3179392291 3179392291 -1.66700000
5.23339033 -9.52737808 -3.04296660 6 3 15262 11.28800000 3179392291 3179392291 -15.63900000
6.73809195 -13.83351517 -3.07747245 3 4 15263 15.69200000 3179392293 3179392293 -11.31000000
36.65925980 -66.76573181 0.00000000 26 5 15263 76.16800000 3179392293 3179392293 0.00000000
37.52887726 -87.68820190 -1.11041963 29 6 15263 95.38800000 3179392295 3179392295 -0.66700000
9.07584953 -16.52940369 -2.93373466 2 7 15263 19.08400000 3179392295 3179392295 -8.84300000
10.45128632 -21.46633530 -3.03902364 5 8 15264 24.06800000 3179392298 3179392298 -7.25400000
38.31786728 -62.38234711 0.42550182 56 9 15264 73.21200000 3179392298 3179392298 0.33300000
37.34651184 -76.74160004 -0.49603522 28 10 15265 85.34800000 3179392300 3179392300 -0.33300000
12.84887981 -23.42041397 -2.87748361 3 11 15265 26.86800000 3179392300 3179392300 -6.14800000
13.37858105 -31.30506516 -3.17794347 4 12 15266 34.19200000 3179392302 3179392302 -5.33300000
37.77769470 -68.88815308 1.82820368 27 13 15266 78.58800000 3179392302 3179392302 1.33300000
41.53068924 -97.22624207 1.23083496 28 14 15267 105.73200000 3179392304 3179392304 0.66700000
19.48544121 -35.54668808 -2.83462405 5 15 15267 40.63600000 3179392304 3179392304 -4.00000000
16.16496849 -33.26088715 -3.01894736 7 16 15268 37.10400000 3179392307 3179392307 -4.66700000
39.11577606 -63.78116226 2.17748475 28 17 15268 74.85200000 3179392307 3179392307 1.66700000
39.34141922 -80.94853210 1.57099581 28 18 15268 90.01600000 3179392309 3179392309 1.00000000
19.81723213 -32.31346130 -2.42936325 22 19 15268 37.98400000 3179392309 3179392309 -3.66700000
19.59168625 -45.90986252 -2.90695095 10 20 15269 50.00000000 3179392311 3179392311 -3.33300000
40.39463806 -73.75175476 4.89716625 39 21 15269 84.23200000 3179392311 3179392311 3.33300000
39.42272949 -81.18790436 3.67700720 28 22 15270 90.32800000 3179392314 3179392314 2.33300000
19.77145195 -36.11329651 -1.91782677 15 23 15270 41.21600000 3179392314 3179392314 -2.66700000
19.65697098 -40.49991989 -2.35930490 23 24 15271 45.08000000 3179392316 3179392316 -3.00000000
58.03092957 -119.61622620 10.85336971 28 26 15272 133.39200000 3179392318 3179392318 4.66700000
38.12454987 -62.26238251 -2.97439957 28 27 15272 73.06800000 3179392318 3179392318 -2.33300000
37.94139481 -89.08157349 -3.38120294 28 28 15273 96.88400000 3179392321 3179392321 -2.00000000
37.15631104 -67.95183563 -1.80214894 26 31 15273 77.46800000 3179392323 3179392323 -1.33300000
2.83430696 -5.86565781 -3.03778005 15 0 15281 7.18800000 3179392344 3179392344 -25.00000000
38.00662231 -62.28928375 -1.27367663 28 1 15281 72.98000000 3179392344 3179392344 -1.00000000
37.98868561 -78.65342712 -2.54204726 28 2 15282 87.38400000 3179392346 3179392346 -1.66700000
5.20562983 -9.55573559 -3.04620171 6 3 15282 11.30000000 3179392346 3179392346 -15.63900000
6.69828939 -13.87461281 -3.08139491 5 4 15283 15.71200000 3179392348 3179392348 -11.31000000
36.33607483 -66.72817993 0.00000000 53 5 15283 75.98000000 3179392348 3179392348 0.00000000
37.61434174 -88.74299622 -1.12210727 29 6 15283 96.39200000 3179392351 3179392351 -0.66700000
9.03132725 -16.58528328 -2.93803906 2 7 15283 19.11200000 3179392351 3179392351 -8.84300000
10.42112827 -21.59560204 -3.05215549 5 8 15284 24.17200000 3179392353 3179392353 -7.25400000
38.17273331 -62.63526535 0.42631549 28 9 15284 73.35200000 3179392353 3179392353 0.33300000
37.01237488 -76.73458862 -0.49515179 28 10 15285 85.19600000 3179392355 3179392355 -0.33300000
12.81646729 -23.55595016 -2.88862157 3 11 15285 26.97200000 3179392355 3179392355 -6.14800000
13.32666016 -31.48727989 -3.19169927 5 12 15286 34.34000000 3179392357 3179392357 -5.33300000
37.28098297 -68.54885864 1.81573462 27 13 15286 78.05200000 3179392357 3179392357 1.33300000
40.34644699 -95.37406921 1.20559716 28 14 15287 103.56400000 3179392360 3179392360 0.66700000
19.45081520 -35.77925491 -2.84773827 5 15 15287 40.82400000 3179392360 3179392360 -4.00000000
16.05395889 -33.32788467 -3.01992369 7 16 15288 37.11600000 3179392362 3179392362 -4.66700000
39.09242630 -64.24521637 2.18865538 28 17 15288 75.23600000 3179392362 3179392362 1.66700000
38.97159576 -80.94083405 1.56806386 28 18 15289 89.84800000 3179392364 3179392364 1.00000000
19.80653381 -32.56322098 -2.44266629 23 19 15289 38.19200000 3179392364 3179392364 -3.66700000
19.59609032 -46.36786270 -2.93160200 11 20 15289 50.42400000 3179392367 3179392367 -3.33300000
40.06070709 -73.75194550 4.88786364 39 21 15289 84.07200000 3179392367 3179392367 3.33300000
39.25347900 -81.56270599 3.68775392 28 22 15290 90.59200000 3179392369 3179392369 2.33300000
19.76348114 -36.39980316 -1.92936647 15 23 15290 41.46400000 3179392369 3179392369 -2.66700000
19.65054703 -40.84906387 -2.37563372 24 24 15291 45.39200000 3179392371 3179392371 -3.00000000
58.74636078 -122.17504120 11.06686974 28 26 15292 136.01600000 3179392374 3179392374 4.66700000
38.06261826 -62.65126419 -2.98661184 28 27 15292 73.36800000 3179392374 3179392374 -2.33300000
37.93006134 -89.92435455 -3.40814519 28 28 15293 97.65600000 3179392376 3179392376 -2.00000000
38.11984634 -70.29576874 -1.86077201 28 31 15293 79.98800000 3179392378 3179392378 -1.33300000
2.80959749 -5.86145687 -3.03101826 11 0 15299 7.17200000 3179392399 3179392399 -25.00000000
38.17548752 -63.01039886 -1.28596306 28 1 15299 73.68400000 3179392399 3179392399 -1.00000000
37.91416168 -79.13296509 -2.55368352 28 2 15300 87.78400000 3179392401 3179392401 -1.66700000
5.18291187 -9.58559513 -3.05051470 6 3 15300 11.31600000 3179392401 3179392401 -15.63900000
6.66483307 -13.91681290 -3.08610177 5 4 15301 15.73600000 3179392403 3179392403 -11.31000000
36.12435913 -66.83848572 0.00000000 53 5 15301 75.97600000 3179392403 3179392403 0.00000000
37.52737427 -89.36140442 -1.12834692 29 6 15302 96.92800000 3179392406 3179392406 -0.66700000
8.98942947 -16.63948250 -2.94234347 2 7 15302 19.14000000 3179392406 3179392406 -8.84300000
10.36693859 -21.65686607 -3.05619597 5 8 15302 24.20400000 3179392408 3179392408 -7.25400000
38.10209656 -62.96363068 0.42773360 28 9 15302 73.59600000 3179392408 3179392408 0.33300000
37.45306015 -78.27571869 -0.50433463 28 10 15303 86.77600000 3179392410 3179392410 -0.33300000
12.74995995 -23.61009598 -2.89033508 3 11 15303 26.98800000 3179392410 3179392410 -6.14800000
13.28468323 -31.66487694 -3.20545506 5 12 15304 34.48800000 3179392413 3179392413 -5.33300000
37.06164551 -68.65860748 1.81554854 27 13 15304 78.04400000 3179392413 3179392413 1.33300000
40.11931610 -95.67371368 1.20778561 28 14 15305 103.75200000 3179392415 3179392415 0.66700000
19.36863136 -35.89637375 -2.85220265 5 15 15305 40.88800000 3179392415 3179392415 -4.00000000
16.02996254 -33.54722214 -3.03522038 7 16 15306 37.30400000 3179392417 3179392417 -4.66700000
38.88626480 -64.36086273 2.18842268 28 17 15306 75.22800000 3179392417 3179392417 1.66700000
38.02775192 -79.58380890 1.53958154 28 18 15306 88.21600000 3179392420 3179392420 1.00000000
19.81097984 -32.78926086 -2.45520210 15 19 15306 38.38800000 3179392420 3179392420 -3.66700000
19.59998894 -46.78645706 -2.95415998 12 20 15307 50.81200000 3179392422 3179392422 -3.33300000
39.92356110 -74.05318451 4.89949179 78 21 15307 84.27200000 3179392422 3179392422 3.33300000
39.46540070 -82.66665649 3.73204350 28 22 15308 91.68000000 3179392424 3179392424 2.33300000
19.76465797 -36.67627716 -1.94072008 15 23 15308 41.70800000 3179392424 3179392424 -2.66700000
19.65458298 -41.18819046 -2.39175320 24 24 15309 45.70000000 3179392427 3179392427 -3.00000000
57.36505890 -120.26834869 10.87777901 28 26 15310 133.69200000 3179392429 3179392429 4.66700000
38.16701126 -63.27017593 -3.01038480 28 27 15310 73.95200000 3179392429 3179392429 -2.33300000
37.73218155 -90.24591827 -3.41582322 28 28 15311 97.87600000 3179392431 3179392431 -2.00000000
38.51932526 -71.59801483 -1.89185166 28 31 15312 81.32400000 3179392433 3179392433 -1.33300000
2.79639697 -5.89185190 -3.04116106 14 0 15321 7.19600000 3179392454 3179392454 -25.00000000
38.01769257 -63.29708481 -1.28882527 28 1 15321 73.84800000 3179392454 3179392454 -1.00000000
37.85338974 -79.79091644 -2.57020688 28 2 15322 88.35200000 3179392456 3179392456 -1.66700000
5.14788675 -9.60882092 -3.05159307 6 3 15322 11.32000000 3179392456 3179392456 -15.63900000
6.61975002 -13.96002102 -3.09002399 5 4 15323 15.75600000 3179392459 3179392459 -11.31000000
36.50005341 -68.15798187 0.00000000 27 5 15323 77.31600000 3179392459 3179392459 0.00000000
37.50008392 -90.26573181 -1.13793921 29 6 15324 97.75200000 3179392461 3179392461 -0.66700000
8.93852997 -16.69826889 -2.94664788 2 7 15324 19.16800000 3179392461 3179392461 -8.84300000
10.29730225 -21.72519875 -3.06023669 5 8 15324 24.23600000 3179392463 3179392463 -7.25400000
38.55762100 -64.27225494 0.43561456 28 9 15324 74.95200000 3179392463 3179392463 0.33300000
37.16250229 -78.44063568 -0.50447410 28 10 15325 86.80000000 3179392466 3179392466 -0.33300000
12.67422009 -23.68693161 -2.89376235 3 11 15325 27.02000000 3179392466 3179392466 -6.14800000
13.17063522 -31.73404503 -3.20731401 5 12 15326 34.50800000 3179392468 3179392468 -5.33300000
37.98969650 -71.02898407 1.87435770 28 13 15326 80.57200000 3179392468 3179392468 1.33300000
40.77541351 -98.29496002 1.23889065 28 14 15327 106.42400000 3179392470 3179392470 0.66700000
19.30779076 -36.11475372 -2.86364269 6 15 15327 41.05200000 3179392470 3179392470 -4.00000000
15.91637802 -33.64096069 -3.03814936 7 16 15328 37.34000000 3179392473 3179392473 -4.66700000
38.57105255 -64.39651489 2.18458271 28 17 15328 75.09600000 3179392473 3179392473 1.66700000
37.71504974 -79.71477509 1.53930223 28 18 15328 88.20000000 3179392475 3179392475 1.00000000
19.79979706 -33.05685806 -2.46952844 15 19 15328 38.61200000 3179392475 3179392475 -3.66700000
19.56084633 -47.20075989 -2.97555518 12 20 15329 51.18000000 3179392477 3179392477 -3.33300000
39.66526413 -74.25524139 4.90274715 39 21 15329 84.32800000 3179392477 3179392477 3.33300000
39.25358963 -83.04161072 3.74213886 28 22 15330 91.92800000 3179392480 3179392480 2.33300000
19.74413300 -36.97747421 -1.95263207 15 23 15330 41.96400000 3179392480 3179392480 -2.66700000
19.63280487 -41.55228806 -2.40850067 24 24 15331 46.02000000 3179392482 3179392482 -3.00000000
56.94540024 -120.57785034 10.88591576 28 26 15332 133.79200000 3179392484 3179392484 4.66700000
38.02635193 -63.58776855 -3.01852632 28 27 15332 74.15200000 3179392484 3179392484 -2.33300000
37.91555405 -91.67197418 -3.46426368 28 28 15333 99.26400000 3179392486 3179392486 -2.00000000
37.31768417 -69.97797394 -1.84541833 27 31 15333 79.32800000 3179392489 3179392489 -1.33300000
2.77941751 -5.90388775 -3.04285145 13 0 15339 7.20000000 3179392509 3179392509 -25.00000000
38.14025879 -63.95549774 -1.29978538 28 1 15339 74.47600000 3179392509 3179392509 -1.00000000
38.04004669 -80.83921814 -2.60011196 28 2 15340 89.38000000 3179392512 3179392512 -1.66700000
5.11767483 -9.62494564 -3.05159307 8 3 15340 11.32000000 3179392512 3179392512 -15.63900000
6.59088564 -14.01269245 -3.09708428 5 4 15341 15.79200000 3179392514 3179392514 -11.31000000
36.41527939 -68.51602936 0.00000000 27 5 15341 77.59200000 3179392514 3179392514 0.00000000
37.65411377 -91.40100098 -1.15083754 29 6 15341 98.86000000 3179392516 3179392516 -0.66700000
8.90192986 -16.74914742 -2.95095205 2 7 15341 19.19600000 3179392516 3179392516 -8.84300000
10.24081707 -21.78257751 -3.06377220 5 8 15342 24.26400000 3179392519 3179392519 -7.25400000
38.67074203 -64.92228699 0.43919468 28 9 15342 75.56800000 3179392519 3179392519 0.33300000
36.93120193 -78.58958435 -0.50468332 28 10 15343 86.83600000 3179392521 3179392521 -0.33300000
12.62026024 -23.76526833 -2.89847445 3 11 15343 27.06400000 3179392521 3179392521 -6.14800000
13.13450909 -31.92996025 -3.22292852 5 12 15344 34.67600000 3179392523 3179392523 -5.33300000
37.95573044 -71.50473022 1.88375604 28 13 15344 80.97600000 3179392523 3179392523 1.33300000
40.17286682 -97.70861053 1.22990370 28 14 15345 105.65200000 3179392526 3179392526 0.66700000
19.26904678 -36.31622696 -2.87480378 6 15 15345 41.21200000 3179392526 3179392526 -4.00000000
15.87666702 -33.83155060 -3.05084229 7 16 15346 37.49600000 3179392528 3179392528 -4.66700000
38.16622925 -64.17715454 2.17306280 28 17 15346 74.70000000 3179392528 3179392528 1.66700000
38.83048248 -82.74378204 1.59542918 28 18 15346 91.41600000 3179392530 3179392530 1.00000000
19.80807114 -33.30760193 -2.48359919 16 19 15346 38.83200000 3179392530 3179392530 -3.66700000
19.57783890 -47.66460037 -3.00090361 13 20 15347 51.61600000 3179392533 3179392533 -3.33300000
39.50660706 -74.52061462 4.91204977 39 21 15347 84.48800000 3179392533 3179392533 3.33300000
39.17914581 -83.56257629 3.76005006 28 22 15348 92.36800000 3179392535 3179392535 2.33300000
19.74947739 -37.26881027 -1.96473014 16 23 15348 42.22400000 3179392535 3179392535 -2.66700000
19.63607979 -41.89950562 -2.42503881 24 24 15349 46.33600000 3179392537 3179392537 -3.00000000
56.68638992 -121.01248169 10.90902328 28 26 15350 134.07600000 3179392539 3179392539 4.66700000
37.92638397 -63.87530899 -3.02650499 28 27 15350 74.34800000 3179392539 3179392539 -2.33300000
37.86693954 -92.37506104 -3.48632002 28 28 15351 99.89600000 3179392542 3179392542 -2.00000000
38.06155396 -71.94647980 -1.89399183 28 31 15352 81.41600000 3179392544 3179392544 -1.33300000
2.71537685 -5.82579899 -2.99720860 15 0 15361 7.09200000 3179392565 3179392565 -25.00000000
37.99209976 -64.26673126 -1.30313623 28 1 15361 74.66800000 3179392565 3179392565 -1.00000000
38.01810074 -81.60443115 -2.62000990 28 2 15362 90.06400000 3179392567 3179392567 -1.66700000
5.09145164 -9.66497326 -3.05806279 6 3 15362 11.34400000 3179392567 3179392567 -15.63900000
6.52544212 -14.01300716 -3.09159303 3 4 15363 15.76400000 3179392569 3179392569 -11.31000000
36.67190170 -69.64280701 0.00000000 27 5 15363 78.70800000 3179392569 3179392569 0.00000000
37.63795090 -92.36720276 -1.16117477 29 6 15363 99.74800000 3179392572 3179392572 -0.66700000
8.85596848 -16.81817627 -2.95710135 2 7 15363 19.23600000 3179392572 3179392572 -8.84300000
10.20398712 -21.92246437 -3.07791424 2 8 15364 24.37600000 3179392574 3179392574 -7.25400000
38.34592438 -64.94285583 0.43833452 28 9 15364 75.42000000 3179392574 3179392574 0.33300000
37.43737411 -80.46797180 -0.51581895 28 10 15365 88.75200000 3179392576 3179392576 -0.33300000
12.54743290 -23.84874725 -2.90275836 3 11 15365 27.10400000 3179392576 3179392576 -6.14800000
13.02531910 -32.01335907 -3.22627449 5 12 15366 34.71200000 3179392579 3179392579 -5.33300000
38.80327988 -73.78414917 1.93986678 28 13 15366 83.38800000 3179392579 3179392579 1.33300000
39.84712219 -97.98441315 1.23144031 28 14 15367 105.78400000 3179392581 3179392581 0.66700000
19.15731049 -36.44292450 -2.87898922 6 15 15367 41.27200000 3179392581 3179392581 -4.00000000
15.76344490 -33.92841721 -3.05409694 7 16 15368 37.53600000 3179392583 3179392583 -4.66700000
37.91343307 -64.31288910 2.17271376 28 17 15368 74.68800000 3179392583 3179392583 1.66700000
38.45013428 -82.75807190 1.59284627 28 18 15368 91.26800000 3179392586 3179392586 1.00000000
19.79558372 -33.57942200 -2.49818158 16 19 15368 39.06000000 3179392586 3179392586 -3.66700000
19.53896332 -48.09458542 -3.02322912 14 20 15369 52.00000000 3179392588 3179392588 -3.33300000
40.42340851 -76.96260834 5.06274605 37 21 15369 87.08000000 3179392588 3179392588 3.33300000
39.78687668 -85.71348572 3.84993172 28 22 15370 94.57600000 3179392590 3179392590 2.33300000
19.72138596 -37.56370544 -1.97626984 16 23 15370 42.47200000 3179392590 3179392590 -2.66700000
19.62299919 -42.29346085 -2.44346118 25 24 15371 46.68800000 3179392592 3179392592 -3.00000000
57.12034607 -123.16781616 11.08346844 28 26 15372 136.22000000 3179392595 3179392595 4.66700000
37.98695755 -64.54056549 -3.05109215 28 27 15372 74.95200000 3179392595 3179392595 -2.33300000
37.78984451 -93.20513153 -3.51214576 28 28 15373 100.63600000 3179392597 3179392597 -2.00000000
38.22498322 -72.93152618 -1.91604531 28 31 15374 82.36400000 3179392599 3179392599 -1.33300000
2.69706130 -5.83430052 -2.99720860 13 0 15379 7.09200000 3179392620 3179392620 -25.00000000
38.06533432 -64.85485840 -1.31263041 28 1 15379 75.21200000 3179392620 3179392620 -1.00000000
37.88565063 -81.99205780 -2.62862062 28 2 15380 90.36000000 3179392622 3179392622 -1.66700000
5.06463242 -9.68774796 -3.06021953 6 3 15380 11.35200000 3179392622 3179392622 -15.63900000
6.48467588 -14.04055977 -3.09316182 3 4 15381 15.77200000 3179392625 3179392625 -11.31000000
36.52518082 -69.89593506 0.00000000 27 5 15381 78.86400000 3179392625 3179392625 0.00000000
37.58721542 -93.07838440 -1.16862512 29 6 15381 100.38800000 3179392627 3179392627 -0.66700000
8.81224155 -16.86343002 -2.96017575 2 7 15381 19.25600000 3179392627 3179392627 -8.84300000
10.14670658 -21.97963142 -3.08144975 5 8 15382 24.40400000 3179392629 3179392629 -7.25400000
38.12148285 -65.02849579 0.43810207 28 9 15382 75.38000000 3179392629 3179392629 0.33300000
37.51621628 -81.30430603 -0.52042198 28 10 15383 89.54400000 3179392632 3179392632 -0.33300000
12.50373936 -23.94797897 -2.91004109 3 11 15383 27.17200000 3179392632 3179392632 -6.14800000
12.92766094 -32.06150818 -3.22701812 5 12 15384 34.72000000 3179392634 3179392634 -5.33300000
39.42793274 -75.54709625 1.98295009 28 13 15384 85.24000000 3179392634 3179392634 1.33300000
39.70953751 -98.53202820 1.23674870 28 14 15385 106.24000000 3179392636 3179392636 0.66700000
19.12208748 -36.65505600 -2.89098740 6 15 15385 41.44400000 3179392636 3179392636 -4.00000000
15.65844631 -33.98139572 -3.05442238 7 16 15386 37.54000000 3179392639 3179392639 -4.66700000
38.19592285 -65.25985718 2.20064068 28 17 15386 75.64800000 3179392639 3179392639 1.66700000
38.73727036 -84.06622314 1.61567402 28 18 15386 92.57600000 3179392641 3179392641 1.00000000
19.79887772 -33.82748032 -2.51199627 16 19 15386 39.27600000 3179392641 3179392641 -3.66700000
19.55182457 -48.56320190 -3.04881024 15 20 15387 52.44000000 3179392643 3179392643 -3.33300000
40.17034912 -77.06797791 5.06135082 37 21 15387 87.05600000 3179392643 3179392643 3.33300000
43.37321091 -94.21347809 4.22557831 28 22 15388 103.80400000 3179392645 3179392645 2.33300000
19.72328568 -37.85580826 -1.98836803 16 23 15388 42.73200000 3179392645 3179392645 -2.66700000
19.63196754 -42.66334152 -2.46125531 25 24 15389 47.02800000 3179392648 3179392648 -3.00000000
56.78476715 -123.45893860 11.09355736 28 26 15390 136.34400000 3179392650 3179392650 4.66700000
38.19132996 -65.35662842 -3.08398366 28 27 15390 75.76000000 3179392650 3179392650 -2.33300000
37.78300095 -94.03559113 -3.53894854 28 28 15391 101.40400000 3179392652 3179392652 -2.00000000
38.00305557 -73.06544495 -1.91641748 28 31 15392 82.38000000 3179392655 3179392655 -1.33300000
2.75308323 -6.01602936 -3.08511329 12 0 15401 7.30000000 3179392675 3179392675 -25.00000000
37.60083389 -64.63064575 -1.30516076 28 1 15401 74.78400000 3179392675 3179392675 -1.00000000
38.06449890 -83.21681213 -2.66318011 28 2 15402 91.54800000 3179392678 3179392678 -1.66700000
5.03093958 -9.71396446 -3.06237602 6 3 15402 11.36000000 3179392678 3179392678 -15.63900000
6.44050169 -14.08675861 -3.09786868 3 4 15403 15.79600000 3179392680 3179392680 -11.31000000
37.23484421 -71.92545319 0.00000000 28 5 15403 80.99200000 3179392680 3179392680 0.00000000
37.42832184 -93.71976471 -1.17486465 29 6 15403 100.92400000 3179392682 3179392682 -0.66700000
8.75832844 -16.91820335 -2.96386528 2 7 15403 19.28000000 3179392682 3179392682 -8.84300000
10.07048321 -22.03647614 -3.08397508 5 8 15404 24.42400000 3179392685 3179392685 -7.25400000
37.76098251 -64.98417664 0.43682343 28 9 15404 75.16000000 3179392685 3179392685 0.33300000
37.86686325 -82.89945984 -0.52969784 28 10 15405 91.14000000 3179392687 3179392687 -0.33300000
12.42813778 -24.02760696 -2.91389656 3 11 15405 27.20800000 3179392687 3179392687 -6.14800000
12.86936569 -32.27368546 -3.24337626 5 12 15406 34.89600000 3179392689 3179392689 -5.33300000
40.02647018 -77.41720581 2.02798748 28 13 15406 87.17600000 3179392689 3179392689 1.33300000
39.51601410 -99.14821625 1.24256921 28 14 15407 106.74000000 3179392691 3179392691 0.66700000
19.06364250 -36.88772583 -2.90354347 6 15 15407 41.62400000 3179392691 3179392691 -4.00000000
15.61388874 -34.22988129 -3.07134604 7 16 15408 37.74800000 3179392694 3179392694 -4.66700000
37.93302155 -65.38528442 2.19994259 28 17 15408 75.62400000 3179392694 3179392694 1.66700000
38.42747116 -84.24344635 1.61623251 28 18 15408 92.60800000 3179392696 3179392696 1.00000000
19.77901649 -34.09315872 -2.52606702 16 19 15408 39.49600000 3179392696 3179392696 -3.66700000
19.51587868 -49.01633453 -3.07253098 15 20 15409 52.84800000 3179392698 3179392698 -3.33300000
40.78469467 -78.98507690 5.17693090 36 21 15409 89.04400000 3179392698 3179392698 3.33300000
43.00947952 -94.37568665 4.22541571 28 22 15410 103.80000000 3179392701 3179392701 2.33300000
19.69873619 -38.16560364 -2.00065207 16 23 15410 42.99600000 3179392701 3179392701 -2.66700000
19.59882164 -43.02558517 -2.47779346 25 24 15411 47.34400000 3179392703 3179392703 -3.00000000
43.94337845 -96.51420593 8.65717983 28 26 15412 106.40000000 3179392705 3179392705 4.66700000
38.05628204 -65.70337677 -3.09342766 28 27 15412 75.99200000 3179392705 3179392705 -2.33300000
37.79659271 -95.12358856 -3.57440639 28 28 15413 102.42000000 3179392708 3179392708 -2.00000000
37.80647659 -73.37435150 -1.92069793 28 31 15414 82.56400000 3179392710 3179392710 -1.33300000
2.74553990 -6.05531788 -3.10032749 14 0 15421 7.33600000 3179392731 3179392731 -25.00000000
37.37900162 -64.76843262 -1.30530035 28 1 15421 74.79200000 3179392731 3179392731 -1.00000000
37.34302139 -82.39867401 -2.63280964 28 2 15422 90.50400000 3179392733 3179392733 -1.66700000
4.99700069 -9.73146629 -3.06237602 8 3 15422 11.36000000 3179392733 3179392733 -15.63900000
6.40261984 -14.13416386 -3.10335994 3 4 15423 15.82400000 3179392735 3179392735 -11.31000000
37.02190781 -72.12971497 0.00000000 28 5 15423 81.07600000 3179392735 3179392735 0.00000000
37.81117630 -95.64642334 -1.19735527 29 6 15423 102.85600000 3179392738 3179392738 -0.66700000
8.71185303 -16.97328568 -2.96816969 2 7 15423 19.30800000 3179392738 3179392738 -8.84300000
10.01477623 -22.11848450 -3.09054112 5 8 15424 24.47600000 3179392740 3179392740 -7.25400000
37.54590225 -65.13638306 0.43696293 28 9 15424 75.18400000 3179392740 3179392740 0.33300000
37.98955917 -83.94216156 -0.53550971 28 10 15425 92.14000000 3179392742 3179392742 -0.33300000
12.36233807 -24.10622978 -2.91818047 3 11 15425 27.24800000 3179392742 3179392742 -6.14800000
12.78441429 -32.38879776 -3.25043988 5 12 15426 34.97200000 3179392744 3179392744 -5.33300000
39.74869156 -77.54222107 2.02761531 28 13 15426 87.16000000 3179392744 3179392744 1.33300000
39.47059250 -100.04827881 1.25211489 28 14 15427 107.56000000 3179392747 3179392747 0.66700000
19.00754738 -37.09609604 -2.91470456 6 15 15427 41.78400000 3179392747 3179392747 -4.00000000
15.55505753 -34.41859436 -3.08338809 7 16 15428 37.89600000 3179392749 3179392749 -4.66700000
37.72050858 -65.54502106 2.20087337 28 17 15428 75.65600000 3179392749 3179392749 1.66700000
39.09177399 -86.49816132 1.65686166 28 18 15428 94.93600000 3179392751 3179392751 1.00000000
19.77338028 -34.35920334 -2.54064941 16 19 15428 39.72400000 3179392751 3179392751 -3.66700000
19.49547195 -49.46681595 -3.09648418 16 20 15429 53.26000000 3179392754 3179392754 -3.33300000
40.40501404 -78.92434692 5.16367531 36 21 15429 88.81600000 3179392754 3179392754 3.33300000
42.17321777 -93.40332794 4.17526436 28 22 15430 102.56800000 3179392756 3179392756 2.33300000
19.69826889 -38.49379349 -2.01423931 17 23 15430 43.28800000 3179392756 3179392756 -2.66700000
19.58818436 -43.40321350 -2.49558783 26 24 15431 47.68400000 3179392758 3179392758 -3.00000000
43.08162689 -95.50410461 8.55303383 28 26 15432 105.12000000 3179392761 3179392761 4.66700000
37.98997116 -66.11998749 -3.10677958 28 27 15432 76.32000000 3179392761 3179392761 -2.33300000
37.57991028 -95.54884338 -3.58543468 28 28 15433 102.73600000 3179392763 3179392763 -2.00000000
37.99971008 -74.35391998 -1.94303048 28 31 15433 83.52400000 3179392765 3179392765 -1.33300000
2.70210385 -6.01526117 -3.07497048 10 0 15441 7.27600000 3179392786 3179392786 -25.00000000
37.14275360 -64.88115692 -1.30495131 28 1 15441 74.77200000 3179392786 3179392786 -1.00000000
36.96509171 -82.32791138 -2.62640977 28 2 15442 90.28400000 3179392788 3179392788 -1.66700000
4.96824408 -9.75914764 -3.06561112 6 3 15442 11.37200000 3179392788 3179392788 -15.63900000
6.35645533 -14.16358376 -3.10492897 3 4 15443 15.83200000 3179392791 3179392791 -11.31000000
36.83884048 -72.39397430 0.00000000 28 5 15443 81.22800000 3179392791 3179392791 0.00000000
37.57690811 -96.08235931 -1.20108044 29 6 15444 103.17600000 3179392793 3179392793 -0.66700000
8.66571140 -17.03680992 -2.97370386 2 7 15444 19.34400000 3179392793 3179392793 -8.84300000
9.97973251 -22.24743843 -3.10367298 5 8 15444 24.58000000 3179392795 3179392795 -7.25400000
37.20314789 -65.06564331 0.43561456 28 9 15444 74.95200000 3179392795 3179392795 0.33300000
37.82232666 -84.35529327 -0.53729981 28 10 15445 92.44800000 3179392797 3179392797 -0.33300000
12.32497978 -24.24140739 -2.92931843 3 11 15445 27.35200000 3179392797 3179392797 -6.14800000
12.70751095 -32.52596664 -3.25973439 5 12 15446 35.07200000 3179392800 3179392800 -5.33300000
39.50314331 -77.73040771 2.02891803 28 13 15446 87.21600000 3179392800 3179392800 1.33300000
38.98144913 -99.82777405 1.24764478 28 14 15447 107.17600000 3179392802 3179392802 0.66700000
18.91408539 -37.23336792 -2.92028499 6 15 15447 41.86400000 3179392802 3179392802 -4.00000000
15.44622421 -34.49815369 -3.08566618 7 16 15448 37.92400000 3179392804 3179392804 -4.66700000
37.58266449 -65.83602142 2.20622611 28 17 15448 75.84000000 3179392804 3179392804 1.66700000
43.38317490 -96.93891144 1.85379457 28 18 15449 106.22000000 3179392807 3179392807 1.00000000
19.76403809 -34.63600159 -2.55574322 16 19 15449 39.96000000 3179392807 3179392807 -3.66700000
19.51423836 -50.02563477 -3.12718177 17 20 15449 53.78800000 3179392809 3179392809 -3.33300000
41.12147903 -81.01981354 5.29134846 34 21 15449 91.01200000 3179392809 3179392809 3.33300000
41.80612564 -93.45876312 4.17119360 28 22 15450 102.46800000 3179392811 3179392811 2.33300000
19.69032478 -38.81174850 -2.02726793 17 23 15450 43.56800000 3179392811 3179392811 -2.66700000
19.58166885 -43.79587555 -2.51421928 26 24 15451 48.04000000 3179392814 3179392814 -3.00000000
42.74799347 -95.65390015 8.55303383 28 26 15452 105.12000000 3179392816 3179392816 4.66700000
37.81237030 -66.34594727 -3.11117601 28 27 15452 76.42800000 3179392816 3179392816 -2.33300000
37.45497513 -96.21587372 -3.60553670 28 28 15453 103.31200000 3179392818 3179392818 -2.00000000
37.84476089 -74.69300842 -1.94842756 28 31 15453 83.75600000 3179392821 3179392821 -1.33300000
2.63008976 -5.90450430 -3.01411343 14 0 15459 7.13200000 3179392841 3179392841 -25.00000000
36.97826385 -65.06707001 -1.30634749 28 1 15459 74.85200000 3179392841 3179392841 -1.00000000
37.78285217 -84.86167908 -2.70344162 28 2 15460 92.93200000 3179392844 3179392844 -1.66700000
4.94103384 -9.78158379 -3.06776762 7 3 15460 11.38000000 3179392844 3179392844 -15.63900000
6.32149601 -14.20498466 -3.10963583 3 4 15461 15.85600000 3179392846 3179392846 -11.31000000
37.14668274 -73.56983948 0.00000000 28 5 15461 82.41600000 3179392846 3179392846 0.00000000
37.44828415 -96.64748383 -1.20666814 29 6 15462 103.65600000 3179392848 3179392848 -0.66700000
8.61748886 -17.07453537 -2.97554851 2 7 15462 19.35600000 3179392848 3179392848 -8.84300000
9.91785431 -22.29680824 -3.10619831 5 8 15462 24.60000000 3179392850 3179392850 -7.25400000
36.84651566 -64.91435242 0.43382448 28 9 15462 74.64400000 3179392850 3179392850 0.33300000
37.92113113 -85.29241180 -0.54250729 28 10 15463 93.34400000 3179392853 3179392853 -0.33300000
12.26309204 -24.30841446 -2.93274570 3 11 15463 27.38400000 3179392853 3179392853 -6.14800000
12.62395382 -32.61400986 -3.26456738 5 12 15464 35.12400000 3179392855 3179392855 -5.33300000
39.14711761 -77.63274384 2.02314878 28 13 15464 86.96800000 3179392855 3179392855 1.33300000
38.73114014 -100.11388397 1.24969351 28 14 15465 107.35200000 3179392857 3179392857 0.66700000
18.86526871 -37.42800903 -2.93088794 6 15 15465 42.01600000 3179392857 3179392857 -4.00000000
15.41542053 -34.72140884 -3.10128832 7 16 15466 38.11600000 3179392860 3179392860 -4.66700000
39.55984116 -69.80802155 2.33515525 28 17 15466 80.27200000 3179392860 3179392860 1.66700000
43.13917923 -97.16589355 1.85567951 28 18 15466 106.32800000 3179392862 3179392862 1.00000000
19.77533340 -34.89591980 -2.57058144 17 19 15466 40.19200000 3179392862 3179392862 -3.66700000
19.50237274 -50.46289444 -3.15066981 18 20 15467 54.19200000 3179392864 3179392864 -3.33300000
59.99345016 -119.12826538 7.76783848 42 21 15467 133.60800000 3179392864 3179392864 3.33300000
41.47827911 -93.51291656 4.16777420 28 22 15468 102.38400000 3179392867 3179392867 2.33300000
19.69226074 -39.11967850 -2.04011059 18 23 15468 43.84400000 3179392867 3179392867 -2.66700000
19.58969116 -44.18582916 -2.53306031 26 24 15469 48.40000000 3179392869 3179392869 -3.00000000
42.94798660 -96.91764069 8.65392494 28 26 15470 106.36000000 3179392871 3179392871 4.66700000
37.77694321 -66.77052307 -3.12550497 28 27 15470 76.78000000 3179392871 3179392871 -2.33300000
37.41576004 -97.01561737 -3.63108325 28 28 15471 104.04400000 3179392874 3179392874 -2.00000000
37.96197128 -75.51180267 -1.96666586 28 31 15471 84.54000000 3179392876 3179392876 -1.33300000
2.64354157 -5.99371099 -3.05468488 14 0 15480 7.22800000 3179392897 3179392897 -25.00000000
36.73756790 -65.19867706 -1.30627775 28 1 15480 74.84800000 3179392897 3179392897 -1.00000000
37.53769302 -85.14958954 -2.70821238 28 2 15481 93.09600000 3179392899 3179392899 -1.66700000
4.91032171 -9.80996132 -3.07100248 6 3 15481 11.39200000 3179392899 3179392899 -15.63900000
6.27887917 -14.24959469 -3.11434269 3 4 15482 15.88000000 3179392902 3179392902 -11.31000000
37.77168274 -75.49411011 0.00000000 28 5 15482 84.41600000 3179392902 3179392902 0.00000000
37.44006729 -97.63656616 -1.21737790 29 6 15482 104.57600000 3179392904 3179392904 -0.66700000
8.57551956 -17.13985825 -2.98169756 2 7 15482 19.39600000 3179392904 3179392904 -8.84300000
9.85365868 -22.37295532 -3.11175418 5 8 15483 24.64400000 3179392906 3179392906 -7.25400000
37.76970673 -67.11257172 0.44758710 28 9 15483 77.01200000 3179392906 3179392906 0.33300000
37.60504150 -85.42350769 -0.54246080 28 10 15484 93.33600000 3179392909 3179392909 -0.33300000
12.18991947 -24.38521385 -2.93660116 3 11 15484 27.42000000 3179392909 3179392909 -6.14800000
12.56841373 -32.82743454 -3.28129745 5 12 15485 35.30400000 3179392911 3179392911 -5.33300000
38.92308807 -77.89733124 2.02631259 28 13 15485 87.10400000 3179392911 3179392911 1.33300000
38.38395691 -100.30746460 1.25034547 28 14 15486 107.40800000 3179392913 3179392913 0.66700000
18.75292206 -37.54687881 -2.93479443 6 15 15486 42.07200000 3179392913 3179392913 -4.00000000
15.35544014 -34.93096161 -3.11495757 7 16 15487 38.28400000 3179392915 3179392915 -4.66700000
39.22341537 -69.80963135 2.33038449 28 17 15487 80.10800000 3179392915 3179392915 1.66700000
41.57566071 -94.57741547 1.80332220 28 18 15487 103.32800000 3179392918 3179392918 1.00000000
19.75875473 -35.16653061 -2.58516383 18 19 15487 40.42000000 3179392918 3179392918 -3.66700000
19.46699905 -50.92568588 -3.17508817 18 20 15488 54.61200000 3179392920 3179392920 -3.33300000
40.12507248 -80.40814209 5.23344231 35 21 15488 90.01600000 3179392920 3179392920 3.33300000
42.87092209 -97.61639404 4.34362984 28 22 15489 106.70400000 3179392922 3179392922 2.33300000
19.67894173 -39.45260620 -2.05369759 18 23 15489 44.13600000 3179392922 3179392922 -2.66700000
19.58174706 -44.60846710 -2.55315733 27 24 15490 48.78400000 3179392925 3179392925 -3.00000000
41.88767624 -95.46805573 8.51072407 28 26 15491 104.60000000 3179392927 3179392927 4.66700000
37.63363647 -67.08979034 -3.13397217 28 27 15491 76.98800000 3179392927 3179392927 -2.33300000
37.79226303 -99.07191467 -3.70283651 28 28 15492 106.10000000 3179392929 3179392929 -2.00000000
37.78480148 -75.85088348 -1.97187686 28 31 15492 84.76400000 3179392932 3179392932 -1.33300000
2.63671851 -6.03234053 -3.06989908 16 0 15499 7.26400000 3179392952 3179392952 -25.00000000
37.28624725 -66.68854523 -1.33364308 28 1 15499 76.41600000 3179392952 3179392952 -1.00000000
37.75134277 -86.40940857 -2.74428463 28 2 15500 94.33600000 3179392955 3179392955 -1.66700000
4.88632727 -9.84344196 -3.07639408 5 3 15500 11.41200000 3179392955 3179392955 -15.63900000
6.23787022 -14.28471565 -3.11748052 3 4 15501 15.89600000 3179392957 3179392957 -11.31000000
37.78247833 -76.14567566 0.00000000 28 5 15501 85.00400000 3179392957 3179392957 0.00000000
37.40570068 -98.52300262 -1.22687709 29 6 15501 105.39200000 3179392959 3179392959 -0.66700000
8.53444576 -17.20006752 -2.98723173 2 7 15501 19.43200000 3179392959 3179392959 -8.84300000
9.79211235 -22.43460083 -3.11579466 5 8 15502 24.67600000 3179392962 3179392962 -7.25400000
37.55084610 -67.24443817 0.44763359 28 9 15502 77.02000000 3179392962 3179392962 0.33300000
37.85097504 -86.76126099 -0.55015576 28 10 15503 94.66000000 3179392964 3179392964 -0.33300000
12.12135315 -24.45044518 -2.93959975 3 11 15503 27.44800000 3179392964 3179392964 -6.14800000
12.45948505 -32.86893082 -3.28129745 5 12 15504 35.30400000 3179392966 3179392966 -5.33300000
39.58962631 -79.89277649 2.07479286 28 13 15504 89.18800000 3179392966 3179392966 1.33300000
38.03836060 -100.40053558 1.24992633 28 14 15505 107.37200000 3179392968 3179392968 0.66700000
18.70977974 -37.77333832 -2.94762945 6 15 15505 42.25600000 3179392968 3179392968 -4.00000000
15.26021957 -35.02920532 -3.11918855 7 16 15506 38.33600000 3179392971 3179392971 -4.66700000
38.46991730 -69.00339508 2.29919934 28 17 15506 79.03600000 3179392971 3179392971 1.66700000
41.18513107 -94.53877258 1.79997134 28 18 15506 103.13600000 3179392973 3179392973 1.00000000
19.76254654 -35.44802856 -2.60102510 18 19 15506 40.66800000 3179392973 3179392973 -3.66700000
19.43088150 -51.34102249 -3.19694853 19 20 15507 54.98800000 3179392975 3179392975 -3.33300000
59.61551285 -120.46398926 7.82760525 42 21 15507 134.63600000 3179392975 3179392975 3.33300000
42.66341019 -98.02554321 4.35551596 28 22 15508 106.99600000 3179392978 3179392978 2.33300000
19.68796158 -39.80057907 -2.06840158 12 23 15508 44.45200000 3179392978 3179392978 -2.66700000
19.56915665 -44.98450470 -2.57095146 27 24 15509 49.12400000 3179392980 3179392980 -3.00000000
41.58993912 -95.65031433 8.51462936 28 26 15510 104.64800000 3179392982 3179392982 4.66700000
37.70056915 -67.73455048 -3.15823364 28 27 15510 77.58400000 3179392982 3179392982 -2.33300000
37.78130722 -100.03813171 -3.73424625 28 28 15511 107.00000000 3179392985 3179392985 -2.00000000
37.90324020 -76.72509003 -1.99132478 28 31 15511 85.60000000 3179392987 3179392987 -1.33300000
2.60163355 -6.01202011 -3.05468488 9 0 15520 7.22800000 3179393008 3179393008 -25.00000000
38.53455734 -69.51818085 -1.38739645 28 1 15520 79.49600000 3179393008 3179393008 -1.00000000
37.69152069 -87.14169312 -2.76313519 28 2 15521 94.98400000 3179393010 3179393010 -1.66700000
3.83699203 -7.80123425 -2.43372631 12 3 15521 9.02800000 3179393010 3179393010 -15.63900000
6.19636774 -14.33268452 -3.12297177 3 4 15522 15.92400000 3179393012 3179393012 -11.31000000
37.59137726 -76.46312714 0.00000000 28 5 15522 85.20400000 3179393012 3179393012 0.00000000
37.50831604 -99.89511871 -1.24224329 29 6 15522 106.71200000 3179393015 3179393015 -0.66700000
8.49227238 -17.27379608 -2.99461079 2 7 15522 19.48000000 3179393015 3179393015 -8.84300000
9.74916840 -22.56140137 -3.12842155 5 8 15523 24.77600000 3179393017 3179393017 -7.25400000
37.08520889 -66.98617554 0.44500661 28 9 15523 76.56800000 3179393017 3179393017 0.33300000
38.00376892 -87.99001312 -0.55706030 28 10 15524 95.84800000 3179393019 3179393019 -0.33300000
12.05971050 -24.55182076 -2.94645405 3 11 15524 27.51200000 3179393019 3179393019 -6.14800000
12.35430908 -32.95539856 -3.28538704 5 12 15525 35.34800000 3179393021 3179393021 -5.33300000
39.27714920 -79.99786377 2.07376933 28 13 15525 89.14400000 3179393021 3179393021 1.33300000
37.83430862 -100.97749329 1.25537443 28 14 15526 107.84000000 3179393024 3179393024 0.66700000
18.64855957 -37.99927521 -2.95990658 6 15 15526 42.43200000 3179393024 3179393024 -4.00000000
15.14120197 -35.10686493 -3.12114120 7 16 15527 38.36000000 3179393026 3179393026 -4.66700000
38.14712143 -69.01795197 2.29501033 28 17 15527 78.89200000 3179393026 3179393026 1.66700000
40.88832092 -94.85046387 1.80290341 28 18 15528 103.30400000 3179393028 3179393028 1.00000000
19.74597359 -35.74027634 -2.61688662 19 19 15528 40.91600000 3179393028 3179393028 -3.66700000
19.45954132 -51.99157333 -3.23299479 20 20 15528 55.60800000 3179393031 3179393031 -3.33300000
59.06107330 -120.45220947 7.81272173 42 21 15528 134.38000000 3179393031 3179393031 3.33300000
42.71187210 -99.12823486 4.39752626 28 22 15529 108.02800000 3179393033 3179393033 2.33300000
19.67032242 -40.13439178 -2.08198857 12 23 15529 44.74400000 3179393033 3179393033 -2.66700000
19.54950905 -45.39345169 -2.59021115 27 24 15530 49.49200000 3179393035 3179393035 -3.00000000
41.38095093 -96.13167572 8.54392052 28 26 15531 105.00800000 3179393038 3179393038 4.66700000
37.47908783 -67.92126465 -3.16051316 28 27 15531 77.64000000 3179393038 3179393038 -2.33300000
37.45355988 -100.28079224 -3.73815489 28 28 15532 107.11200000 3179393040 3179393040 -2.00000000
37.73604584 -77.09696198 -1.99737322 28 31 15532 85.86000000 3179393042 3179393042 -1.33300000
2.56129408 -5.97019005 -3.02932763 13 0 15538 7.16800000 3179393063 3179393063 -25.00000000
37.56985474 -68.28283691 -1.36038017 28 1 15538 77.94800000 3179393063 3179393063 -1.00000000
37.63660049 -87.77045441 -2.77930951 28 2 15539 95.54000000 3179393065 3179393065 -1.66700000
3.80064058 -7.78901720 -2.42617822 15 3 15539 9.00000000 3179393065 3179393065 -15.63900000
6.16058064 -14.37371159 -3.12767863 3 4 15540 15.94800000 3179393067 3179393067 -11.31000000
37.42111588 -76.72465515 0.00000000 28 5 15540 85.36400000 3179393067 3179393067 0.00000000
37.51268768 -100.92248535 -1.25346529 29 6 15541 107.67600000 3179393070 3179393070 -0.66700000
8.49383259 -17.42265511 -3.01551771 2 7 15541 19.61600000 3179393070 3179393070 -8.84300000
9.69386673 -22.62839317 -3.13347220 2 8 15541 24.81600000 3179393072 3179393072 -7.25400000
36.78211594 -66.93408966 0.44389072 28 9 15541 76.37600000 3179393072 3179393072 0.33300000
38.22782898 -89.27826691 -0.56445307 28 10 15542 97.12000000 3179393074 3179393074 -0.33300000
12.02433109 -24.67539024 -2.95673537 3 11 15542 27.60800000 3179393074 3179393074 -6.14800000
12.30200863 -33.13219452 -3.29914260 5 12 15543 35.49600000 3179393077 3179393077 -5.33300000
38.57559586 -79.19691467 2.04985476 28 13 15543 88.11600000 3179393077 3179393077 1.33300000
38.06795883 -102.58079529 1.27381384 28 14 15544 109.42400000 3179393079 3179393079 0.66700000
18.60594368 -38.21553040 -2.97218394 6 15 15544 42.60800000 3179393079 3179393079 -4.00000000
15.15779018 -35.45118332 -3.14750338 7 16 15545 38.68400000 3179393081 3179393081 -4.66700000
39.35322952 -71.73146820 2.38111830 28 17 15545 81.85200000 3179393081 3179393081 1.66700000
40.50608444 -94.73601532 1.79843557 28 18 15545 103.04800000 3179393084 3179393084 1.00000000
19.75696564 -36.01219177 -2.63249230 19 19 15545 41.16000000 3179393084 3179393084 -3.66700000
19.44601440 -52.45682907 -3.25811076 21 20 15546 56.04000000 3179393086 3179393086 -3.33300000
40.69424820 -83.65780640 5.41785908 33 21 15546 93.18800000 3179393086 3179393086 3.33300000
41.73300552 -97.69987488 4.32832384 28 22 15547 106.32800000 3179393088 3179393088 2.33300000
19.67517853 -40.46549606 -2.09594798 13 23 15547 45.04400000 3179393088 3179393088 -2.66700000
19.56678963 -45.82936096 -2.61156416 28 24 15548 49.90000000 3179393091 3179393091 -3.00000000
41.22739410 -96.60955048 8.57483864 28 26 15549 105.38800000 3179393093 3179393093 4.66700000
37.60342789 -68.65561676 -3.18917108 28 27 15549 78.34400000 3179393093 3179393093 -2.33300000
37.46702957 -101.28653717 -3.77123952 28 28 15550 108.06000000 3179393095 3179393095 -2.00000000
37.69843674 -77.67136383 -2.00900483 28 31 15551 86.36000000 3179393097 3179393097 -1.33300000
2.59040952 -6.09966230 -3.09018469 10 0 15559 7.31200000 3179393118 3179393118 -25.00000000
37.26953888 -68.32879639 -1.35856509 28 1 15559 77.84400000 3179393118 3179393118 -1.00000000
37.50368500 -88.35314941 -2.79338956 28 2 15560 96.02400000 3179393120 3179393120 -1.66700000
3.76368451 -7.78555536 -2.42078686 14 3 15560 8.98000000 3179393120 3179393120 -15.63900000
6.11551666 -14.41424847 -3.13160086 3 4 15561 15.96800000 3179393123 3179393123 -11.31000000
37.23711014 -77.06298065 0.00000000 28 5 15561 85.58800000 3179393123 3179393123 0.00000000
37.44470978 -101.88146973 -1.26366282 29 6 15562 108.55200000 3179393125 3179393125 -0.66700000
8.43507576 -17.46434593 -3.01736236 2 7 15562 19.62800000 3179393125 3179393125 -8.84300000
9.62480640 -22.69664764 -3.13801789 2 8 15562 24.85200000 3179393127 3179393127 -7.25400000
36.52506256 -67.04737854 0.44375125 28 9 15562 76.35200000 3179393127 3179393127 0.33300000
38.16883850 -90.05121613 -0.56845164 28 10 15563 97.80800000 3179393130 3179393130 -0.33300000
11.95455933 -24.76227188 -2.96187592 3 11 15563 27.65600000 3179393130 3179393130 -6.14800000
12.18049049 -33.17705917 -3.29914260 5 12 15564 35.49600000 3179393132 3179393132 -5.33300000
38.30418396 -79.37738037 2.05087852 28 13 15564 88.16000000 3179393132 3179393132 1.33300000
37.61732101 -102.51686859 1.27129936 28 14 15565 109.20800000 3179393134 3179393134 0.66700000
18.50389099 -38.36253357 -2.97832251 6 15 15565 42.69600000 3179393134 3179393134 -4.00000000
15.03707695 -35.52853012 -3.14945602 7 16 15566 38.70800000 3179393137 3179393137 -4.66700000
39.16646957 -72.01571655 2.38577294 28 17 15566 82.01200000 3179393137 3179393137 1.66700000
40.66365051 -96.07716370 1.82105386 28 18 15566 104.34400000 3179393139 3179393139 1.00000000
19.74499321 -36.30528641 -2.64860964 20 19 15566 41.41200000 3179393139 3179393139 -3.66700000
19.43090057 -53.01140976 -3.28811049 22 20 15567 56.55600000 3179393141 3179393141 -3.33300000
39.62630844 -82.22718048 5.31576681 34 21 15567 91.43200000 3179393141 3179393141 3.33300000
41.14427567 -97.30736542 4.30422497 28 22 15568 105.73600000 3179393144 3179393144 2.33300000
19.66372108 -40.82172012 -2.11065173 13 23 15568 45.36000000 3179393144 3179393144 -2.66700000
19.54641151 -46.25031662 -2.63145185 29 24 15569 50.28000000 3179393146 3179393146 -3.00000000
40.89629745 -96.81509399 8.57972050 28 26 15570 105.44800000 3179393148 3179393148 4.66700000
37.45261383 -68.97913361 -3.19780111 28 27 15570 78.55600000 3179393148 3179393148 -2.33300000
37.47453308 -102.45938110 -3.80976868 28 28 15571 109.16400000 3179393150 3179393150 -2.00000000
37.77379227 -78.52321625 -2.02761531 28 31 15571 87.16000000 3179393153 3179393153 -1.33300000
2.53923607 -6.03470659 -3.05299425 10 0 15578 7.22400000 3179393173 3179393173 -25.00000000
37.12078857 -68.59622192 -1.36142731 28 1 15578 78.00800000 3179393173 3179393173 -1.00000000
37.51275253 -89.19572449 -2.81608009 28 2 15579 96.80400000 3179393176 3179393176 -1.66700000
3.74617076 -7.81536055 -2.42617822 15 3 15579 9.00000000 3179393176 3179393176 -15.63900000
6.07528353 -14.45252800 -3.13552332 4 4 15580 15.98800000 3179393178 3179393178 -11.31000000
37.55343628 -78.38006592 0.00000000 28 5 15580 86.91200000 3179393178 3179393178 0.00000000
37.35837936 -102.64130402 -1.27162540 29 6 15580 109.23600000 3179393180 3179393180 -0.66700000
8.39553833 -17.52284050 -3.02289653 2 7 15580 19.66400000 3179393180 3179393180 -8.84300000
9.55563736 -22.74307251 -3.14003825 2 8 15581 24.86800000 3179393183 3179393183 -7.25400000
36.34626770 -67.24906158 0.44428593 28 9 15581 76.44400000 3179393183 3179393183 0.33300000
38.07289505 -90.66041565 -0.57149708 28 10 15582 98.33200000 3179393185 3179393185 -0.33300000
11.91874123 -24.89863396 -2.97344255 3 11 15582 27.76400000 3179393185 3179393185 -6.14800000
12.14385509 -33.41940308 -3.31921864 5 12 15583 35.71200000 3179393187 3179393187 -5.33300000
38.07009125 -79.56529236 2.05246043 28 13 15583 88.22800000 3179393187 3179393187 1.33300000
18.45404625 -38.58567429 -2.99087858 6 15 15584 42.87600000 3179393190 3179393190 -4.00000000
14.94230366 -35.63335037 -3.15433788 7 16 15585 38.76800000 3179393192 3179393192 -4.66700000
38.75086975 -71.81796265 2.37495112 28 17 15585 81.64000000 3179393192 3179393192 1.66700000
40.12675095 -95.69143677 1.81121075 28 18 15585 103.78000000 3179393194 3179393194 1.00000000
19.73253632 -36.57080841 -2.66319203 21 19 15585 41.64000000 3179393194 3179393194 -3.66700000
19.39254761 -53.45469284 -3.31159854 23 20 15586 56.96000000 3179393197 3179393197 -3.33300000
39.29660034 -82.23923492 5.30809259 34 21 15586 91.30000000 3179393197 3179393197 3.33300000
40.67156982 -97.08570099 4.28843069 28 22 15587 105.34800000 3179393199 3179393199 2.33300000
19.66256332 -41.16793442 -2.12516952 13 23 15587 45.67200000 3179393199 3179393199 -2.66700000
19.55183983 -46.69438934 -2.65301418 15 24 15588 50.69200000 3179393201 3179393201 -3.00000000
41.25686264 -98.57937622 8.72389889 28 26 15589 107.22000000 3179393203 3179393203 4.66700000
37.54777908 -69.70464325 -3.22564483 28 27 15589 79.24000000 3179393203 3179393203 -2.33300000
37.54276657 -103.71073914 -3.85164809 28 28 15590 110.36400000 3179393206 3179393206 -2.00000000
37.68188477 -79.03721619 -2.03747892 28 31 15591 87.58400000 3179393208 3179393208 -1.33300000
2.49619460 -5.99377346 -3.02763724 8 0 15599 7.16400000 3179393229 3179393229 -25.00000000
37.52513504 -69.95476532 -1.38565123 28 1 15599 79.39600000 3179393229 3179393229 -1.00000000
37.32540512 -89.66852570 -2.82666898 28 2 15600 97.16800000 3179393231 3179393231 -1.66700000
3.72080541 -7.83599758 -2.42833495 13 3 15600 9.00800000 3179393231 3179393231 -15.63900000
6.02829838 -14.48918343 -3.13866115 4 4 15601 16.00400000 3179393233 3179393233 -11.31000000
38.17491531 -80.43241119 0.00000000 28 5 15601 89.03200000 3179393233 3179393233 0.00000000
37.46538162 -104.12111664 -1.28824878 29 6 15601 110.66400000 3179393236 3179393236 -0.66700000
8.32786846 -17.54635239 -3.02166677 2 7 15601 19.65600000 3179393236 3179393236 -8.84300000
9.51487637 -22.88053131 -3.15418029 2 8 15602 24.98000000 3179393238 3179393238 -7.25400000
37.03834534 -69.13415527 0.45584002 28 9 15602 78.43200000 3179393238 3179393238 0.33300000
38.36058044 -92.29155731 -0.58088917 28 10 15603 99.94800000 3179393240 3179393240 -0.33300000
11.83933163 -24.96730423 -2.97644114 3 11 15603 27.79200000 3179393240 3179393240 -6.14800000
