# .PCD v0.7 - Point Cloud Data file format
VERSION 0.7
FIELDS x y z intensity laser_id azimuth distance_m adjustedtime timestamp vertical_angle
SIZE 4 4 4 1 1 2 8 8 4 8
TYPE F F F U U U F U U F
COUNT 1 1 1 1 1 1 1 1 1 1
WIDTH 514
HEIGHT 1
VIEWPOINT 0 0 0 1 0 0 0
POINTS 514
DATA ascii
14.19028759 -1.97916353 -2.22904801 3 7 9934 14.50000000 3182177390 3182177390 -8.84300000
16.55238533 -3.14256859 -2.14453959 2 8 9935 16.98400000 3182177392 3182177392 -7.25400000
40.09679794 -3.61381626 0.23398764 16 9 9935 40.26000000 3182177392 3182177392 0.33300000
39.84226608 -7.57149506 -0.23570797 22 10 9936 40.55600000 3182177394 3182177394 -0.33300000
18.05488968 -2.52459693 -1.96373153 28 11 9936 18.33600000 3182177394 3182177394 -6.14800000
20.35637093 -4.91344357 -1.95479965 18 12 9937 21.03200000 3182177396 3182177396 -5.33300000
39.54350662 -5.53636503 0.92912984 12 13 9937 39.94000000 3182177396 3182177396 1.33300000
39.36896133 -9.50980854 0.47151044 17 14 9938 40.50400000 3182177399 3182177399 0.66700000
20.45752144 -2.86783528 -1.44451702 26 15 9938 20.70800000 3182177399 3182177399 -4.00000000
20.42325401 -3.89224982 -1.69726288 34 16 9939 20.86000000 3182177401 3182177401 -4.66700000
39.92267990 -3.62622285 1.16664672 22 17 9939 40.10400000 3182177401 3182177401 1.66700000
39.14145279 -7.45955133 0.69551331 25 18 9939 39.85200000 3182177403 3182177403 1.00000000
20.46161461 -1.85855210 -1.31675780 27 19 9939 20.58800000 3182177403 3182177403 -3.66700000
20.45816231 -4.94935036 -1.22580314 22 20 9940 21.08400000 3182177406 3182177406 -3.33300000
87.61306763 -12.31321335 5.15251255 36 21 9940 88.62400000 3182177406 3182177406 3.33300000
39.42249680 -7.52737427 1.63513005 25 22 9941 40.16800000 3182177408 3182177408 2.33300000
20.51936722 -2.88746119 -0.96524161 20 23 9941 20.74400000 3182177408 3182177408 -2.66700000
20.49245453 -3.91655874 -1.09340274 31 24 9942 20.89200000 3182177410 3182177410 -3.00000000
88.21958160 -12.42985821 10.93899250 28 25 9942 89.76000000 3182177410 3182177410 7.00000000
88.01386261 -16.83730698 7.31531715 28 26 9943 89.90800000 3182177413 3182177413 4.66700000
20.69623566 -1.89443183 -0.84671146 7 27 9943 20.80000000 3182177413 3182177413 -2.33300000
39.06573486 -9.47986984 -1.40379739 23 28 9944 40.22400000 3182177415 3182177415 -2.00000000
96.23625946 -18.42768669 17.86513901 28 30 9944 99.60000000 3182177417 3182177417 10.33300000
39.86536026 -5.63109493 -0.93685317 15 31 9944 40.27200000 3182177417 3182177417 -1.33300000
5.85908175 -1.13040245 -2.78251863 7 0 9952 6.58400000 3182177438 3182177438 -25.00000000
40.10037994 -3.73411846 -0.70298290 25 1 9952 40.28000000 3182177438 3182177438 -1.00000000
39.64248657 -7.65546846 -1.17502487 25 2 9953 40.39200000 3182177440 3182177440 -1.66700000
9.03348160 -1.29048085 -2.55449605 3 3 9953 9.47600000 3182177440 3182177440 -15.63900000
11.88045597 -2.29641819 -2.42008734 3 4 9954 12.34000000 3182177443 3182177443 -11.31000000
39.70787430 -5.67955303 0.00000000 19 5 9954 40.11200000 3182177443 3182177443 0.00000000
39.55813980 -9.67981529 -0.47411802 29 6 9955 40.72800000 3182177445 3182177445 -0.66700000
14.18685055 -2.03172064 -2.22966290 4 7 9955 14.50400000 3182177445 3182177445 -8.84300000
16.56079292 -3.20409679 -2.14706492 2 8 9955 17.00400000 3182177447 3182177447 -7.25400000
40.00428772 -3.74629927 0.23352270 16 9 9955 40.18000000 3182177447 3182177447 0.33300000
39.85093689 -7.71736860 -0.23591720 22 10 9956 40.59200000 3182177449 3182177449 -0.33300000
18.05777740 -2.58929825 -1.96501660 27 11 9956 18.34800000 3182177449 3182177449 -6.14800000
20.34683228 -4.98636675 -1.95554316 18 12 9957 21.04000000 3182177452 3182177452 -5.33300000
39.39331436 -5.65561056 0.92605907 18 13 9957 39.80800000 3182177452 3182177452 1.33300000
39.20344925 -9.61478233 0.46992725 17 14 9958 40.36800000 3182177454 3182177454 0.66700000
20.45528412 -2.94036341 -1.44507515 28 15 9958 20.71600000 3182177454 3182177454 -4.00000000
20.42911148 -3.96731663 -1.69889021 34 16 9959 20.88000000 3182177456 3182177456 -4.66700000
39.92570114 -3.76705933 1.16711223 22 17 9959 40.12000000 3182177456 3182177456 1.66700000
39.20806885 -7.62127686 0.69718874 16 18 9960 39.94800000 3182177459 3182177459 1.00000000
20.45466614 -1.93353510 -1.31675780 27 19 9960 20.58800000 3182177459 3182177459 -3.66700000
20.45627213 -5.02454233 -1.22673333 19 20 9960 21.10000000 3182177461 3182177461 -3.33300000
40.02998734 -5.76840973 2.35532808 5 21 9960 40.51200000 3182177461 3182177461 3.33300000
39.27043915 -7.64051342 1.62991953 25 22 9961 40.04000000 3182177463 3182177463 2.33300000
20.51311684 -2.95964003 -0.96542776 22 23 9961 20.74800000 3182177463 3182177463 -2.66700000
20.49434280 -3.99112129 -1.09424019 31 24 9962 20.90800000 3182177466 3182177466 -3.00000000
90.52150726 -13.07660389 11.23001671 28 25 9962 92.14800000 3182177466 3182177466 7.00000000
92.22373199 -17.97659492 7.67039156 28 26 9963 94.27200000 3182177468 3182177468 4.66700000
20.72530556 -1.97006750 -0.84817690 7 27 9963 20.83600000 3182177468 3182177468 -2.33300000
38.98582840 -9.60470200 -1.40212214 23 28 9964 40.17600000 3182177470 3182177470 -2.00000000
96.61164856 -18.84940720 17.94693184 28 30 9964 100.05600000 3182177473 3182177473 10.33300000
39.89691162 -5.77766752 -0.93806285 26 31 9964 40.32400000 3182177473 3182177473 -1.33300000
5.85510015 -1.15084755 -2.78251863 7 0 9972 6.58400000 3182177493 3182177493 -25.00000000
40.12691116 -3.87791944 -0.70368105 17 1 9972 40.32000000 3182177493 3182177493 -1.00000000
39.69790649 -7.81000805 -1.17746842 25 2 9973 40.47600000 3182177496 3182177496 -1.66700000
9.02129936 -1.32088959 -2.55233955 5 3 9973 9.46800000 3182177496 3182177496 -15.63900000
11.87236786 -2.33787465 -2.42008734 4 4 9974 12.34000000 3182177498 3182177498 -11.31000000
39.51762390 -5.79317665 0.00000000 19 5 9974 39.94000000 3182177498 3182177498 0.00000000
39.59398270 -9.83519554 -0.47495618 20 6 9975 40.80000000 3182177500 3182177500 -0.66700000
14.19922447 -2.08409929 -2.23273754 3 7 9975 14.52400000 3182177500 3182177500 -8.84300000
16.55340195 -3.26265240 -2.14756989 2 8 9975 17.00800000 3182177502 3182177502 -7.25400000
40.15817642 -3.90216517 0.23449910 25 9 9975 40.34800000 3182177502 3182177502 0.33300000
39.68640518 -7.82933092 -0.23510353 22 10 9976 40.45200000 3182177505 3182177505 -0.33300000
18.06436920 -2.65462899 -1.96673024 27 11 9976 18.36400000 3182177505 3182177505 -6.14800000
20.34862709 -5.06216717 -1.95740211 13 12 9977 21.06000000 3182177507 3182177507 -5.33300000
39.46828461 -5.80705500 0.92829233 18 13 9977 39.90400000 3182177507 3182177507 1.33300000
39.39476395 -9.80761242 0.47262797 18 14 9978 40.60000000 3182177509 3182177509 0.66700000
20.44884491 -3.01232934 -1.44535410 26 15 9978 20.72000000 3182177509 3182177509 -4.00000000
20.43078232 -4.04169798 -1.70019197 36 16 9979 20.89600000 3182177512 3182177512 -4.66700000
40.08739471 -3.92353988 1.17223215 22 17 9979 40.29600000 3182177512 3182177512 1.66700000
39.48468018 -7.81101608 0.70256406 17 18 9979 40.25600000 3182177514 3182177514 1.00000000
20.46006012 -2.00252104 -1.31752527 29 19 9979 20.60000000 3182177514 3182177514 -3.66700000
20.45023346 -5.09881592 -1.22743106 22 20 9980 21.11200000 3182177516 3182177516 -3.33300000
88.90365601 -13.12814999 5.23367453 35 21 9980 90.02000000 3182177516 3182177516 3.33300000
39.26705551 -7.78220844 1.63089645 25 22 9981 40.06400000 3182177519 3182177519 2.33300000
20.51056671 -3.03239489 -0.96579999 22 23 9981 20.75600000 3182177519 3182177519 -2.66700000
20.48812103 -4.06418991 -1.09465885 35 24 9982 20.91600000 3182177521 3182177521 -3.00000000
89.11250305 -13.19077587 11.06086159 28 25 9982 90.76000000 3182177521 3182177521 7.00000000
92.64922333 -18.39545822 7.71107388 28 26 9983 94.77200000 3182177523 3182177523 4.66700000
20.74216843 -2.04475284 -0.84915388 5 27 9983 20.86000000 3182177523 3182177523 -2.33300000
39.02574921 -9.75915527 -1.40477455 15 28 9984 40.25200000 3182177526 3182177526 -2.00000000
96.73824310 -19.22488213 17.98280525 28 30 9984 100.25600000 3182177528 3182177528 10.33300000
39.92001343 -5.92335463 -0.93908644 21 31 9984 40.36800000 3182177528 3182177528 -1.33300000
5.84749222 -1.17056704 -2.78082824 7 0 9992 6.58000000 3182177548 3182177548 -25.00000000
40.14098740 -4.02075481 -0.70416969 17 1 9992 40.34800000 3182177548 3182177548 -1.00000000
39.76841354 -7.96816969 -1.18037748 25 2 9993 40.57600000 3182177550 3182177550 -1.66700000
9.02425194 -1.35351455 -2.55449605 3 3 9993 9.47600000 3182177550 3182177550 -15.63900000
11.87182617 -2.38084531 -2.42165637 3 4 9994 12.34800000 3182177553 3182177553 -11.31000000
39.58418655 -5.94415140 0.00000000 19 5 9994 40.02800000 3182177553 3182177553 0.00000000
39.57278442 -9.96937180 -0.47509590 20 6 9994 40.81200000 3182177555 3182177555 -0.66700000
14.18832684 -2.13058734 -2.23212266 6 7 9994 14.52000000 3182177555 3182177555 -8.84300000
16.55747414 -3.32353830 -2.14959025 2 8 9995 17.02400000 3182177557 3182177557 -7.25400000
40.13635254 -4.04151821 0.23445261 16 9 9995 40.34000000 3182177557 3182177557 0.33300000
39.56471252 -7.94890547 -0.23454559 22 10 9996 40.35600000 3182177560 3182177560 -0.33300000
18.05892563 -2.71826100 -1.96715856 25 11 9996 18.36800000 3182177560 3182177560 -6.14800000
20.34627914 -5.13706636 -1.95888913 11 12 9997 21.07600000 3182177562 3182177562 -5.33300000
39.53477097 -5.95789957 0.93033952 18 13 9997 39.99200000 3182177562 3182177562 1.33300000
39.21292877 -9.90783310 0.47085854 17 14 9998 40.44800000 3182177564 3182177564 0.66700000
20.45004082 -3.08547664 -1.44619119 28 15 9998 20.73200000 3182177564 3182177564 -4.00000000
20.42436600 -4.11456490 -1.70084298 34 16 9999 20.90400000 3182177566 3182177566 -4.66700000
40.07345581 -4.06344700 1.17223215 15 17 9999 40.29600000 3182177566 3182177566 1.66700000
39.59831619 -7.97722912 0.70507723 17 18 9999 40.40000000 3182177569 3182177569 1.00000000
20.46088791 -2.07473326 -1.31803691 29 19 9999 20.60800000 3182177569 3182177569 -3.66700000
20.44779587 -5.17408752 -1.22836125 22 20 10000 21.12800000 3182177571 3182177571 -3.33300000
87.98865509 -13.30703354 5.18251228 36 21 10000 89.14000000 3182177571 3182177571 3.33300000
39.25923920 -7.92318201 1.63171065 25 22 10001 40.08400000 3182177573 3182177573 2.33300000
20.50380707 -3.10456991 -0.96598613 23 23 10001 20.76000000 3182177573 3182177573 -2.66700000
20.48947144 -4.13884592 -1.09549618 35 24 10002 20.93200000 3182177576 3182177576 -3.00000000
88.14346313 -13.36191845 10.94630432 28 25 10002 89.82000000 3182177576 3182177576 7.00000000
92.81499481 -18.76536560 7.73027563 28 26 10003 95.00800000 3182177578 3182177578 4.66700000
20.75478363 -2.11917400 -0.84996802 7 27 10003 20.88000000 3182177578 3182177578 -2.33300000
39.02631760 -9.90417099 -1.40603089 15 28 10004 40.28800000 3182177580 3182177580 -2.00000000
95.99558258 -19.42585754 17.85724640 28 30 10004 99.55600000 3182177583 3182177583 10.33300000
39.90700150 -6.06386709 -0.93927252 15 31 10004 40.37600000 3182177583 3182177583 -1.33300000
5.85402727 -1.19314349 -2.78589964 6 0 10012 6.59200000 3182177603 3182177603 -25.00000000
40.14262009 -4.16249847 -0.70444894 25 1 10012 40.36400000 3182177603 3182177603 -1.00000000
39.81871033 -8.12292290 -1.18270481 25 2 10013 40.65600000 3182177606 3182177606 -1.66700000
9.01566505 -1.38442218 -2.55341792 3 3 10013 9.47200000 3182177606 3182177606 -15.63900000
11.86728668 -2.42305589 -2.42244077 3 4 10014 12.35200000 3182177608 3182177608 -11.31000000
39.58691788 -6.08593655 0.00000000 19 5 10014 40.05200000 3182177608 3182177608 0.00000000
39.42536545 -10.07871723 -0.47374552 29 6 10014 40.69600000 3182177610 3182177610 -0.66700000
14.18861675 -2.18130207 -2.23335242 2 7 10014 14.52800000 3182177610 3182177610 -8.84300000
16.55354691 -3.38290334 -2.15060043 2 8 10015 17.03200000 3182177613 3182177613 -7.25400000
40.06630325 -4.17579079 0.23412713 16 9 10015 40.28400000 3182177613 3182177613 0.33300000
39.68955994 -8.11822414 -0.23545225 15 10 10016 40.51200000 3182177615 3182177615 -0.33300000
18.07291031 -2.78491592 -1.96972895 24 11 10016 18.39200000 3182177615 3182177615 -6.14800000
20.35523033 -5.21497583 -1.96149158 11 12 10017 21.10400000 3182177617 3182177617 -5.33300000
39.26869583 -6.05806351 0.92457026 18 13 10017 39.74400000 3182177617 3182177617 1.33300000
39.08512115 -10.02081203 0.46974099 26 14 10018 40.35200000 3182177619 3182177619 0.66700000
20.45886421 -3.15988731 -1.44758630 26 15 10018 20.75200000 3182177619 3182177619 -4.00000000
20.42159462 -4.18823719 -1.70181930 31 16 10019 20.91600000 3182177622 3182177622 -4.66700000
39.74886322 -4.17075968 1.16315591 22 17 10019 39.98400000 3182177622 3182177622 1.66700000
39.10400772 -8.01978779 0.69676989 25 18 10019 39.92400000 3182177624 3182177624 1.00000000
20.46543121 -2.14739227 -1.31880450 29 19 10019 20.62000000 3182177624 3182177624 -3.66700000
20.45281601 -5.25139093 -1.22975659 22 20 10020 21.15200000 3182177626 3182177626 -3.33300000
39.10997772 -8.03523922 1.62666297 25 22 10021 39.96000000 3182177629 3182177629 2.33300000
20.51258850 -3.17918253 -0.96691674 23 23 10021 20.78000000 3182177629 3182177629 -2.66700000
20.49055099 -4.21356058 -1.09633362 35 24 10022 20.94800000 3182177631 3182177631 -3.00000000
86.84477234 -13.47532368 10.79079914 28 25 10022 88.54400000 3182177631 3182177631 7.00000000
92.45215607 -19.02815628 7.70554113 28 26 10023 94.70400000 3182177633 3182177633 4.66700000
20.77110672 -2.19412780 -0.85094500 5 27 10023 20.90400000 3182177633 3182177633 -2.33300000
39.02634811 -10.04930973 -1.40728736 23 28 10024 40.32400000 3182177636 3182177636 -2.00000000
96.13531494 -19.80369949 17.89599037 28 30 10024 99.77200000 3182177638 3182177638 10.33300000
39.90534592 -6.20620394 -0.93973780 21 31 10024 40.39600000 3182177638 3182177638 -1.33300000
5.84272766 -1.21209776 -2.78251863 8 0 10032 6.58400000 3182177659 3182177659 -25.00000000
40.13182068 -4.30302382 -0.70451874 25 1 10032 40.36800000 3182177659 3182177659 -1.00000000
39.87232590 -8.27893639 -1.18514836 17 2 10033 40.74000000 3182177661 3182177661 -1.66700000
9.01458263 -1.41648221 -2.55449605 2 3 10033 9.47600000 3182177661 3182177661 -15.63900000
11.87411690 -2.46765780 -2.42557859 3 4 10034 12.36800000 3182177663 3182177663 -11.31000000
39.70768356 -6.24646139 0.00000000 19 5 10034 40.19600000 3182177663 3182177663 0.00000000
39.59127045 -10.26849174 -0.47616687 20 6 10034 40.90400000 3182177666 3182177666 -0.66700000
14.18872452 -2.23204470 -2.23458219 3 7 10034 14.53600000 3182177666 3182177666 -8.84300000
16.55329132 -3.44308972 -2.15211558 2 8 10035 17.04400000 3182177668 3182177668 -7.25400000
40.09125137 -4.31990767 0.23435961 16 9 10035 40.32400000 3182177668 3182177668 0.33300000
39.75496292 -8.27628326 -0.23601019 22 10 10036 40.60800000 3182177670 3182177670 -0.33300000
18.05522156 -2.84674644 -1.96887219 21 11 10036 18.38400000 3182177670 3182177670 -6.14800000
20.35617638 -5.29100657 -1.96335053 11 12 10037 21.12400000 3182177672 3182177672 -5.33300000
39.38951111 -6.21754599 0.92792016 18 13 10037 39.88800000 3182177672 3182177672 1.33300000
39.32473755 -10.22867012 0.47304705 18 14 10038 40.63600000 3182177675 3182177675 0.66700000
20.45559120 -3.23252845 -1.44814444 28 15 10038 20.76000000 3182177675 3182177675 -4.00000000
20.42246056 -4.26275444 -1.70312119 31 16 10039 20.93200000 3182177677 3182177677 -4.66700000
39.84536362 -4.32155514 1.16641402 22 17 10039 40.09600000 3182177677 3182177677 1.66700000
39.14873123 -8.17859650 0.69809628 25 18 10040 40.00000000 3182177679 3182177679 1.00000000
20.46536064 -2.22324944 -1.31931615 29 19 10040 20.62800000 3182177679 3182177679 -3.66700000
20.44208908 -5.32476568 -1.23022163 22 20 10040 21.16000000 3182177682 3182177682 -3.33300000
39.88244247 -6.31675816 2.35160708 28 21 10040 40.44800000 3182177682 3182177682 3.33300000
39.06995773 -8.16925621 1.62617445 25 22 10041 39.94800000 3182177684 3182177684 2.33300000
20.51320457 -3.25264263 -0.96747512 22 23 10041 20.79200000 3182177684 3182177684 -2.66700000
20.49135780 -4.28833294 -1.09717095 35 24 10042 20.96400000 3182177686 3182177686 -3.00000000
86.19728088 -13.68315220 10.71621513 28 25 10042 87.93200000 3182177686 3182177686 7.00000000
89.95028687 -18.84075356 7.50245523 28 26 10043 92.20800000 3182177689 3182177689 4.66700000
20.77921486 -2.26835418 -0.85159630 6 27 10043 20.92000000 3182177689 3182177689 -2.33300000
39.01810837 -10.19254875 -1.40826452 23 28 10044 40.35200000 3182177691 3182177691 -2.00000000
101.46141815 -21.27033043 18.90117264 28 30 10044 105.37600000 3182177693 3182177693 10.33300000
39.90318680 -6.34860373 -0.94020307 16 31 10044 40.41600000 3182177693 3182177693 -1.33300000
5.84200811 -1.23323417 -2.78420901 7 0 10052 6.58800000 3182177714 3182177714 -25.00000000
40.12450790 -4.44396400 -0.70465839 25 1 10052 40.37600000 3182177714 3182177714 -1.00000000
39.88230133 -8.42633152 -1.18631196 17 2 10053 40.78000000 3182177716 3182177716 -1.66700000
9.00958347 -1.44794035 -2.55449605 2 3 10053 9.47600000 3182177716 3182177716 -15.63900000
11.86159325 -2.50827980 -2.42479420 4 4 10054 12.36400000 3182177718 3182177718 -11.31000000
39.67773819 -6.38375807 0.00000000 19 5 10054 40.18800000 3182177718 3182177718 0.00000000
39.74289322 -10.46343136 -0.47844851 20 6 10055 41.10000000 3182177721 3182177721 -0.66700000
14.19995975 -2.28717661 -2.23765683 4 7 10055 14.55600000 3182177721 3182177721 -8.84300000
16.55669975 -3.50413680 -2.15413594 2 8 10055 17.06000000 3182177723 3182177723 -7.25400000
40.08387756 -4.46071100 0.23440610 25 9 10055 40.33200000 3182177723 3182177723 0.33300000
39.69061279 -8.40754318 -0.23580097 15 10 10056 40.57200000 3182177725 3182177725 -0.33300000
18.06480598 -2.91291928 -1.97101402 21 11 10056 18.40400000 3182177725 3182177725 -6.14800000
20.34913635 -5.36507654 -1.96446586 11 12 10057 21.13600000 3182177728 3182177728 -5.33300000
39.26492691 -6.33843374 0.92550075 18 13 10057 39.78400000 3182177728 3182177728 1.33300000
39.39707947 -10.39444733 0.47435087 18 14 10058 40.74800000 3182177730 3182177730 0.66700000
20.45600128 -3.30582190 -1.44898152 26 15 10058 20.77200000 3182177730 3182177730 -4.00000000
20.41915703 -4.33650112 -1.70409751 31 16 10059 20.94400000 3182177732 3182177732 -4.66700000
39.71083069 -4.44726515 1.16292322 22 17 10059 39.97600000 3182177732 3182177732 1.66700000
39.38351059 -8.36403942 0.70277351 25 18 10059 40.26800000 3182177735 3182177735 1.00000000
20.45787430 -2.29110289 -1.31931615 27 19 10059 20.62800000 3182177735 3182177735 -3.66700000
20.43882179 -5.40016937 -1.23115194 22 20 10060 21.17600000 3182177737 3182177737 -3.33300000
39.85620880 -6.45529699 2.35137463 28 21 10060 40.44400000 3182177737 3182177737 3.33300000
38.97083664 -8.29061604 1.62324357 25 22 10061 39.87600000 3182177739 3182177739 2.33300000
20.50961494 -3.32550621 -0.96784735 24 23 10061 20.80000000 3182177739 3182177739 -2.66700000
20.48798370 -4.36233091 -1.09779906 31 24 10062 20.97600000 3182177742 3182177742 -3.00000000
86.23128510 -13.99731255 10.72645187 28 25 10062 88.01600000 3182177742 3182177742 7.00000000
20.77514076 -2.34132075 -0.85175914 6 27 10063 20.92400000 3182177744 3182177744 -2.33300000
39.03252411 -10.34199524 -1.41007924 15 28 10064 40.40400000 3182177746 3182177746 -2.00000000
95.91032410 -20.47386551 17.88092232 28 30 10065 99.68800000 3182177748 3182177748 10.33300000
39.89543915 -6.49738455 -0.94057530 26 31 10065 40.43200000 3182177748 3182177748 -1.33300000
5.83766747 -1.25361907 -2.78420901 7 0 10072 6.58800000 3182177769 3182177769 -25.00000000
40.04119873 -4.57627726 -0.70347160 25 1 10072 40.30800000 3182177769 3182177769 -1.00000000
39.90346146 -8.57641697 -1.18782473 17 2 10073 40.83200000 3182177771 3182177771 -1.66700000
9.01587677 -1.48125422 -2.55773115 3 3 10073 9.48800000 3182177771 3182177771 -15.63900000
11.86426926 -2.55214381 -2.42714763 3 4 10074 12.37600000 3182177774 3182177774 -11.31000000
39.66705322 -6.52416801 0.00000000 19 5 10074 40.20000000 3182177774 3182177774 0.00000000
39.78728104 -10.62376404 -0.47942638 20 6 10075 41.18400000 3182177776 3182177776 -0.66700000
14.19188976 -2.33672976 -2.23765683 4 7 10075 14.55600000 3182177776 3182177776 -8.84300000
16.56764221 -3.56692004 -2.15716624 2 8 10075 17.08400000 3182177778 3182177778 -7.25400000
40.01243210 -4.59421492 0.23408064 25 9 10075 40.27600000 3182177778 3182177778 0.33300000
39.46942520 -8.50475311 -0.23466183 45 10 10076 40.37600000 3182177781 3182177781 -0.33300000
18.06629944 -2.97789979 -1.97229922 19 11 10076 18.41600000 3182177781 3182177781 -6.14800000
20.34567451 -5.44019079 -1.96595299 11 12 10077 21.15200000 3182177783 3182177783 -5.33300000
39.30569077 -6.48587227 0.92698961 18 13 10077 39.84800000 3182177783 3182177783 1.33300000
39.44556046 -10.55465031 0.47537526 18 14 10078 40.83600000 3182177785 3182177785 0.66700000
20.44827461 -3.37785673 -1.44926047 28 15 10078 20.77600000 3182177785 3182177785 -4.00000000
20.41558456 -4.41027594 -1.70507395 34 16 10079 20.95600000 3182177788 3182177788 -4.66700000
39.68314743 -4.58447838 1.16257405 22 17 10079 39.96400000 3182177788 3182177788 1.66700000
39.50653076 -8.53439713 0.70549607 17 18 10079 40.42400000 3182177790 3182177790 1.00000000
20.46957970 -2.36479092 -1.32059526 27 19 10079 20.64800000 3182177790 3182177790 -3.66700000
20.44298935 -5.47768259 -1.23254728 22 20 10080 21.20000000 3182177792 3182177792 -3.33300000
39.80979538 -6.59046888 2.34997916 28 21 10080 40.42000000 3182177792 3182177792 3.33300000
38.98072433 -8.43505192 1.62487185 25 22 10081 39.91600000 3182177795 3182177795 2.33300000
20.50970650 -3.39903784 -0.96840572 22 23 10081 20.81200000 3182177795 3182177795 -2.66700000
20.49605560 -4.43889380 -1.09905505 28 24 10082 21.00000000 3182177797 3182177797 -3.00000000
86.35423279 -14.32682228 10.74790096 28 25 10082 88.19200000 3182177797 3182177797 7.00000000
44.05110550 -9.54833221 3.67962694 20 26 10083 45.22400000 3182177799 3182177799 4.66700000
20.78272247 -2.41567111 -0.85241044 4 27 10083 20.94000000 3182177799 3182177799 -2.33300000
38.73752594 -10.40867996 -1.40072620 15 28 10084 40.13600000 3182177801 3182177801 -2.00000000
95.73423004 -20.76844215 17.86083412 28 30 10084 99.57600000 3182177804 3182177804 10.33300000
39.87761688 -6.63030291 -0.94066834 26 31 10084 40.43600000 3182177804 3182177804 -1.33300000
5.84056234 -1.27451634 -2.78759003 7 0 10091 6.59600000 3182177824 3182177824 -25.00000000
40.03771973 -4.71043539 -0.70368105 25 1 10091 40.32000000 3182177824 3182177824 -1.00000000
39.92167664 -8.71893215 -1.18922102 17 2 10092 40.88000000 3182177827 3182177827 -1.66700000
9.00711632 -1.51050675 -2.55665278 3 3 10092 9.48400000 3182177827 3182177827 -15.63900000
11.85574150 -2.59147310 -2.42714763 3 4 10093 12.37600000 3182177829 3182177829 -11.31000000
39.57419586 -6.64375210 0.00000000 19 5 10093 40.12800000 3182177829 3182177829 0.00000000
39.73826218 -10.74453163 -0.47924012 20 6 10093 41.16800000 3182177831 3182177831 -0.66700000
14.19227409 -2.38261199 -2.23888659 3 7 10093 14.56400000 3182177831 3182177831 -8.84300000
16.57510376 -3.62608075 -2.15969181 2 8 10094 17.10400000 3182177834 3182177834 -7.25400000
39.86191559 -4.71091413 0.23329021 25 9 10094 40.14000000 3182177834 3182177834 0.33300000
39.84346390 -8.72371006 -0.23705633 15 10 10095 40.78800000 3182177836 3182177836 -0.33300000
18.06809235 -3.03977275 -1.97358441 15 11 10095 18.42800000 3182177836 3182177836 -6.14800000
20.34674263 -5.51283741 -1.96781182 9 12 10096 21.17200000 3182177838 3182177838 -5.33300000
39.48113632 -6.64938593 0.93164223 18 13 10096 40.04800000 3182177838 3182177838 1.33300000
39.29453278 -10.65399837 0.47397834 18 14 10097 40.71600000 3182177841 3182177841 0.66700000
20.44482994 -3.44697380 -1.44981849 28 15 10097 20.78400000 3182177841 3182177841 -4.00000000
20.41642380 -4.48137140 -1.70637572 31 16 10098 20.97200000 3182177843 3182177843 -4.66700000
39.73125458 -4.72359943 1.16443586 22 17 10098 40.02800000 3182177843 3182177843 1.66700000
39.18894196 -8.60190773 0.70033014 25 18 10098 40.12800000 3182177845 3182177845 1.00000000
20.46162605 -2.43265748 -1.32059526 27 19 10098 20.64800000 3182177845 3182177845 -3.66700000
20.44398117 -5.55067539 -1.23371005 22 20 10099 21.22000000 3182177848 3182177848 -3.33300000
39.76409531 -6.71845484 2.34858394 34 21 10099 40.39600000 3182177848 3182177848 3.33300000
39.07354355 -8.59087563 1.62991953 25 22 10100 40.04000000 3182177850 3182177850 2.33300000
20.51014137 -3.46903086 -0.96896410 24 23 10100 20.82400000 3182177850 3182177850 -2.66700000
20.48122406 -4.50683641 -1.09905505 28 24 10101 21.00000000 3182177852 3182177852 -3.00000000
95.17643738 -16.11497688 11.85252476 28 25 10101 97.25600000 3182177852 3182177852 7.00000000
42.23989868 -9.30250263 3.53089261 28 26 10102 43.39600000 3182177854 3182177854 4.66700000
20.81428146 -2.48932195 -0.85403872 4 27 10102 20.98000000 3182177854 3182177854 -2.33300000
38.86865234 -10.58223629 -1.40672886 15 28 10103 40.30800000 3182177857 3182177857 -2.00000000
96.19144440 -21.21947289 17.95984459 28 30 10104 100.12800000 3182177859 3182177859 10.33300000
39.88971329 -6.77548790 -0.94150579 26 31 10104 40.47200000 3182177859 3182177859 -1.33300000
5.83630371 -1.29387736 -2.78759003 7 0 10110 6.59600000 3182177880 3182177880 -25.00000000
39.95438385 -4.83501148 -0.70249426 25 1 10110 40.25200000 3182177880 3182177880 -1.00000000
39.90425491 -8.85386753 -1.18957007 26 2 10111 40.89200000 3182177882 3182177882 -1.66700000
9.00965214 -1.54166639 -2.55880928 3 3 10111 9.49200000 3182177882 3182177882 -15.63900000
11.86239815 -2.63417506 -2.43028545 4 4 10112 12.39200000 3182177884 3182177884 -11.31000000
39.65839767 -6.79318237 0.00000000 19 5 10112 40.23600000 3182177884 3182177884 0.00000000
39.68312836 -10.87096500 -0.47900730 20 6 10112 41.14800000 3182177887 3182177887 -0.66700000
14.19987774 -2.43233132 -2.24134612 3 7 10112 14.58000000 3182177887 3182177887 -8.84300000
16.56686211 -3.68188667 -2.16019678 2 8 10113 17.10800000 3182177889 3182177889 -7.25400000
39.78651428 -4.83583593 0.23294149 33 9 10113 40.08000000 3182177889 3182177889 0.33300000
39.69327545 -8.82886505 -0.23633566 22 10 10114 40.66400000 3182177891 3182177891 -0.33300000
18.06575203 -3.10101771 -1.97444117 12 11 10114 18.43600000 3182177891 3182177891 -6.14800000
20.34371185 -5.58449602 -1.96929896 9 12 10115 21.18800000 3182177894 3182177894 -5.33300000
39.24210358 -6.74302673 0.92652434 24 13 10115 39.82800000 3182177894 3182177894 1.33300000
39.39783478 -10.82238579 0.47565466 18 14 10116 40.86000000 3182177896 3182177896 0.66700000
20.44115067 -3.51610541 -1.45037663 24 15 10116 20.79200000 3182177896 3182177896 -4.00000000
20.40534210 -4.54991770 -1.70670116 31 16 10117 20.97600000 3182177898 3182177898 -4.66700000
39.50899506 -4.83009720 1.15838504 60 17 10117 39.82000000 3182177898 3182177898 1.66700000
39.27340317 -8.75705719 0.70235467 17 18 10117 40.24400000 3182177901 3182177901 1.00000000
20.46137047 -2.50146604 -1.32110691 27 19 10117 20.65600000 3182177901 3182177901 -3.66700000
20.44856262 -5.62479401 -1.23510540 22 20 10118 21.24400000 3182177903 3182177903 -3.33300000
39.83604431 -6.86655998 2.35416532 17 21 10118 40.49200000 3182177903 3182177903 3.33300000
39.25157166 -8.76657295 1.63854945 25 22 10119 40.25200000 3182177905 3182177905 2.33300000
20.51033783 -3.53906393 -0.96952248 23 23 10119 20.83600000 3182177905 3182177905 -2.66700000
20.48175812 -4.57821560 -1.09989250 24 24 10120 21.01600000 3182177907 3182177907 -3.00000000
99.69198608 -17.21979523 12.42189884 28 25 10120 101.92800000 3182177907 3182177907 7.00000000
42.21659851 -9.44426441 3.53154349 28 26 10121 43.40400000 3182177910 3182177910 4.66700000
20.83764648 -2.56223297 -0.85534137 4 27 10121 21.01200000 3182177910 3182177910 -2.33300000
38.99134827 -10.75465107 -1.41245246 23 28 10122 40.47200000 3182177912 3182177912 -2.00000000
94.40411377 -21.15372467 17.63913345 28 30 10123 98.34000000 3182177914 3182177914 10.33300000
39.84732437 -6.90431643 -0.94104058 26 31 10123 40.45200000 3182177914 3182177914 -1.33300000
5.83528805 -1.31503892 -2.78928041 7 0 10130 6.60000000 3182177935 3182177935 -25.00000000
40.06029129 -4.98977327 -0.70465839 25 1 10130 40.37600000 3182177935 3182177935 -1.00000000
39.88090897 -8.99486542 -1.18980289 26 2 10131 40.90000000 3182177937 3182177937 -1.66700000
9.01559830 -1.57509542 -2.56204414 3 3 10131 9.50400000 3182177937 3182177937 -15.63900000
11.85313129 -2.67556643 -2.43028545 4 4 10132 12.39200000 3182177940 3182177940 -11.31000000
39.73688507 -6.94949102 0.00000000 19 5 10132 40.34000000 3182177940 3182177940 0.00000000
39.73743057 -11.03510475 -0.48012483 30 6 10132 41.24400000 3182177942 3182177942 -0.66700000
14.19908810 -2.48324513 -2.24257612 4 7 10132 14.58800000 3182177942 3182177942 -8.84300000
16.57326126 -3.74406528 -2.16272211 2 8 10133 17.12800000 3182177944 3182177944 -7.25400000
39.76145554 -4.97369432 0.23289500 16 9 10133 40.07200000 3182177944 3182177944 0.33300000
39.69342804 -8.97442341 -0.23652165 22 10 10134 40.69600000 3182177947 3182177947 -0.33300000
18.07440376 -3.16749263 -1.97658312 10 11 10134 18.45600000 3182177947 3182177947 -6.14800000
20.34327888 -5.66081333 -1.97115779 9 12 10135 21.20800000 3182177949 3182177949 -5.33300000
39.18287659 -6.87374735 0.92568690 18 13 10135 39.79200000 3182177949 3182177949 1.33300000
39.40220261 -10.97164536 0.47616687 18 14 10136 40.90400000 3182177951 3182177951 0.66700000
20.44447327 -3.59019756 -1.45149267 26 15 10136 20.80800000 3182177951 3182177951 -4.00000000
20.40100098 -4.62376165 -1.70767760 31 16 10137 20.98800000 3182177954 3182177954 -4.66700000
39.43635559 -4.96099329 1.15675604 22 17 10137 39.76400000 3182177954 3182177954 1.66700000
39.39081192 -8.92768669 0.70500743 25 18 10137 40.39600000 3182177956 3182177956 1.00000000
20.46439552 -2.57436895 -1.32187438 27 19 10137 20.66800000 3182177956 3182177956 -3.66700000
20.44419098 -5.70042849 -1.23603559 22 20 10138 21.26000000 3182177958 3182177958 -3.33300000
39.88655472 -7.01872063 2.35858369 28 21 10138 40.56800000 3182177958 3182177958 3.33300000
39.25191116 -8.91061115 1.63985205 25 22 10139 40.28400000 3182177960 3182177960 2.33300000
20.51753426 -3.61410260 -0.97045314 23 23 10139 20.85600000 3182177960 3182177960 -2.66700000
20.47733879 -4.65233707 -1.10052049 28 24 10140 21.02800000 3182177963 3182177963 -3.00000000
96.60503387 -17.03407288 12.04459095 28 25 10140 98.83200000 3182177963 3182177963 7.00000000
42.20669937 -9.59687424 3.53349638 28 26 10141 43.42800000 3182177965 3182177965 4.66700000
34.29795837 -4.33892155 -1.40847194 17 27 10141 34.60000000 3182177965 3182177965 -2.33300000
38.95357132 -10.89069080 -1.41245246 7 28 10142 40.47200000 3182177967 3182177967 -2.00000000
94.22610474 -21.45953369 17.61976242 28 30 10143 98.23200000 3182177970 3182177970 10.33300000
39.82691574 -7.04406357 -0.94113362 16 31 10143 40.45600000 3182177970 3182177970 -1.33300000
5.82666206 -1.33662450 -2.78759003 7 0 10152 6.59600000 3182177990 3182177990 -25.00000000
40.03686905 -5.14304686 -0.70458853 25 1 10152 40.37200000 3182177990 3182177990 -1.00000000
39.81100464 -9.13987827 -1.18875563 26 2 10153 40.86400000 3182177993 3182177993 -1.66700000
9.00948429 -1.60970104 -2.56204414 2 3 10153 9.50400000 3182177993 3182177993 -15.63900000
11.85423851 -2.72369432 -2.43263888 3 4 10154 12.40400000 3182177995 3182177995 -11.31000000
39.70203400 -7.10060978 0.00000000 19 5 10154 40.33200000 3182177995 3182177995 0.00000000
39.69476700 -11.18760300 -0.48012483 30 6 10154 41.24400000 3182177997 3182177997 -0.66700000
14.19333839 -2.53844309 -2.24319100 3 7 10154 14.59200000 3182177997 3182177997 -8.84300000
16.57036400 -3.81034207 -2.16423726 2 8 10155 17.14000000 3182178000 3182178000 -7.25400000
39.76189804 -5.12888908 0.23301125 25 9 10155 40.09200000 3182178000 3182178000 0.33300000
39.70935059 -9.13843060 -0.23682386 15 10 10156 40.74800000 3182178002 3182178002 -0.33300000
18.08559608 -3.24107885 -1.97915351 10 11 10156 18.48000000 3182178002 3182178002 -6.14800000
20.33672333 -5.74321365 -1.97264493 11 12 10157 21.22400000 3182178004 3182178004 -5.33300000
39.20343018 -7.03262091 0.92680353 18 13 10157 39.84000000 3182178004 3182178004 1.33300000
39.25585938 -11.09348965 0.47490963 27 14 10158 40.79600000 3182178006 3182178006 0.66700000
20.44231987 -3.67078757 -1.45232975 26 15 10158 20.82000000 3182178006 3182178006 -4.00000000
20.40251923 -4.70654202 -1.70930481 36 16 10159 21.00800000 3182178009 3182178009 -4.66700000
39.52407455 -5.12626648 1.15989780 22 17 10159 39.87200000 3182178009 3182178009 1.66700000
39.41080093 -9.09145546 0.70598477 17 18 10159 40.45200000 3182178011 3182178011 1.00000000
20.45436096 -2.65292740 -1.32187438 24 19 10159 20.66800000 3182178011 3182178011 -3.66700000
20.44136429 -5.78432274 -1.23719835 19 20 10160 21.28000000 3182178013 3182178013 -3.33300000
39.83966064 -7.16828632 2.35742092 17 21 10160 40.54800000 3182178013 3182178013 3.33300000
39.28360748 -9.07655716 1.64262021 25 22 10161 40.35200000 3182178016 3182178016 2.33300000
20.49957275 -3.69214916 -0.97026700 22 23 10161 20.85200000 3182178016 3182178016 -2.66700000
20.47489166 -4.73452997 -1.10135782 28 24 10162 21.04400000 3182178018 3182178018 -3.00000000
96.48812103 -17.39572716 12.03825378 28 25 10162 98.78000000 3182178018 3182178018 7.00000000
42.25498962 -9.77863979 3.54065633 19 26 10163 43.51600000 3182178020 3182178020 4.66700000
34.29689789 -4.47265148 -1.40912318 17 27 10163 34.61600000 3182178020 3182178020 -2.33300000
94.10850525 -21.81318092 17.61330414 28 30 10165 98.19600000 3182178025 3182178025 10.33300000
39.82712173 -7.20191717 -0.94178498 26 31 10165 40.48400000 3182178025 3182178025 -1.33300000
5.82549143 -1.35777819 -2.78928041 8 0 10172 6.60000000 3182178046 3182178046 -25.00000000
40.01867294 -5.28277016 -0.70458853 25 1 10172 40.37200000 3182178046 3182178046 -1.00000000
39.68540573 -9.25699043 -1.18596292 26 2 10173 40.76800000 3182178048 3182178048 -1.66700000
9.00759983 -1.64183092 -2.56312251 3 3 10173 9.50800000 3182178048 3182178048 -15.63900000
11.85229778 -2.76684022 -2.43420792 4 4 10174 12.41200000 3182178050 3182178050 -11.31000000
39.63765717 -7.23197269 0.00000000 19 5 10174 40.29200000 3182178050 3182178050 0.00000000
39.71316147 -11.34257221 -0.48082331 20 6 10174 41.30400000 3182178053 3182178053 -0.66700000
14.20383263 -2.59151888 -2.24626541 4 7 10174 14.61200000 3182178053 3182178053 -8.84300000
16.55696297 -3.86816001 -2.16423726 2 8 10175 17.14000000 3182178055 3182178055 -7.25400000
39.65651703 -5.25609064 0.23249979 25 9 10175 40.00400000 3182178055 3182178055 0.33300000
39.64604950 -9.26970100 -0.23663788 22 10 10176 40.71600000 3182178057 3182178057 -0.33300000
18.07808304 -3.30490494 -1.97958183 7 11 10176 18.48400000 3182178057 3182178057 -6.14800000
20.33569717 -5.81964588 -1.97450376 11 12 10177 21.24400000 3182178059 3182178059 -5.33300000
39.37532043 -7.20541477 0.93145615 18 13 10177 40.04000000 3182178059 3182178059 1.33300000
39.24765778 -11.23925972 0.47528213 54 14 10178 40.82800000 3182178062 3182178062 0.66700000
20.43723297 -3.74356031 -1.45288789 26 15 10178 20.82800000 3182178062 3182178062 -4.00000000
20.40925598 -4.78318977 -1.71125758 36 16 10179 21.03200000 3182178064 3182178064 -4.66700000
39.37118912 -5.24624443 1.15594149 22 17 10179 39.73600000 3182178064 3182178064 1.66700000
39.44891739 -9.24539661 0.70724130 17 18 10179 40.52400000 3182178066 3182178066 1.00000000
20.44893265 -2.72483754 -1.32213020 27 19 10179 20.67200000 3182178066 3182178066 -3.66700000
20.43256378 -5.85894346 -1.23789608 19 20 10180 21.29200000 3182178069 3182178069 -3.33300000
39.95971680 -7.33398056 2.36602569 17 21 10180 40.69600000 3182178069 3182178069 3.33300000
39.11939240 -9.18257427 1.63708401 25 22 10181 40.21600000 3182178071 3182178071 2.33300000
20.49835014 -3.76584959 -0.97082537 23 23 10181 20.86400000 3182178071 3182178071 -2.66700000
20.47768402 -4.81053925 -1.10240459 31 24 10182 21.06400000 3182178073 3182178073 -3.00000000
97.17651367 -17.87029457 12.13184929 28 25 10182 99.54800000 3182178073 3182178073 7.00000000
42.23612213 -9.92972755 3.54195833 19 26 10183 43.53200000 3182178076 3182178076 4.66700000
34.25334930 -4.58862782 -1.40798342 11 27 10183 34.58800000 3182178076 3182178076 -2.33300000
38.99947357 -11.21239090 -1.41705918 23 28 10184 40.60400000 3182178078 3182178078 -2.00000000
95.05074310 -22.36397171 17.80343628 28 30 10184 99.25600000 3182178080 3182178080 10.33300000
39.86987686 -7.34626770 -0.94336689 43 31 10184 40.55200000 3182178080 3182178080 -1.33300000
5.82424450 -1.37893987 -2.79097104 7 0 10192 6.60400000 3182178101 3182178101 -25.00000000
39.89298630 -5.40792370 -0.70270371 17 1 10192 40.26400000 3182178101 3182178101 -1.00000000
39.58282089 -9.37886906 -1.18386841 26 2 10193 40.69600000 3182178103 3182178103 -1.66700000
9.00938797 -1.67467117 -2.56527925 4 3 10193 9.51600000 3182178103 3182178103 -15.63900000
11.84638405 -2.80910063 -2.43499231 4 4 10194 12.41600000 3182178106 3182178106 -11.31000000
39.67902374 -7.38272858 0.00000000 19 5 10194 40.36000000 3182178106 3182178106 0.00000000
39.94025421 -11.56593037 -0.48408279 20 6 10195 41.58400000 3182178108 3182178108 -0.66700000
14.18646812 -2.64211369 -2.24503565 3 7 10195 14.60400000 3182178108 3182178108 -8.84300000
16.56266403 -3.93051219 -2.16676283 2 8 10195 17.16000000 3182178110 3182178110 -7.25400000
39.62207794 -5.39232779 0.23240681 24 9 10195 39.98800000 3182178110 3182178110 0.33300000
39.53561783 -9.38955021 -0.23617293 15 10 10196 40.63600000 3182178112 3182178112 -0.33300000
18.09380531 -3.37309098 -1.98258054 6 11 10196 18.51200000 3182178112 3182178112 -6.14800000
20.33056068 -5.89503193 -1.97599089 11 12 10197 21.26000000 3182178115 3182178115 -5.33300000
39.22413635 -7.31934261 0.92847848 18 13 10197 39.91200000 3182178115 3182178115 1.33300000
38.71649933 -11.23352909 0.46932191 17 14 10198 40.31600000 3182178117 3182178117 0.66700000
20.42796326 -3.81560922 -1.45316684 28 15 10198 20.83200000 3182178117 3182178117 -4.00000000
20.40406990 -4.85717201 -1.71223402 36 16 10199 21.04400000 3182178119 3182178119 -4.66700000
39.25360107 -5.37009478 1.15303242 22 17 10199 39.63600000 3182178119 3182178119 1.66700000
39.35640717 -9.37601852 0.70619416 26 18 10200 40.46400000 3182178122 3182178122 1.00000000
20.45067215 -2.80139351 -1.32289779 29 19 10200 20.68400000 3182178122 3182178122 -3.66700000
20.43499565 -5.93691492 -1.23929143 22 20 10200 21.31600000 3182178124 3182178124 -3.33300000
39.96527481 -7.47929811 2.36788607 29 21 10200 40.72800000 3182178124 3182178124 3.33300000
39.05599976 -9.31165504 1.63578141 25 22 10201 40.18400000 3182178126 3182178126 2.33300000
20.49293518 -3.83885074 -0.97119761 24 23 10201 20.87200000 3182178126 3182178126 -2.66700000
20.46853828 -4.88384438 -1.10282326 35 24 10202 21.07200000 3182178129 3182178129 -3.00000000
99.01390839 -18.56572342 12.36925125 28 25 10202 101.49600000 3182178129 3182178129 7.00000000
41.77853394 -9.97617054 3.50648332 28 26 10203 43.09600000 3182178131 3182178131 4.66700000
34.27671432 -4.71361113 -1.40961170 11 27 10203 34.62800000 3182178131 3182178131 -2.33300000
39.09059143 -11.38646698 -1.42180550 15 28 10204 40.74000000 3182178133 3182178133 -2.00000000
95.66102600 -22.86025620 17.93258095 28 30 10204 99.97600000 3182178136 3182178136 10.33300000
39.86364365 -7.48908615 -0.94383210 21 31 10204 40.57200000 3182178136 3182178136 -1.33300000
5.82996988 -1.40180445 -2.79604244 7 0 10212 6.61600000 3182178156 3182178156 -25.00000000
39.86594391 -5.54604101 -0.70256406 25 1 10212 40.25600000 3182178156 3182178156 -1.00000000
39.55373001 -9.51791668 -1.18398476 26 2 10213 40.70000000 3182178159 3182178159 -1.66700000
8.99591827 -1.70467532 -2.56312251 3 3 10213 9.50800000 3182178159 3182178159 -15.63900000
11.83269310 -2.84951663 -2.43420792 4 4 10214 12.41200000 3182178161 3182178161 -11.31000000
39.53904343 -7.49957275 0.00000000 19 5 10214 40.24400000 3182178161 3182178161 0.00000000
39.84974670 -11.69063950 -0.48347747 30 6 10215 41.53200000 3182178163 3182178163 -0.66700000
14.19269085 -2.69456649 -2.24749541 4 7 10215 14.62000000 3182178163 3182178163 -8.84300000
16.55270004 -3.98923230 -2.16726780 2 8 10215 17.16400000 3182178165 3182178165 -7.25400000
39.67035675 -5.54000664 0.23280202 25 9 10215 40.05600000 3182178165 3182178165 0.33300000
39.40539169 -9.50405216 -0.23559174 22 10 10216 40.53600000 3182178168 3182178168 -0.33300000
18.09754944 -3.43919945 -1.98429406 4 11 10216 18.52800000 3182178168 3182178168 -6.14800000
20.34042740 -5.97494268 -1.97896504 14 12 10217 21.29200000 3182178170 3182178170 -5.33300000
39.19834900 -7.45621586 0.92847848 18 13 10217 39.91200000 3182178170 3182178170 1.33300000
39.26033401 -11.54005527 0.47639969 27 14 10218 40.92400000 3182178172 3182178172 0.66700000
20.43411827 -3.89062452 -1.45456195 24 15 10218 20.85200000 3182178172 3182178172 -4.00000000
20.40249062 -4.93211317 -1.71353579 34 16 10219 21.06000000 3182178175 3182178175 -4.66700000
39.52365875 -5.54765368 1.16152680 22 17 10219 39.92800000 3182178175 3182178175 1.66700000
39.26678848 -9.49238205 0.70514703 25 18 10219 40.40400000 3182178177 3182178177 1.00000000
20.45312881 -2.87085962 -1.32366526 29 19 10219 20.69600000 3182178177 3182178177 -3.66700000
20.42564011 -6.01159286 -1.23998904 22 20 10220 21.32800000 3182178179 3182178179 -3.33300000
39.89970016 -7.61127472 2.36556053 17 21 10220 40.68800000 3182178179 3182178179 3.33300000
38.87953186 -9.41313267 1.62975669 25 22 10221 40.03600000 3182178182 3182178182 2.33300000
20.49510956 -3.91335845 -0.97194213 23 23 10221 20.88800000 3182178182 3182178182 -2.66700000
20.47077560 -4.95996618 -1.10387003 31 24 10222 21.09200000 3182178184 3182178184 -3.00000000
103.04307556 -19.69379807 12.88110256 28 25 10222 105.69600000 3182178184 3182178184 7.00000000
41.70858383 -10.11348820 3.50355411 19 26 10223 43.06000000 3182178186 3182178186 4.66700000
34.42230988 -4.85612106 -1.41628766 12 27 10223 34.79200000 3182178186 3182178186 -2.33300000
39.07361221 -11.52963734 -1.42264307 15 28 10224 40.76400000 3182178189 3182178189 -2.00000000
49.98155594 -12.12875366 9.37740421 31 30 10224 52.28000000 3182178191 3182178191 10.33300000
39.69586563 -7.60111666 -0.94048226 21 31 10224 40.42800000 3182178191 3182178191 -1.33300000
5.82176733 -1.42027032 -2.79435205 7 0 10231 6.61200000 3182178212 3182178212 -25.00000000
39.89880371 -5.68554544 -0.70347160 25 1 10231 40.30800000 3182178212 3182178212 -1.00000000
39.54137039 -9.65377045 -1.18456650 26 2 10232 40.72000000 3182178214 3182178214 -1.66700000
9.00534439 -1.73741627 -2.56743574 3 3 10232 9.52400000 3182178214 3182178214 -15.63900000
11.83460999 -2.89153242 -2.43656111 3 4 10233 12.42400000 3182178217 3182178217 -11.31000000
39.58072281 -7.64354086 0.00000000 19 5 10233 40.31200000 3182178217 3182178217 0.00000000
39.85116577 -11.82715321 -0.48394310 20 6 10233 41.57200000 3182178219 3182178219 -0.66700000
14.18803596 -2.73989034 -2.24811029 5 7 10233 14.62400000 3182178219 3182178219 -8.84300000
16.55865288 -4.04881334 -2.16979313 2 8 10234 17.18400000 3182178221 3182178221 -7.25400000
39.63196945 -5.66869593 0.23268577 25 9 10234 40.03600000 3182178221 3182178221 0.33300000
39.56792068 -9.68220901 -0.23675412 15 10 10235 40.73600000 3182178224 3182178224 -0.33300000
18.10166359 -3.50221610 -1.98600769 4 11 10235 18.54400000 3182178224 3182178224 -6.14800000
20.33577347 -6.04690170 -1.98045218 14 12 10236 21.30800000 3182178226 3182178226 -5.33300000
39.15770340 -7.58312035 0.92810625 18 13 10236 39.89600000 3182178226 3182178226 1.33300000
39.22568512 -11.67132473 0.47644624 27 14 10237 40.92800000 3182178228 3182178228 0.66700000
20.43285561 -3.96064329 -1.45539904 26 15 10237 20.86400000 3182178228 3182178228 -4.00000000
20.39764023 -5.00259161 -1.71451223 34 16 10238 21.07200000 3182178230 3182178230 -4.66700000
39.26758575 -5.64455462 1.15454507 22 17 10238 39.68800000 3182178230 3182178230 1.66700000
39.12245178 -9.59491634 0.70312256 25 18 10238 40.28800000 3182178233 3182178233 1.00000000
20.44744682 -2.93923688 -1.32392108 29 19 10238 20.70000000 3182178233 3182178233 -3.66700000
20.42090034 -6.08385420 -1.24091923 22 20 10239 21.34400000 3182178235 3182178235 -3.33300000
40.07807922 -7.78313065 2.37765336 5 21 10239 40.89600000 3182178235 3182178235 3.33300000
38.75883484 -9.52008247 1.62601161 25 22 10240 39.94400000 3182178237 3182178237 2.33300000
20.49770737 -3.98435092 -0.97268659 23 23 10240 20.90400000 3182178237 3182178237 -2.66700000
20.47360992 -5.03259039 -1.10491669 28 24 10241 21.11200000 3182178240 3182178240 -3.00000000
99.50098419 -19.35905457 12.44627190 28 25 10241 102.12800000 3182178240 3182178240 7.00000000
42.25551605 -10.39459133 3.55237293 19 26 10242 43.66000000 3182178242 3182178242 4.66700000
34.60775375 -4.99938536 -1.42459202 6 27 10242 34.99600000 3182178242 3182178242 -2.33300000
39.07346725 -11.67058754 -1.42403901 15 28 10243 40.80400000 3182178244 3182178244 -2.00000000
51.43127060 -12.66128922 9.65721989 18 30 10243 53.84000000 3182178247 3182178247 10.33300000
39.83921814 -7.76560974 -0.94448352 26 31 10243 40.60000000 3182178247 3182178247 -1.33300000
5.81325531 -1.43971205 -2.79266143 7 0 10251 6.60800000 3182178267 3182178267 -25.00000000
39.89058685 -5.82651806 -0.70368105 25 1 10251 40.32000000 3182178267 3182178267 -1.00000000
39.81402206 -9.86772442 -1.19375920 26 2 10252 41.03600000 3182178270 3182178270 -1.66700000
8.99922562 -1.76884019 -2.56743574 4 3 10252 9.52400000 3182178270 3182178270 -15.63900000
11.83586502 -2.93565822 -2.43891454 3 4 10253 12.43600000 3182178272 3182178272 -11.31000000
39.70686722 -7.81177044 0.00000000 19 5 10253 40.46800000 3182178272 3182178272 0.00000000
39.86709595 -11.98345852 -0.48464158 20 6 10253 41.63200000 3182178274 3182178274 -0.66700000
14.19389820 -2.79245090 -2.25056982 3 7 10253 14.64000000 3182178274 3182178274 -8.84300000
16.55597115 -4.10945702 -2.17130828 2 8 10254 17.19600000 3182178277 3182178277 -7.25400000
39.68317795 -5.81744623 0.23310423 16 9 10254 40.10800000 3182178277 3182178277 0.33300000
39.51835632 -9.81641102 -0.23666112 22 10 10255 40.72000000 3182178279 3182178279 -0.33300000
18.09713173 -3.56691933 -1.98686445 4 11 10255 18.55200000 3182178279 3182178279 -6.14800000
20.34123611 -6.12588930 -1.98305464 14 12 10256 21.33600000 3182178281 3182178281 -5.33300000
39.18592072 -7.73059559 0.92940897 18 13 10256 39.95200000 3182178281 3182178281 1.33300000
39.32257080 -11.84972191 0.47812256 18 14 10257 41.07200000 3182178283 3182178283 0.66700000
20.43456459 -4.03503513 -1.45651519 26 15 10257 20.88000000 3182178283 3182178283 -4.00000000
20.40713310 -5.08050442 -1.71679044 36 16 10258 21.10000000 3182178286 3182178286 -4.66700000
39.16853333 -5.76993561 1.15221786 36 17 10258 39.60800000 3182178286 3182178286 1.66700000
39.12364960 -9.74011707 0.70375085 25 18 10258 40.32400000 3182178288 3182178288 1.00000000
20.44891167 -3.01233912 -1.32468855 31 19 10258 20.71200000 3182178288 3182178288 -3.66700000
20.42247772 -6.16202021 -1.24231458 19 20 10259 21.36800000 3182178290 3182178290 -3.33300000
92.00606537 -18.20100403 5.46204472 32 21 10259 93.94800000 3182178290 3182178290 3.33300000
38.93090057 -9.70656300 1.63464153 17 22 10260 40.15600000 3182178293 3182178293 2.33300000
20.49935341 -4.05898142 -0.97343111 23 23 10260 20.92000000 3182178293 3182178293 -2.66700000
20.47917366 -5.10982800 -1.10617280 31 24 10261 21.13600000 3182178295 3182178295 -3.00000000
99.65088654 -19.74948311 12.47357082 28 25 10261 102.35200000 3182178295 3182178295 7.00000000
41.67359161 -10.40584564 3.50648332 28 26 10262 43.09600000 3182178297 3182178297 4.66700000
34.77195740 -5.14707899 -1.43208218 6 27 10262 35.18000000 3182178297 3182178297 -2.33300000
