# .PCD v0.7 - Point Cloud Data file format
VERSION 0.7
FIELDS x y z intensity laser_id azimuth distance_m adjustedtime timestamp vertical_angle
SIZE 4 4 4 1 1 2 8 8 4 8
TYPE F F F U U U F U U F
COUNT 1 1 1 1 1 1 1 1 1 1
WIDTH 508
HEIGHT 1
VIEWPOINT 0 0 0 1 0 0 0
POINTS 508
DATA ascii
19.72932625 -32.71858597 -2.67167306 10 15 15031 38.30000000 3183491618 3183491618 -4.00000000
16.88245010 -31.38035011 -2.90894270 6 16 15032 35.75200000 3183491621 3183491621 -4.66700000
42.14584732 -62.76695633 2.20029163 56 17 15032 75.63600000 3183491621 3183491621 1.66700000
37.15202332 -69.05653381 1.36875737 28 18 15032 78.42800000 3183491623 3183491623 1.00000000
19.88711357 -29.61747360 -2.28635406 20 19 15032 35.74800000 3183491623 3183491623 -3.66700000
19.69163895 -41.34006882 -2.66672063 10 20 15033 45.86800000 3183491625 3183491625 -3.33300000
40.51832962 -67.24758911 4.57228518 40 21 15033 78.64400000 3183491625 3183491625 3.33300000
40.02075577 -74.45108032 3.44367313 28 22 15034 84.59600000 3183491628 3183491628 2.33300000
19.83787537 -32.93759155 -1.79107606 12 23 15034 38.49200000 3183491628 3183491628 -2.66700000
19.73874092 -36.73558426 -2.18554950 20 24 15035 41.76000000 3183491630 3183491630 -3.00000000
63.48640060 -118.20341492 10.95328522 28 26 15036 134.62000000 3183491632 3183491632 4.66700000
38.47937012 -57.39307785 -2.81515265 28 27 15036 69.15600000 3183491632 3183491632 -2.33300000
38.61631775 -81.21599579 -3.14039636 28 28 15037 89.98400000 3183491634 3183491634 -2.00000000
38.14188385 -63.40353394 -1.72175157 23 31 15037 74.01200000 3183491637 3183491637 -1.33300000
2.98108244 -5.57136440 -2.94649458 14 0 15045 6.97200000 3183491657 3183491657 -25.00000000
38.26407242 -57.26622772 -1.20219159 28 1 15045 68.88400000 3183491657 3183491657 -1.00000000
38.75703812 -72.46368408 -2.39159107 28 2 15046 82.21200000 3183491660 3183491660 -1.66700000
3.53703976 -5.90061045 -1.92584634 110 3 15046 7.14400000 3183491660 3183491660 -15.63900000
7.19736481 -13.46249676 -3.05315399 3 4 15047 15.56800000 3183491662 3183491662 -11.31000000
37.65699768 -62.84555817 0.00000000 51 5 15047 73.26400000 3183491662 3183491662 0.00000000
36.76703262 -77.67596436 -1.00048125 29 6 15047 85.94400000 3183491664 3183491664 -0.66700000
9.54815960 -15.93487072 -2.89007616 3 7 15047 18.80000000 3183491664 3183491664 -8.84300000
11.05843067 -20.69321251 -2.98649597 5 8 15048 23.65200000 3183491667 3183491667 -7.25400000
38.71666718 -58.00931549 0.40534610 56 9 15048 69.74400000 3183491667 3183491667 0.33300000
37.01227951 -69.28872681 -0.45656070 28 10 15049 78.55600000 3183491669 3183491669 -0.33300000
13.46097279 -22.48274040 -2.82264972 3 11 15049 26.35600000 3183491669 3183491669 -6.14800000
14.11324883 -29.85680771 -3.08276892 4 12 15050 33.16800000 3183491671 3183491671 -5.33300000
38.38606262 -64.13843536 1.73933852 51 13 15050 74.76800000 3183491671 3183491671 1.33300000
38.55304718 -81.59645844 1.05063105 28 14 15051 90.25200000 3183491674 3183491674 0.66700000
19.71127892 -32.94819641 -2.68478727 10 15 15051 38.48800000 3183491674 3183491674 -4.00000000
16.81597137 -31.51999092 -2.91642809 6 16 15052 35.84400000 3183491676 3183491676 -4.66700000
41.94423294 -62.94030762 2.20122242 56 17 15052 75.66800000 3183491676 3183491676 1.66700000
37.67693329 -70.62194824 1.39716983 28 18 15052 80.05600000 3183491678 3183491678 1.00000000
19.88101006 -29.83287048 -2.29761076 13 19 15052 35.92400000 3183491678 3183491678 -3.66700000
19.70404243 -41.74077606 -2.68811584 10 20 15053 46.23600000 3183491681 3183491681 -3.33300000
40.32432175 -67.45716095 4.57693624 40 21 15053 78.72400000 3183491681 3183491681 3.33300000
39.89223099 -74.83721161 3.45507121 28 22 15054 84.87600000 3183491683 3183491683 2.33300000
19.83345604 -33.19185638 -1.80112672 13 23 15054 38.70800000 3183491683 3183491683 -2.66700000
19.72872734 -37.02635574 -2.19873810 20 24 15055 42.01200000 3183491685 3183491685 -3.00000000
63.10713959 -118.48764038 10.95914364 28 26 15056 134.69200000 3183491687 3183491687 4.66700000
38.38507080 -57.68675995 -2.82296848 28 27 15056 69.34800000 3183491687 3183491687 -2.33300000
38.62396240 -81.96867371 -3.16426754 28 28 15057 90.66800000 3183491690 3183491690 -2.00000000
37.90309525 -63.53260422 -1.72147238 46 31 15058 74.00000000 3183491692 3183491692 -1.33300000
2.97958779 -5.61324024 -2.96339917 13 0 15064 7.01200000 3183491713 3183491713 -25.00000000
38.25304413 -57.66275406 -1.20784616 28 1 15064 69.20800000 3183491713 3183491713 -1.00000000
38.53901672 -72.63418579 -2.39298725 28 2 15065 82.26000000 3183491715 3183491715 -1.66700000
7.15635777 -13.49322033 -3.05472302 3 4 15066 15.57600000 3183491717 3183491717 -11.31000000
37.62422180 -63.26575470 0.00000000 51 5 15066 73.60800000 3183491717 3183491717 0.00000000
37.50498581 -79.91927338 -1.02776790 29 6 15066 88.28800000 3183491720 3183491720 -0.66700000
9.50738621 -15.98682880 -2.89376545 2 7 15066 18.82400000 3183491720 3183491720 -8.84300000
11.04178905 -20.82793236 -3.00063801 5 8 15067 23.76400000 3183491722 3183491722 -7.25400000
38.66328430 -58.34745026 0.40681070 56 9 15067 69.99600000 3183491722 3183491722 0.33300000
37.83863449 -71.40445709 -0.46967238 28 10 15068 80.81200000 3183491724 3183491724 -0.33300000
13.39650154 -22.54434967 -2.82479167 3 11 15068 26.37600000 3183491724 3183491724 -6.14800000
14.04627323 -29.97196388 -3.08983254 4 12 15069 33.24400000 3183491727 3183491727 -5.33300000
38.08534241 -64.11753845 1.73533726 50 13 15069 74.59600000 3183491727 3183491727 1.33300000
38.51978683 -82.23094177 1.05715001 28 14 15070 90.81200000 3183491729 3183491729 0.66700000
19.70784378 -33.19179153 -2.69929647 10 15 15070 38.69600000 3183491729 3183491729 -4.00000000
16.76170731 -31.67072105 -2.92521548 6 16 15071 35.95200000 3183491731 3183491731 -4.66700000
43.74295425 -66.11346436 2.30711198 28 17 15071 79.30800000 3183491731 3183491731 1.66700000
37.44815063 -70.75710297 1.39737928 28 18 15071 80.06800000 3183491734 3183491734 1.00000000
19.87888718 -30.04511452 -2.30886722 20 19 15071 36.10000000 3183491734 3183491734 -3.66700000
19.71447182 -42.12416077 -2.70858073 10 20 15072 46.58800000 3183491736 3183491736 -3.33300000
40.67702103 -68.56242371 4.64274979 42 21 15072 79.85600000 3183491736 3183491736 3.33300000
40.02124405 -75.68276978 3.48796272 28 22 15073 85.68400000 3183491738 3183491738 2.33300000
19.83130074 -33.43959045 -1.81099129 13 23 15073 38.92000000 3183491738 3183491738 -2.66700000
19.73090363 -37.32818604 -2.21276426 21 24 15074 42.28000000 3183491740 3183491740 -3.00000000
63.03980255 -119.31312561 11.01609898 28 26 15075 135.39200000 3183491743 3183491743 4.66700000
38.32574463 -58.01381683 -2.83273816 28 27 15075 69.58800000 3183491743 3183491743 -2.33300000
38.59049988 -82.60697937 -3.18395090 28 28 15076 91.23200000 3183491745 3183491745 -2.00000000
38.20767212 -64.52851105 -1.74501467 24 31 15077 75.01200000 3183491747 3183491747 -1.33300000
2.98699212 -5.67493439 -2.99044681 22 0 15084 7.07600000 3183491768 3183491768 -25.00000000
38.28904724 -58.15669632 -1.21538556 28 1 15084 69.64000000 3183491768 3183491768 -1.00000000
38.14002991 -72.49227142 -2.38391113 28 2 15085 81.94800000 3183491770 3183491770 -1.66700000
5.48209572 -9.28820705 -3.01924396 6 3 15085 11.20000000 3183491770 3183491770 -15.63900000
37.68770981 -63.87901688 0.00000000 26 5 15086 74.16800000 3183491773 3183491773 0.00000000
37.79078293 -81.26467133 -1.04336703 29 6 15086 89.62800000 3183491775 3183491775 -0.66700000
9.46156597 -16.03693962 -2.89684010 2 7 15086 18.84400000 3183491775 3183491775 -8.84300000
10.97086525 -20.86985970 -3.00114322 5 8 15087 23.76800000 3183491777 3183491777 -7.25400000
38.56267548 -58.63912964 0.40790334 84 9 15087 70.18400000 3183491777 3183491777 0.33300000
37.59101486 -71.53964233 -0.46969563 28 10 15088 80.81600000 3183491780 3183491780 -0.33300000
13.35407925 -22.65264320 -2.83250284 3 11 15088 26.44800000 3183491780 3183491780 -6.14800000
14.00363350 -30.15446281 -3.10358834 4 12 15089 33.39200000 3183491782 3183491782 -5.33300000
37.84708786 -64.22596741 1.73468578 50 13 15089 74.56800000 3183491782 3183491782 1.33300000
38.31334686 -82.53903961 1.05938518 28 14 15090 91.00400000 3183491784 3183491784 0.66700000
19.70527458 -33.45291901 -2.71492195 10 15 15090 38.92000000 3183491784 3183491784 -4.00000000
16.69736862 -31.81729126 -2.93335199 6 16 15091 36.05200000 3183491787 3183491787 -4.66700000
43.37584686 -66.05853271 2.29989767 28 17 15091 79.06000000 3183491787 3183491787 1.66700000
37.17305756 -70.83427429 1.39633214 28 18 15091 80.00800000 3183491789 3183491789 1.00000000
19.87248611 -30.26447678 -2.32037950 14 19 15091 36.28000000 3183491789 3183491789 -3.66700000
19.67315292 -42.42094803 -2.72323179 10 20 15092 46.84000000 3183491791 3183491791 -3.33300000
40.57113266 -68.93112183 4.65809822 42 21 15092 80.12000000 3183491791 3183491791 3.33300000
39.75310516 -75.81493378 3.48763704 28 22 15093 85.67600000 3183491793 3183491793 2.33300000
19.82994461 -33.70491028 -1.82160044 13 23 15093 39.14800000 3183491793 3183491793 -2.66700000
19.72287178 -37.63034058 -2.22658086 21 24 15094 42.54400000 3183491796 3183491796 -3.00000000
38.22818756 -58.30767822 -2.84055400 28 27 15095 69.78000000 3183491798 3183491798 -2.33300000
38.32374573 -82.78834534 -3.18576574 28 28 15096 91.28400000 3183491800 3183491800 -2.00000000
38.22119141 -65.06835938 -1.75599492 24 31 15097 75.48400000 3183491803 3183491803 -1.33300000
2.97890592 -5.70782328 -3.00228024 14 0 15104 7.10400000 3183491823 3183491823 -25.00000000
38.18424988 -58.44065857 -1.21852696 28 1 15104 69.82000000 3183491823 3183491823 -1.00000000
38.18264008 -73.19215393 -2.40252900 28 2 15105 82.58800000 3183491826 3183491826 -1.66700000
5.44574785 -9.30063820 -3.01708746 6 3 15105 11.19200000 3183491826 3183491826 -15.63900000
7.01845837 -13.45938301 -3.03589559 28 4 15106 15.48000000 3183491828 3183491828 -11.31000000
37.51703644 -64.09993744 0.00000000 26 5 15106 74.27200000 3183491828 3183491828 0.00000000
37.60731888 -81.61404419 -1.04616082 29 6 15106 89.86800000 3183491830 3183491830 -0.66700000
9.42349720 -16.10056877 -2.90237427 2 7 15106 18.88000000 3183491830 3183491830 -8.84300000
10.90345097 -20.91858482 -3.00265837 5 8 15107 23.78000000 3183491833 3183491833 -7.25400000
38.48673248 -58.97101212 0.40927497 56 9 15107 70.42000000 3183491833 3183491833 0.33300000
37.33367157 -71.65623474 -0.46960261 28 10 15108 80.80000000 3183491835 3183491835 -0.33300000
13.27693272 -22.70255089 -2.83293104 3 11 15108 26.45200000 3183491835 3183491835 -6.14800000
13.91327286 -30.23572350 -3.10693431 4 12 15109 33.42800000 3183491837 3183491837 -5.33300000
37.73972321 -64.55792236 1.74008286 25 13 15109 74.80000000 3183491837 3183491837 1.33300000
37.94477463 -82.49785614 1.05715001 28 14 15110 90.81200000 3183491839 3183491839 0.66700000
19.70716095 -33.72476196 -2.73138452 10 15 15110 39.15600000 3183491839 3183491839 -4.00000000
16.63773155 -31.97440720 -2.94246483 6 16 15111 36.16400000 3183491842 3183491842 -4.66700000
41.42705154 -63.57321930 2.20832062 28 17 15111 75.91200000 3183491842 3183491842 1.66700000
39.93839645 -76.75364685 1.51026142 28 18 15111 86.53600000 3183491844 3183491844 1.00000000
19.86697197 -30.48750305 -2.33214784 14 19 15111 36.46400000 3183491844 3183491844 -3.66700000
19.67668724 -42.81954956 -2.74439430 10 20 15112 47.20400000 3183491846 3183491846 -3.33300000
40.49940491 -69.36199188 4.67763329 42 21 15112 80.45600000 3183491846 3183491846 3.33300000
42.28496933 -81.33261871 3.73464870 28 22 15113 91.74400000 3183491849 3183491849 2.33300000
19.82294846 -33.96372223 -1.83183730 13 23 15113 39.36800000 3183491849 3183491849 -2.66700000
19.71296883 -37.93289185 -2.24039769 21 24 15114 42.80800000 3183491851 3183491851 -3.00000000
60.35833740 -116.19474792 10.68901348 28 26 15115 131.37200000 3183491853 3183491853 4.66700000
38.14866638 -58.63171387 -2.84983540 28 27 15115 70.00800000 3183491853 3183491853 -2.33300000
38.27285767 -83.44121552 -3.20572805 28 28 15116 91.85600000 3183491856 3183491856 -2.00000000
38.19918823 -65.55380249 -1.76548624 24 31 15117 75.89200000 3183491858 3183491858 -1.33300000
2.92897439 -5.66023254 -2.97185159 14 0 15124 7.03200000 3183491879 3183491879 -25.00000000
38.20413971 -58.91922760 -1.22571743 28 1 15124 70.23200000 3183491879 3183491879 -1.00000000
37.86630249 -73.20779419 -2.39868903 28 2 15125 82.45600000 3183491881 3183491881 -1.66700000
5.42292261 -9.33624554 -3.02247906 6 3 15125 11.21200000 3183491881 3183491881 -15.63900000
6.98584461 -13.51167297 -3.04217148 15 4 15126 15.51200000 3183491883 3183491883 -11.31000000
37.74496078 -65.00882721 0.00000000 53 5 15126 75.17200000 3183491883 3183491883 0.00000000
37.66441345 -82.49433899 -1.05575311 29 6 15126 90.69200000 3183491886 3183491886 -0.66700000
9.37914658 -16.15387344 -2.90606380 2 7 15126 18.90400000 3183491886 3183491886 -8.84300000
10.84129524 -20.97766876 -3.00568891 5 8 15127 23.80400000 3183491888 3183491888 -7.25400000
38.46765137 -59.39372253 0.41127425 56 9 15127 70.76400000 3183491888 3183491888 0.33300000
37.08148193 -71.78256226 -0.46957937 28 10 15128 80.79600000 3183491890 3183491890 -0.33300000
13.25548077 -22.84851837 -2.84535432 3 11 15128 26.56800000 3183491890 3183491890 -6.14800000
13.85721302 -30.39282036 -3.11808753 4 12 15129 33.54800000 3183491892 3183491892 -5.33300000
37.82508850 -65.22546387 1.75450599 25 13 15129 75.42000000 3183491892 3183491892 1.33300000
37.63666534 -82.58612823 1.05659127 28 14 15130 90.76400000 3183491895 3183491895 0.66700000
19.69938278 -33.98321915 -2.74673080 11 15 15130 39.37600000 3183491895 3183491895 -4.00000000
16.58633804 -32.14920807 -2.95320487 7 16 15131 36.29600000 3183491897 3183491897 -4.66700000
41.16146469 -63.65029144 2.20599341 28 17 15131 75.83200000 3183491897 3183491897 1.66700000
39.50886917 -76.57981873 1.50411820 28 18 15131 86.18400000 3183491899 3183491899 1.00000000
19.85797501 -30.70750427 -2.34366012 14 19 15131 36.64400000 3183491899 3183491899 -3.66700000
19.68760490 -43.24049759 -2.76695228 10 20 15132 47.59200000 3183491902 3183491902 -3.33300000
40.37312317 -69.70335388 4.69112110 42 21 15132 80.68800000 3183491902 3183491902 3.33300000
39.91138840 -77.42634583 3.54886079 28 22 15133 87.18000000 3183491904 3183491904 2.33300000
19.81838989 -34.22981262 -1.84244633 13 23 15133 39.59600000 3183491904 3183491904 -2.66700000
19.71033859 -38.25358582 -2.25526094 21 24 15134 43.09200000 3183491906 3183491906 -3.00000000
59.95237350 -116.40472412 10.68901348 28 26 15135 131.37200000 3183491909 3183491909 4.66700000
38.22343826 -59.19765091 -2.87084031 28 27 15135 70.52400000 3183491909 3183491909 -2.33300000
38.41469574 -84.52781677 -3.24230289 28 28 15136 92.90400000 3183491911 3183491911 -2.00000000
38.56213760 -66.68402863 -1.79247153 25 31 15136 77.05200000 3183491913 3183491913 -1.33300000
2.90257931 -5.65751982 -2.96508980 16 0 15144 7.01600000 3183491934 3183491934 -25.00000000
38.33584595 -59.57689285 -1.23660767 28 1 15144 70.85600000 3183491934 3183491934 -1.00000000
37.88785553 -73.88031006 -2.41637611 28 2 15145 83.06400000 3183491936 3183491936 -1.66700000
5.39606905 -9.36513042 -3.02571392 6 3 15145 11.22400000 3183491936 3183491936 -15.63900000
37.43395996 -64.99460602 0.00000000 26 5 15146 75.00400000 3183491939 3183491939 0.00000000
37.92372131 -83.87461090 -1.07163155 29 6 15147 92.05600000 3183491941 3183491941 -0.66700000
9.33368015 -16.21211815 -2.91036820 2 7 15147 18.93200000 3183491941 3183491941 -8.84300000
10.78067017 -21.04010391 -3.00922441 2 8 15147 23.83200000 3183491943 3183491943 -7.25400000
38.68181992 -60.18378448 0.41580755 56 9 15147 71.54400000 3183491943 3183491943 0.33300000
36.89997864 -72.04685211 -0.47046280 28 10 15148 80.94800000 3183491945 3183491945 -0.33300000
13.18754578 -22.91533089 -2.84792471 3 11 15148 26.59200000 3183491945 3183491945 -6.14800000
13.78710842 -30.52085495 -3.12626672 4 12 15149 33.63600000 3183491948 3183491948 -5.33300000
37.78461456 -65.68292999 1.76325297 26 13 15149 75.79600000 3183491948 3183491948 1.33300000
44.41585159 -98.37020111 1.25653851 28 14 15150 107.94000000 3183491950 3183491950 0.66700000
19.68009377 -34.22473145 -2.76068211 11 15 15150 39.57600000 3183491950 3183491950 -4.00000000
16.49761772 -32.25305176 -2.95743585 7 16 15151 36.34800000 3183491952 3183491952 -4.66700000
41.04268646 -63.95510483 2.21157885 28 17 15151 76.02400000 3183491952 3183491952 1.66700000
39.25159073 -76.77040863 1.50502574 28 18 15152 86.23600000 3183491955 3183491955 1.00000000
19.84228325 -30.93127823 -2.35517240 21 19 15152 36.82400000 3183491955 3183491955 -3.66700000
19.64656067 -43.55283737 -2.78253365 10 20 15152 47.86000000 3183491957 3183491957 -3.33300000
39.42930603 -68.62509155 4.60926151 41 21 15152 79.28000000 3183491957 3183491957 3.33300000
39.76637650 -77.81075287 3.56009603 28 22 15153 87.45600000 3183491959 3183491959 2.33300000
19.80624390 -34.48588562 -1.85249710 13 23 15153 39.81200000 3183491959 3183491959 -2.66700000
19.69480705 -38.55337524 -2.26886845 22 24 15154 43.35200000 3183491962 3183491962 -3.00000000
59.42058182 -116.36829376 10.66655731 28 26 15155 131.09600000 3183491964 3183491964 4.66700000
38.35725021 -59.86240387 -2.89656734 28 27 15155 71.15600000 3183491964 3183491964 -2.33300000
38.31471252 -85.09516144 -3.25891495 28 28 15156 93.38000000 3183491966 3183491966 -2.00000000
38.73504639 -67.52584839 -1.81145418 26 31 15156 77.86800000 3183491969 3183491969 -1.33300000
2.90417957 -5.70962381 -2.98706579 17 0 15164 7.06800000 3183491989 3183491989 -25.00000000
38.34719849 -60.05416870 -1.24372828 28 1 15164 71.26400000 3183491989 3183491989 -1.00000000
37.85986710 -74.46475220 -2.43115401 28 2 15165 83.57200000 3183491992 3183491992 -1.66700000
5.37099171 -9.39728642 -3.03002715 6 3 15165 11.24000000 3183491992 3183491992 -15.63900000
6.90911627 -13.59508038 -3.05001616 1 4 15166 15.55200000 3183491994 3183491994 -11.31000000
37.20487213 -65.12140656 0.00000000 26 5 15166 75.00000000 3183491994 3183491994 0.00000000
37.87107468 -84.54306030 -1.07847655 29 6 15167 92.64400000 3183491996 3183491996 -0.66700000
9.28291321 -16.25489616 -2.91221285 2 7 15167 18.94400000 3183491996 3183491996 -8.84300000
10.71973991 -21.10237122 -3.01275992 5 8 15167 23.86000000 3183491998 3183491998 -7.25400000
38.52097321 -60.39600754 0.41634226 56 9 15167 71.63600000 3183491998 3183491998 0.33300000
36.68085861 -72.23941803 -0.47088125 28 10 15168 81.02000000 3183492001 3183492001 -0.33300000
13.13113594 -23.00267220 -2.85306549 3 11 15168 26.64000000 3183492001 3183492001 -6.14800000
13.72441196 -30.66694641 -3.13630462 4 12 15169 33.74400000 3183492003 3183492003 -5.33300000
37.50159836 -65.72064209 1.76074052 26 13 15169 75.68800000 3183492003 3183492003 1.33300000
44.09670258 -98.57941437 1.25723696 28 14 15170 108.00000000 3183492005 3183492005 0.66700000
19.77402496 -34.66755676 -2.79081702 11 15 15170 40.00800000 3183492005 3183492005 -4.00000000
16.42099571 -32.38155365 -2.96394491 7 16 15171 36.42800000 3183492008 3183492008 -4.66700000
40.72684097 -63.95296097 2.20657516 28 17 15171 75.85200000 3183492008 3183492008 1.66700000
39.18672562 -77.27467346 1.51235569 28 18 15171 86.65600000 3183492010 3183492010 1.00000000
19.83823586 -31.15179062 -2.36694074 21 19 15171 37.00800000 3183492010 3183492010 -3.66700000
19.63779068 -43.94197845 -2.80299854 10 20 15172 48.21200000 3183492012 3183492012 -3.33300000
39.20138550 -68.78311920 4.61065674 82 21 15172 79.30400000 3183492012 3183492012 3.33300000
39.53426361 -78.02751923 3.56367826 28 22 15173 87.54400000 3183492015 3183492015 2.33300000
19.79848289 -34.75270462 -1.86310625 13 23 15173 40.04000000 3183492015 3183492015 -2.66700000
19.69185829 -38.88202667 -2.28415036 22 24 15174 43.64400000 3183492017 3183492017 -3.00000000
59.04642868 -116.63903046 10.67241478 28 26 15175 131.16800000 3183492019 3183492019 4.66700000
38.18236923 -60.04989243 -2.89917254 28 27 15175 71.22000000 3183492019 3183492019 -2.33300000
38.35942841 -85.99505615 -3.28823066 28 28 15176 94.22000000 3183492022 3183492022 -2.00000000
38.73641968 -68.07772827 -1.82262051 26 31 15176 78.34800000 3183492024 3183492024 -1.33300000
2.89402509 -5.73914814 -2.99720860 13 0 15184 7.09200000 3183492045 3183492045 -25.00000000
38.36424255 -60.54576111 -1.25112808 28 1 15184 71.68800000 3183492045 3183492045 -1.00000000
38.05321503 -75.49619293 -2.46047735 28 2 15185 84.58000000 3183492047 3183492047 -1.66700000
5.34385538 -9.42603016 -3.03326201 6 3 15185 11.25200000 3183492047 3183492047 -15.63900000
6.89515018 -13.68566990 -3.06492090 3 4 15186 15.62800000 3183492050 3183492050 -11.31000000
37.27314758 -65.77288818 0.00000000 26 5 15186 75.60000000 3183492050 3183492050 0.00000000
37.73658371 -84.99719238 -1.08266735 29 6 15186 93.00400000 3183492052 3183492052 -0.66700000
9.24454784 -16.31310081 -2.91713214 2 7 15186 18.97600000 3183492052 3183492052 -8.84300000
10.69063282 -21.22826004 -3.02538657 5 8 15187 23.96000000 3183492054 3183492054 -7.25400000
38.57944870 -60.95596695 0.41927144 56 9 15187 72.14000000 3183492054 3183492054 0.33300000
36.50221252 -72.51350403 -0.47183439 28 10 15188 81.18400000 3183492057 3183492057 -0.33300000
13.07035732 -23.08297539 -2.85734916 3 11 15188 26.68000000 3183492057 3183492057 -6.14800000
13.64149380 -30.76928139 -3.14188123 4 12 15189 33.80400000 3183492059 3183492059 -5.33300000
39.22400284 -69.29996490 1.85295570 28 13 15189 79.65200000 3183492059 3183492059 1.33300000
42.67796326 -96.30829620 1.22636485 28 14 15190 105.34800000 3183492061 3183492061 0.66700000
19.73541641 -34.88223267 -2.80253601 11 15 15190 40.17600000 3183492061 3183492061 -4.00000000
16.36516380 -32.55266190 -2.97435975 7 16 15191 36.55600000 3183492063 3183492063 -4.66700000
40.50976181 -64.10487366 2.20692420 28 17 15191 75.86400000 3183492063 3183492063 1.66700000
41.32569122 -82.20272827 1.60597038 28 18 15191 92.02000000 3183492066 3183492066 1.00000000
19.83173180 -31.38282394 -2.37922049 22 19 15191 37.20000000 3183492066 3183492066 -3.66700000
19.64432335 -44.37174606 -2.82602143 10 20 15192 48.60800000 3183492068 3183492068 -3.33300000
39.04751587 -69.07249451 4.62088919 83 21 15192 79.48000000 3183492068 3183492068 3.33300000
39.92002487 -79.47577667 3.62343645 28 22 15193 89.01200000 3183492070 3183492070 2.33300000
19.79303169 -35.02684402 -1.87408757 13 23 15193 40.27600000 3183492070 3183492070 -2.66700000
19.68326950 -39.20398712 -2.29901385 22 24 15194 43.92800000 3183492073 3183492073 -3.00000000
58.73012161 -117.02615356 10.68901348 28 26 15195 131.37200000 3183492075 3183492075 4.66700000
38.05143356 -60.30787277 -2.90519714 28 27 15195 71.36800000 3183492075 3183492075 -2.33300000
38.37893295 -86.85241699 -3.31587100 28 28 15196 95.01200000 3183492077 3183492077 -2.00000000
38.69903183 -68.56774902 -1.83211184 27 31 15196 78.75600000 3183492080 3183492080 -1.33300000
2.89180470 -5.78488445 -3.01580381 13 0 15204 7.13600000 3183492100 3183492100 -25.00000000
38.15479279 -60.68269348 -1.25119793 28 1 15204 71.69200000 3183492100 3183492100 -1.00000000
37.95208359 -75.95404053 -2.47106624 28 2 15205 84.94400000 3183492103 3183492103 -1.66700000
5.31469584 -9.45134068 -3.03541851 7 3 15205 11.26000000 3183492103 3183492103 -15.63900000
6.85084152 -13.71667290 -3.06648993 3 4 15206 15.63600000 3183492105 3183492105 -11.31000000
37.13740921 -66.06996155 0.00000000 26 5 15206 75.79200000 3183492105 3183492105 0.00000000
37.61839294 -85.53479767 -1.08783591 29 6 15206 93.44800000 3183492107 3183492107 -0.66700000
9.20304203 -16.37283325 -2.92205143 2 7 15206 19.00800000 3183492107 3183492107 -8.84300000
10.62532902 -21.28319931 -3.02791190 5 8 15207 23.98000000 3183492110 3183492110 -7.25400000
38.50258636 -61.30705261 0.42075929 56 9 15207 72.39600000 3183492110 3183492110 0.33300000
37.75447845 -75.65761566 -0.49143216 28 10 15208 84.55600000 3183492112 3183492112 -0.33300000
13.04228497 -23.22208214 -2.86891580 3 11 15208 26.78800000 3183492112 3183492112 -6.14800000
13.58845615 -30.94069290 -3.15452170 4 12 15209 33.94000000 3183492114 3183492114 -5.33300000
39.20111465 -69.82700348 1.86337757 28 13 15209 80.10000000 3183492114 3183492114 1.33300000
42.30455017 -96.37245178 1.22529387 28 14 15210 105.25600000 3183492116 3183492116 0.66700000
19.64868546 -35.01354599 -2.80755854 5 15 15210 40.24800000 3183492116 3183492116 -4.00000000
16.31723022 -32.74161148 -2.98640156 7 16 15211 36.70400000 3183492119 3183492119 -4.66700000
40.39407730 -64.41864777 2.21285868 28 17 15211 76.06800000 3183492119 3183492119 1.66700000
40.00562286 -80.27394867 1.56555068 28 18 15211 89.70400000 3183492121 3183492121 1.00000000
19.83234024 -31.62771988 -2.39252353 22 19 15211 37.40800000 3183492121 3183492121 -3.66700000
19.64167786 -44.78746414 -2.84811425 10 20 15212 48.98800000 3183492123 3183492123 -3.33300000
38.99756241 -69.54971313 4.64368010 42 21 15212 79.87200000 3183492123 3183492123 3.33300000
40.34068298 -81.01709747 3.68726540 28 22 15213 90.58000000 3183492126 3183492126 2.33300000
19.78785896 -35.30485153 -1.88525498 14 23 15213 40.51600000 3183492126 3183492126 -2.66700000
19.68335152 -39.54781342 -2.31513333 22 24 15214 44.23600000 3183492128 3183492128 -3.00000000
58.50949478 -117.60880280 10.72351170 28 26 15215 131.79600000 3183492130 3183492130 4.66700000
38.17578888 -60.97555923 -2.93092418 28 27 15215 72.00000000 3183492130 3183492130 -2.33300000
38.31436920 -87.53150940 -3.33667111 28 28 15216 95.60800000 3183492133 3183492133 -2.00000000
38.59813690 -68.95015717 -1.83871865 27 31 15216 79.04000000 3183492135 3183492135 -1.33300000
2.87159419 -5.79494333 -3.01580381 14 0 15224 7.13600000 3183492156 3183492156 -25.00000000
38.21159363 -61.24643707 -1.26006377 28 1 15224 72.20000000 3183492156 3183492156 -1.00000000
37.94404984 -76.60557556 -2.48793888 28 2 15225 85.52400000 3183492158 3183492158 -1.66700000
5.28167200 -9.46983528 -3.03541851 8 3 15225 11.26000000 3183492158 3183492158 -15.63900000
6.80988073 -13.75456333 -3.06962776 3 4 15226 15.65200000 3183492160 3183492160 -11.31000000
36.81111526 -66.02799988 0.00000000 26 5 15226 75.59600000 3183492160 3183492160 0.00000000
37.38828278 -85.82326508 -1.08983815 29 6 15226 93.62000000 3183492163 3183492163 -0.66700000
9.16508007 -16.43938065 -2.92820048 2 7 15226 19.04800000 3183492163 3183492163 -8.84300000
10.56153202 -21.34149551 -3.03094244 5 8 15227 24.00400000 3183492165 3183492165 -7.25400000
38.49355316 -61.77036667 0.42301431 56 9 15227 72.78400000 3183492165 3183492165 0.33300000
37.67637253 -76.16539764 -0.49387318 28 10 15228 84.97600000 3183492167 3183492167 -0.33300000
12.97469330 -23.29178619 -2.87191439 3 11 15228 26.81600000 3183492167 3183492167 -6.14800000
13.51849937 -31.07558632 -3.16344428 4 12 15229 34.03600000 3183492169 3183492169 -5.33300000
38.13811111 -68.49252319 1.82420242 27 13 15229 78.41600000 3183492169 3183492169 1.33300000
41.90568924 -96.37648010 1.22347784 28 14 15230 105.10000000 3183492172 3183492172 0.66700000
19.60785103 -35.22835541 -2.81927752 5 15 15230 40.41600000 3183492172 3183492172 -4.00000000
16.22226524 -32.83768463 -2.98998165 7 16 15231 36.74800000 3183492174 3183492174 -4.66700000
39.94718170 -64.20280457 2.20064068 28 17 15231 75.64800000 3183492174 3183492174 1.66700000
40.91525269 -82.85852814 1.61302125 28 18 15232 92.42400000 3183492176 3183492176 1.00000000
19.82802200 -31.87984848 -2.40608263 22 19 15232 37.62000000 3183492176 3183492176 -3.66700000
19.60136604 -45.12312317 -2.86509085 10 20 15232 49.28000000 3183492179 3183492179 -3.33300000
39.37950134 -70.80915070 4.71856308 41 21 15232 81.16000000 3183492179 3183492179 3.33300000
39.46857834 -79.96398163 3.63304329 28 22 15233 89.24800000 3183492181 3183492181 2.33300000
19.78875160 -35.59721756 -1.89716697 14 23 15233 40.77200000 3183492181 3183492181 -2.66700000
19.67773628 -39.88494873 -2.33083415 23 24 15234 44.53600000 3183492183 3183492183 -3.00000000
58.27493668 -118.16988373 10.75605774 28 26 15235 132.19600000 3183492186 3183492186 4.66700000
38.27484894 -61.61089325 -2.95502281 28 27 15235 72.59200000 3183492186 3183492186 -2.33300000
38.18510437 -88.07183075 -3.35216641 28 28 15236 96.05200000 3183492188 3183492188 -2.00000000
38.32616425 -69.02853394 -1.83722973 27 31 15236 78.97600000 3183492190 3183492190 -1.33300000
2.86733150 -5.83747053 -3.03270864 16 0 15244 7.17600000 3183492211 3183492211 -25.00000000
37.99546814 -61.37604904 -1.25999391 28 1 15244 72.19600000 3183492211 3183492211 -1.00000000
37.70637131 -76.79856873 -2.48991704 28 2 15245 85.59200000 3183492213 3183492213 -1.66700000
5.25604200 -9.50169659 -3.03973174 6 3 15245 11.27600000 3183492213 3183492213 -15.63900000
6.77046728 -13.79585648 -3.07355022 3 4 15246 15.67200000 3183492215 3183492215 -11.31000000
36.60363770 -66.19809723 0.00000000 26 5 15246 75.64400000 3183492215 3183492215 0.00000000
37.61678696 -87.21945953 -1.10580981 29 6 15247 94.99200000 3183492218 3183492218 -0.66700000
9.11241341 -16.48670006 -2.93066001 2 7 15247 19.06400000 3183492218 3183492218 -8.84300000
10.50619507 -21.41741943 -3.03649831 5 8 15247 24.04800000 3183492220 3183492220 -7.25400000
38.38708878 -62.08126450 0.42422321 56 9 15247 72.99200000 3183492220 3183492220 0.33300000
37.50536728 -76.49038696 -0.49512854 28 10 15248 85.19200000 3183492222 3183492222 -0.33300000
12.91254234 -23.37174416 -2.87619829 3 11 15248 26.85600000 3183492222 3183492222 -6.14800000
13.45249367 -31.22134209 -3.17348218 4 12 15249 34.14400000 3183492225 3183492225 -5.33300000
37.83306503 -68.50621796 1.82103860 27 13 15249 78.28000000 3183492225 3183492225 1.33300000
41.04534912 -95.30623627 1.20806503 28 14 15250 103.77600000 3183492227 3183492227 0.66700000
19.51947212 -35.35946274 -2.82430005 5 15 15250 40.48800000 3183492227 3183492227 -4.00000000
16.18468666 -33.05165482 -3.00430179 7 16 15251 36.92400000 3183492229 3183492229 -4.66700000
39.51278687 -64.00163269 2.18900442 28 17 15251 75.24800000 3183492229 3183492229 1.66700000
40.83197784 -83.38526917 1.62063050 28 18 15251 92.86000000 3183492232 3183492232 1.00000000
19.82494736 -32.11186218 -2.41861820 22 19 15251 37.81600000 3183492232 3183492232 -3.66700000
19.58735657 -45.52506638 -2.88625360 10 20 15252 49.64400000 3183492234 3183492234 -3.33300000
40.45706558 -73.34835052 4.87832880 39 21 15252 83.90800000 3183492234 3183492234 3.33300000
39.11017227 -79.93971252 3.62571597 28 22 15253 89.06800000 3183492236 3183492236 2.33300000
19.78205490 -35.87952042 -1.90852058 15 23 15253 41.01600000 3183492236 3183492236 -2.66700000
19.66473961 -40.21176147 -2.34590697 23 24 15254 44.82400000 3183492239 3183492239 -3.00000000
58.34356308 -119.35755920 10.84555912 28 26 15255 133.29600000 3183492241 3183492241 4.66700000
38.25039673 -62.05373001 -2.96984029 28 27 15255 72.95600000 3183492241 3183492241 -2.33300000
38.18503189 -88.92086029 -3.37938809 28 28 15256 96.83200000 3183492243 3183492243 -2.00000000
38.58005524 -70.08990479 -1.86170256 28 31 15257 80.02800000 3183492245 3183492245 -1.33300000
2.85272026 -5.85672474 -3.03778005 16 0 15263 7.18800000 3183492266 3183492266 -25.00000000
38.00739288 -61.85268021 -1.26718438 28 1 15263 72.60800000 3183492266 3183492266 -1.00000000
38.22859192 -78.51931000 -2.54158187 28 2 15264 87.36800000 3183492268 3183492268 -1.66700000
5.23191738 -9.53258038 -3.04404497 6 3 15264 11.29200000 3183492268 3183492268 -15.63900000
6.73154640 -13.83233929 -3.07668805 5 4 15265 15.68800000 3183492271 3183492271 -11.31000000
36.57053757 -66.65928650 0.00000000 26 5 15265 76.03200000 3183492271 3183492271 0.00000000
37.50967789 -87.77036285 -1.11121118 29 6 15266 95.45600000 3183492273 3183492273 -0.66700000
9.06529331 -16.53068924 -2.93311977 2 7 15266 19.08000000 3183492273 3183492273 -8.84300000
10.44726372 -21.47711945 -3.04003382 5 8 15266 24.07600000 3183492275 3183492275 -7.25400000
38.29817963 -62.39912415 0.42552507 56 9 15266 73.21600000 3183492275 3183492275 0.33300000
37.26725006 -76.64671326 -0.49533778 28 10 15267 85.22800000 3183492278 3183492278 -0.33300000
12.88084888 -23.49813271 -2.88647962 3 11 15267 26.95200000 3183492278 3183492278 -6.14800000
13.37234402 -31.32072258 -3.17905903 4 12 15268 34.20400000 3183492280 3183492280 -5.33300000
37.70175934 -68.80664825 1.82569122 27 13 15268 78.48000000 3183492280 3183492280 1.33300000
41.51244736 -97.27752686 1.23130059 28 14 15269 105.77200000 3183492282 3183492282 0.66700000
19.47686577 -35.56048584 -2.83518219 5 15 15269 40.64400000 3183492282 3183492282 -4.00000000
16.09066582 -33.13742065 -3.00723100 7 16 15270 36.96000000 3183492285 3183492285 -4.66700000
39.31286621 -64.15277100 2.18970275 28 17 15270 75.27200000 3183492285 3183492285 1.66700000
39.23105621 -80.79316711 1.56771481 28 18 15270 89.82800000 3183492287 3183492287 1.00000000
19.82055283 -32.34420013 -2.43115401 22 19 15270 38.01200000 3183492287 3183492287 -3.66700000
19.58818817 -45.94608307 -2.90881157 10 20 15271 50.03200000 3183492289 3183492289 -3.33300000
40.30754471 -73.65375519 4.88972425 39 21 15271 84.10400000 3183492289 3183492289 3.33300000
39.41880798 -81.25199890 3.67928696 28 22 15272 90.38400000 3183492292 3183492292 2.33300000
19.78377342 -36.16576767 -1.92024636 15 23 15272 41.26800000 3183492292 3183492292 -2.66700000
19.66374779 -40.54991150 -2.36181712 23 24 15273 45.12800000 3183492294 3183492294 -3.00000000
58.03264236 -119.72616577 10.86150646 28 26 15274 133.49200000 3183492296 3183492296 4.66700000
38.15704727 -62.36432648 -2.97863317 28 27 15274 73.17200000 3183492296 3183492296 -2.33300000
37.90403748 -89.08010101 -3.38064456 28 28 15275 96.86800000 3183492298 3183492298 -2.00000000
37.17285156 -68.03849792 -1.80410302 26 31 15275 77.55200000 3183492301 3183492301 -1.33300000
2.82280254 -5.84705877 -3.02763724 14 0 15283 7.16400000 3183492321 3183492321 -25.00000000
38.13685608 -62.55182648 -1.27877271 28 1 15283 73.27200000 3183492321 3183492321 -1.00000000
37.97512817 -78.69548798 -2.54297805 28 2 15284 87.41600000 3183492324 3183492324 -1.66700000
5.20229387 -9.55755138 -3.04620171 6 3 15284 11.30000000 3183492324 3183492324 -15.63900000
6.69514990 -13.88048267 -3.08217931 5 4 15285 15.71600000 3183492326 3183492326 -11.31000000
36.25733948 -66.63896942 0.00000000 53 5 15285 75.86400000 3183492326 3183492326 0.00000000
37.63795090 -88.88503265 -1.12373710 29 6 15285 96.53200000 3183492328 3183492328 -0.66700000
9.02742672 -16.59190559 -2.93865395 2 7 15285 19.11600000 3183492328 3183492328 -8.84300000
10.41875935 -21.60996056 -3.05367064 5 8 15286 24.18400000 3183492331 3183492331 -7.25400000
38.17375183 -62.68616486 0.42657122 28 9 15286 73.39600000 3183492331 3183492331 0.33300000
36.93001938 -76.63220215 -0.49440786 28 10 15287 85.06800000 3183492333 3183492333 -0.33300000
12.80444431 -23.55343437 -2.88776493 3 11 15287 26.96400000 3183492333 3183492333 -6.14800000
13.30636215 -31.46992111 -3.18946862 4 12 15288 34.31600000 3183492335 3183492335 -5.33300000
37.24941254 -68.54781342 1.81536245 27 13 15288 78.03600000 3183492335 3183492335 1.33300000
40.39878845 -95.59078217 1.20815814 28 14 15289 103.78400000 3183492338 3183492338 0.66700000
19.42880058 -35.76851273 -2.84634304 5 15 15289 40.80400000 3183492338 3183492338 -4.00000000
16.03022194 -33.30834198 -3.01764560 7 16 15290 37.08800000 3183492340 3183492340 -4.66700000
39.07622910 -64.26910400 2.18900442 28 17 15290 75.24800000 3183492340 3183492340 1.66700000
38.88288879 -80.79267883 1.56506205 28 18 15290 89.67600000 3183492342 3183492342 1.00000000
19.82158852 -32.60078812 -2.44522476 23 19 15290 38.23200000 3183492342 3183492342 -3.66700000
19.58922195 -46.39677429 -2.93299723 11 20 15291 50.44800000 3183492345 3183492345 -3.33300000
40.06353378 -73.81857300 4.89135218 39 21 15291 84.13200000 3183492345 3183492345 3.33300000
39.21981049 -81.56559753 3.68726540 28 22 15292 90.58000000 3183492347 3183492347 2.33300000
19.76982689 -36.44182205 -1.93122780 15 23 15292 41.50400000 3183492347 3183492347 -2.66700000
19.65878105 -40.90272522 -2.37835526 24 24 15293 45.44400000 3183492349 3183492349 -3.00000000
58.65019226 -122.08414459 11.05678082 28 26 15294 135.89200000 3183492351 3183492351 4.66700000
38.05733871 -62.69187546 -2.98791432 28 27 15294 73.40000000 3183492351 3183492351 -2.33300000
37.90487671 -89.95232391 -3.40870357 28 28 15295 97.67200000 3183492354 3183492354 -2.00000000
38.06208420 -70.27703857 -1.85974848 28 31 15296 79.94400000 3183492356 3183492356 -1.33300000
2.80706930 -5.86668682 -3.03270864 11 0 15303 7.17600000 3183492377 3183492377 -25.00000000
38.20807648 -63.16365051 -1.28854609 28 1 15303 73.83200000 3183492377 3183492377 -1.00000000
38.01243973 -79.48043823 -2.56403971 28 2 15304 88.14000000 3183492379 3183492379 -1.66700000
5.17438889 -9.58582211 -3.04943657 6 3 15304 11.31200000 3183492379 3183492379 -15.63900000
6.65173244 -13.91438484 -3.08453274 5 4 15305 15.72800000 3183492381 3183492381 -11.31000000
36.01500702 -66.74752045 0.00000000 26 5 15305 75.84400000 3183492381 3183492381 0.00000000
37.48986053 -89.40316772 -1.12862635 29 6 15305 96.95200000 3183492384 3183492384 -0.66700000
8.98259258 -16.64766502 -2.94295835 2 7 15305 19.14400000 3183492384 3183492384 -8.84300000
10.35523796 -21.67125893 -3.05720615 5 8 15306 24.21200000 3183492386 3183492386 -7.25400000
38.11811447 -63.08949661 0.42840779 28 9 15306 73.71200000 3183492386 3183492386 0.33300000
37.39840317 -78.30184937 -0.50433463 28 10 15307 86.77600000 3183492388 3183492388 -0.33300000
12.73724842 -23.62599373 -2.89119196 3 11 15307 26.99600000 3183492388 3183492388 -6.14800000
13.27487946 -31.70353127 -3.20842934 5 12 15308 34.52000000 3183492391 3183492391 -5.33300000
37.60938263 -69.78983307 1.84476697 28 13 15308 79.30000000 3183492391 3183492391 1.33300000
40.06177902 -95.72383881 1.20806503 28 14 15309 103.77600000 3183492393 3183492393 0.66700000
19.33978271 -35.90285873 -2.85164475 5 15 15309 40.88000000 3183492393 3183492393 -4.00000000
16.01855278 -33.58359528 -3.03749847 7 16 15310 37.33200000 3183492395 3183492395 -4.66700000
38.84338760 -64.39141846 2.18853903 28 17 15310 75.23200000 3183492395 3183492395 1.66700000
37.90331268 -79.46594238 1.53678906 28 18 15310 88.05600000 3183492398 3183492398 1.00000000
19.80458069 -32.83042526 -2.45724869 15 19 15310 38.42000000 3183492398 3183492398 -3.66700000
19.57656479 -46.82223511 -2.95555520 12 20 15311 50.83600000 3183492400 3183492400 -3.33300000
39.88131714 -74.09861755 4.90065432 78 21 15311 84.29200000 3183492400 3183492400 3.33300000
39.38704681 -82.65089417 3.73008943 28 22 15312 91.63200000 3183492402 3183492402 2.33300000
19.76176453 -36.73228836 -1.94295359 15 23 15312 41.75600000 3183492402 3183492402 -2.66700000
19.64987183 -41.25238800 -2.39468408 24 24 15313 45.75600000 3183492404 3183492404 -3.00000000
57.30507278 -120.35875702 10.88233566 28 26 15314 133.74800000 3183492407 3183492407 4.66700000
38.13932800 -63.32419586 -3.01168752 28 27 15314 73.98400000 3183492407 3183492407 -2.33300000
37.66916656 -90.27223969 -3.41582322 28 28 15315 97.87600000 3183492409 3183492409 -2.00000000
38.38229370 -71.46282959 -1.88757122 28 31 15316 81.14000000 3183492411 3183492411 -1.33300000
2.78036070 -5.86334705 -3.02594686 14 0 15323 7.16000000 3183492432 3183492432 -25.00000000
37.99971008 -63.31721115 -1.28896499 28 1 15323 73.85600000 3183492432 3183492432 -1.00000000
37.90088272 -79.96310425 -2.57532668 28 2 15324 88.52800000 3183492434 3183492434 -1.66700000
5.14271450 -9.60722160 -3.05051470 6 3 15324 11.31600000 3183492434 3183492434 -15.63900000
6.59976292 -13.93042946 -3.08296371 3 4 15325 15.72000000 3183492437 3183492437 -11.31000000
36.51399994 -68.24124908 0.00000000 27 5 15325 77.39600000 3183492437 3183492437 0.00000000
37.50886917 -90.33137512 -1.13868415 29 6 15325 97.81600000 3183492439 3183492439 -0.66700000
8.93934441 -16.70679855 -2.94787765 2 7 15325 19.17600000 3183492439 3183492439 -8.84300000
10.28632069 -21.72161865 -3.05922651 5 8 15326 24.22800000 3183492441 3183492441 -7.25400000
38.59482193 -64.38520050 0.43628874 28 9 15326 75.06800000 3183492441 3183492441 0.33300000
37.13854218 -78.46083832 -0.50452060 28 10 15327 86.80800000 3183492444 3183492444 -0.33300000
12.67157555 -23.70187569 -2.89504743 3 11 15327 27.03200000 3183492444 3183492444 -6.14800000
13.16413307 -31.74967766 -3.20842934 5 12 15328 34.52000000 3183492446 3183492446 -5.33300000
38.06479263 -71.22917175 1.87928951 28 13 15328 80.78400000 3183492446 3183492446 1.33300000
40.74569321 -98.32026672 1.23903036 28 14 15329 106.43600000 3183492448 3183492448 0.66700000
19.28954315 -36.11093140 -2.86280560 6 15 15329 41.04000000 3183492448 3183492448 -4.00000000
15.91485691 -33.66814041 -3.04010224 7 16 15330 37.36400000 3183492451 3183492451 -4.66700000
38.51161194 -64.34821320 2.18248820 28 17 15330 75.02400000 3183492451 3183492451 1.66700000
39.47843552 -83.51727295 1.61246276 28 18 15330 92.39200000 3183492453 3183492453 1.00000000
19.81695747 -33.11172104 -2.47311020 15 19 15330 38.66800000 3183492453 3183492453 -3.66700000
19.56880951 -47.26661682 -2.97927594 12 20 15331 51.24400000 3183492455 3183492455 -3.33300000
39.68822861 -74.36067963 4.90879393 39 21 15331 84.43200000 3183492455 3183492455 3.33300000
39.22630692 -83.05892181 3.74230170 28 22 15332 91.93200000 3183492457 3183492457 2.33300000
19.75003242 -37.01961899 -1.95449328 15 23 15332 42.00400000 3183492457 3183492457 -2.66700000
19.65581322 -41.63860703 -2.41310620 24 24 15333 46.10800000 3183492460 3183492460 -3.00000000
56.91521835 -120.62295532 10.88819408 28 26 15334 133.82000000 3183492462 3183492462 4.66700000
38.00825500 -63.60789871 -3.01885200 57 27 15334 74.16000000 3183492462 3183492462 -2.33300000
37.94614029 -91.83668518 -3.46998715 28 28 15335 99.42800000 3183492464 3183492464 -2.00000000
37.29043579 -70.01515198 -1.84588361 27 31 15336 79.34800000 3183492467 3183492467 -1.33300000
2.79842257 -5.95504236 -3.06820869 13 0 15343 7.26000000 3183492487 3183492487 -25.00000000
38.15902710 -64.08863831 -1.30194950 28 1 15343 74.60000000 3183492487 3183492487 -1.00000000
38.16038895 -81.24212646 -2.61221361 28 2 15344 89.79600000 3183492490 3183492490 -1.66700000
5.11817789 -9.64212608 -3.05590630 6 3 15344 11.33600000 3183492490 3183492490 -15.63900000
6.55776405 -13.96758366 -3.08610177 3 4 15345 15.73600000 3183492492 3183492492 -11.31000000
36.79676819 -69.35058594 0.00000000 27 5 15345 78.50800000 3183492492 3183492492 0.00000000
37.64504623 -91.56044006 -1.15251374 29 6 15345 99.00400000 3183492494 3183492494 -0.66700000
8.88838196 -16.75186729 -2.95033717 2 7 15345 19.19200000 3183492494 3183492494 -8.84300000
10.23572159 -21.81127357 -3.06680250 5 8 15346 24.28800000 3183492497 3183492497 -7.25400000
38.64789963 -64.98708344 0.43945041 28 9 15346 75.61200000 3183492497 3183492497 0.33300000
37.57957458 -80.11457825 -0.51430786 28 10 15347 88.49200000 3183492499 3183492499 -0.33300000
12.60180283 -23.77055931 -2.89804602 3 11 15347 27.06000000 3183492499 3183492499 -6.14800000
13.10313988 -31.91701698 -3.22069788 5 12 15348 34.65200000 3183492501 3183492501 -5.33300000
37.99567795 -71.70082092 1.88822258 28 13 15348 81.16800000 3183492501 3183492501 1.33300000
40.09401703 -97.71073151 1.22957778 28 14 15349 105.62400000 3183492503 3183492503 0.66700000
19.24182129 -36.32614517 -2.87452483 6 15 15349 41.20800000 3183492503 3183492503 -4.00000000
15.85642719 -33.84984589 -3.05149317 7 16 15350 37.50400000 3183492506 3183492506 -4.66700000
38.11733246 -64.19690704 2.17283010 28 17 15350 74.69200000 3183492506 3183492506 1.66700000
38.76762009 -82.76000214 1.59521973 28 18 15350 91.40400000 3183492508 3183492508 1.00000000
19.80723000 -33.35917664 -2.48641324 16 19 15350 38.87600000 3183492508 3183492508 -3.66700000
19.55364609 -47.70042801 -3.00229907 13 20 15351 51.64000000 3183492510 3183492510 -3.33300000
39.45457077 -74.54817963 4.91204977 39 21 15351 84.48800000 3183492510 3183492510 3.33300000
40.05595779 -85.58807373 3.84993172 28 22 15352 94.57600000 3183492513 3183492513 2.33300000
19.74027061 -37.31437302 -1.96640527 16 23 15352 42.26000000 3183492513 3183492513 -2.66700000
19.64406013 -41.99280167 -2.42964435 25 24 15353 46.42400000 3183492515 3183492515 -3.00000000
37.99183655 -64.08741760 -3.03529763 28 27 15354 74.56400000 3183492517 3183492517 -2.33300000
37.86601257 -92.55686951 -3.49218321 28 28 15355 100.06400000 3183492520 3183492520 -2.00000000
38.14577484 -72.22763062 -1.90069163 28 31 15356 81.70400000 3183492522 3183492522 -1.33300000
2.71028233 -5.82017374 -2.99382782 16 0 15363 7.08400000 3183492543 3183492543 -25.00000000
37.97169876 -64.28343201 -1.30320609 28 1 15363 74.67200000 3183492543 3183492543 -1.00000000
37.99129868 -81.62132263 -2.62012625 28 2 15364 90.06800000 3183492545 3183492545 -1.66700000
5.08987188 -9.67015839 -3.05914116 6 3 15364 11.34800000 3183492545 3183492545 -15.63900000
6.51558638 -14.00461483 -3.08923960 5 4 15365 15.75200000 3183492547 3183492547 -11.31000000
36.70904922 -69.77242279 0.00000000 27 5 15365 78.84000000 3183492547 3183492547 0.00000000
37.62983322 -92.43960571 -1.16191983 29 6 15365 99.81200000 3183492550 3183492550 -0.66700000
8.85009670 -16.82126808 -2.95710135 2 7 15365 19.23600000 3183492550 3183492550 -8.84300000
10.19633389 -21.92602539 -3.07791424 2 8 15366 24.37600000 3183492552 3183492552 -7.25400000
38.32935333 -64.96656799 0.43840426 28 9 15366 75.43200000 3183492552 3183492552 0.33300000
37.49695587 -80.66964722 -0.51702785 28 10 15367 88.96000000 3183492554 3183492554 -0.33300000
12.56686497 -23.90592957 -2.90918422 3 11 15367 27.16400000 3183492554 3183492554 -6.14800000
12.99764729 -31.97731972 -3.22218490 5 12 15368 34.66800000 3183492556 3183492556 -5.33300000
38.77752304 -73.79769135 1.93986678 28 13 15368 83.38800000 3183492556 3183492556 1.33300000
39.94689941 -98.32811737 1.23558462 28 14 15369 106.14000000 3183492559 3183492559 0.66700000
19.19468689 -36.54499054 -2.88652277 6 15 15369 41.38000000 3183492559 3183492559 -4.00000000
15.81874275 -34.07856369 -3.06711507 7 16 15370 37.69600000 3183492561 3183492561 -4.66700000
37.91127396 -64.36057281 2.17387748 28 17 15370 74.72800000 3183492561 3183492561 1.66700000
38.43471527 -82.80050659 1.59340465 28 18 15370 91.30000000 3183492563 3183492563 1.00000000
19.79804230 -33.61040497 -2.49997234 16 19 15370 39.08800000 3183492563 3183492563 -3.66700000
19.58224297 -48.24940491 -3.03253126 14 20 15371 52.16000000 3183492566 3183492566 -3.33300000
40.39282990 -76.96964264 5.06228065 37 21 15371 87.07200000 3183492566 3183492566 3.33300000
43.59577942 -94.00497437 4.22167063 28 22 15372 103.70800000 3183492568 3183492568 2.33300000
19.73425865 -37.62012482 -1.97887564 16 23 15372 42.52800000 3183492568 3183492568 -2.66700000
19.64183426 -42.37278748 -2.44764805 25 24 15373 46.76800000 3183492570 3183492570 -3.00000000
56.93991470 -122.89112854 11.05678082 28 26 15374 135.89200000 3183492573 3183492573 4.66700000
38.05357361 -64.70539856 -3.05825663 28 27 15374 75.12800000 3183492573 3183492573 -2.33300000
37.83684540 -93.41469574 -3.51954436 28 28 15375 100.84800000 3183492575 3183492575 -2.00000000
38.28091812 -73.06925964 -1.91948819 28 31 15375 82.51200000 3183492577 3183492577 -1.33300000
2.69146848 -5.83289051 -2.99551821 13 0 15383 7.08800000 3183492598 3183492598 -25.00000000
37.92905807 -64.72613525 -1.30948901 28 1 15383 75.03200000 3183492598 3183492598 -1.00000000
37.84179688 -82.04753113 -2.62955165 28 2 15384 90.39200000 3183492600 3183492600 -1.66700000
5.05786753 -9.69128132 -3.06021953 6 3 15384 11.35200000 3183492600 3183492600 -15.63900000
6.47487211 -14.04508305 -3.09316182 5 4 15385 15.77200000 3183492603 3183492603 -11.31000000
36.48377609 -69.93560028 0.00000000 27 5 15385 78.88000000 3183492603 3183492603 0.00000000
