# .PCD v0.7 - Point Cloud Data file format
VERSION 0.7
FIELDS x y z intensity laser_id azimuth distance_m adjustedtime timestamp vertical_angle
SIZE 4 4 4 1 1 2 8 8 4 8
TYPE F F F U U U F U U F
COUNT 1 1 1 1 1 1 1 1 1 1
WIDTH 522
HEIGHT 1
VIEWPOINT 0 0 0 1 0 0 0
POINTS 522
DATA ascii
17.45441437 27.87873459 -1.14861226 5 28 2785 32.91200000 3184057644 3184057644 -2.00000000
13.09629917 26.31309891 -0.68393630 3 31 2786 29.40000000 3184057646 3184057646 -1.33300000
2.78355742 4.95618629 -2.65066171 14 0 2792 6.27200000 3184057667 3184057667 -25.00000000
11.93908596 27.17222214 -0.51805723 4 1 2792 29.68400000 3184057667 3184057667 -1.00000000
18.15358543 32.30965424 -1.07856059 7 2 2793 37.07600000 3184057669 3184057669 -1.66700000
3.66471124 7.34064579 -2.29678202 33 3 2793 8.52000000 3184057669 3184057669 -15.63900000
6.00786877 10.68840504 -2.45225072 4 4 2794 12.50400000 3184057672 3184057672 -11.31000000
13.14551735 26.31979752 0.00000000 3 5 2794 29.42000000 3184057672 3184057672 0.00000000
21.10792732 33.59679413 -0.46191818 18 6 2794 39.68000000 3184057674 3184057674 -0.66700000
6.58558178 13.18557262 -2.29299855 3 7 2794 14.91600000 3184057674 3184057674 -8.84300000
8.37465763 14.89299679 -2.17484379 2 8 2795 17.22400000 3184057676 3184057676 -7.25400000
11.99681568 27.26483727 0.17312528 29 9 2795 29.78800000 3184057676 3184057676 0.33300000
21.19413185 37.67499924 -0.25123739 24 10 2796 43.22800000 3184057679 3184057679 -0.33300000
8.45736790 16.91846466 -2.03741431 1 11 2796 19.02400000 3184057679 3184057679 -6.14800000
10.94397068 17.39892769 -1.91873729 2 12 2797 20.64400000 3184057681 3184057681 -5.33300000
40.09210205 63.71448898 0.87638730 28 14 2798 75.28400000 3184057683 3184057683 0.66700000
11.09643459 22.17840195 -1.73414588 2 15 2798 24.86000000 3184057683 3184057683 -4.00000000
10.97399902 19.48365974 -1.82549334 3 16 2799 22.43600000 3184057686 3184057686 -4.66700000
41.41117096 73.52298737 1.47291327 28 18 2799 84.39600000 3184057688 3184057688 1.00000000
10.62757683 24.10733604 -1.68847907 3 19 2799 26.40000000 3184057688 3184057688 -3.66700000
14.15904427 22.48418045 -1.54742813 4 20 2800 26.61600000 3184057690 3184057690 -3.33300000
45.34027481 90.54244232 5.89715719 42 21 2800 101.43200000 3184057690 3184057690 3.33300000
40.54721451 71.93035889 3.36404967 28 22 2801 82.64000000 3184057692 3184057692 2.33300000
13.43721676 26.82180977 -1.39742267 3 23 2801 30.03200000 3184057692 3184057692 -2.66700000
14.16860294 25.12470818 -1.51167178 5 24 2802 28.88400000 3184057695 3184057695 -3.00000000
12.03801823 27.25518227 -1.21389115 4 27 2803 29.82000000 3184057697 3184057697 -2.33300000
17.45506668 27.67530823 -1.14260948 5 28 2804 32.74000000 3184057699 3184057699 -2.00000000
13.19424629 26.29096985 -0.68449461 3 31 2805 29.42400000 3184057702 3184057702 -1.33300000
2.82135892 4.98064852 -2.66925693 14 0 2813 6.31600000 3184057722 3184057722 -25.00000000
18.24034309 32.18724442 -1.07669890 7 2 2814 37.01200000 3184057725 3184057725 -1.66700000
3.66906071 7.28244495 -2.28276420 24 3 2814 8.46800000 3184057725 3184057725 -15.63900000
6.04506874 10.66290092 -2.45146608 3 4 2815 12.50000000 3184057727 3184057727 -11.31000000
13.26350117 26.31430435 0.00000000 3 5 2815 29.46800000 3184057727 3184057727 0.00000000
21.12177277 33.34687424 -0.45954341 18 6 2815 39.47600000 3184057729 3184057729 -0.66700000
6.63030672 13.15428829 -2.29176879 3 7 2815 14.90800000 3184057729 3184057729 -8.84300000
8.41939926 14.84494400 -2.17231846 2 8 2816 17.20400000 3184057732 3184057732 -7.25400000
12.03493977 27.08178520 0.17224188 33 9 2816 29.63600000 3184057732 3184057732 0.33300000
21.18995476 37.34658051 -0.24956357 24 10 2817 42.94000000 3184057734 3184057734 -0.33300000
8.51573753 16.88025093 -2.03655744 1 11 2817 19.01600000 3184057734 3184057734 -6.14800000
10.99700356 17.34188271 -1.91687846 2 12 2818 20.62400000 3184057736 3184057736 -5.33300000
14.11871719 27.97456932 0.72915989 4 13 2818 31.34400000 3184057736 3184057736 1.33300000
40.28893280 63.50969696 0.87559569 28 14 2819 75.21600000 3184057738 3184057738 0.66700000
11.16146183 22.10552406 -1.73163474 2 15 2819 24.82400000 3184057738 3184057738 -4.00000000
11.03155136 19.41904259 -1.82321513 3 16 2820 22.40800000 3184057741 3184057741 -4.66700000
13.09950829 29.42197800 0.93729699 4 17 2820 32.22000000 3184057741 3184057741 1.66700000
41.36429214 72.81432343 1.46174371 28 18 2820 83.75600000 3184057743 3184057743 1.00000000
10.71261597 24.06092834 -1.68796742 3 19 2820 26.39200000 3184057743 3184057743 -3.66700000
14.24563885 22.43887711 -1.54789329 4 20 2821 26.62400000 3184057745 3184057745 -3.33300000
45.59077835 90.21527100 5.88669205 42 21 2821 101.25200000 3184057745 3184057745 3.33300000
40.71773911 71.61796570 3.35639668 28 22 2822 82.45200000 3184057748 3184057748 2.33300000
13.50118065 26.70462799 -1.39388633 2 23 2822 29.95600000 3184057748 3184057748 -2.66700000
14.24282074 25.04136086 -1.50978768 5 24 2823 28.84800000 3184057750 3184057750 -3.00000000
12.10852623 27.14517784 -1.21096015 4 27 2824 29.74800000 3184057752 3184057752 -2.33300000
17.55423927 27.60777283 -1.14246988 5 28 2825 32.73600000 3184057755 3184057755 -2.00000000
13.37182331 26.40297127 -0.68868202 3 31 2826 29.60400000 3184057757 3184057757 -1.33300000
2.83785987 4.97126484 -2.66925693 15 0 2832 6.31600000 3184057778 3184057778 -25.00000000
11.92256355 26.62828445 -0.50926119 24 1 2832 29.18000000 3184057778 3184057778 -1.00000000
18.34103012 32.11616516 -1.07634974 7 2 2833 37.00000000 3184057780 3184057780 -1.66700000
3.70365715 7.29084301 -2.28923392 16 3 2833 8.49200000 3184057780 3184057780 -15.63900000
6.08039522 10.64279652 -2.45146608 4 4 2834 12.50000000 3184057782 3184057782 -11.31000000
13.41592979 26.39854813 0.00000000 7 5 2834 29.61200000 3184057782 3184057782 0.00000000
21.11175919 33.08782578 -0.45693579 18 6 2834 39.25200000 3184057785 3184057785 -0.66700000
6.66851950 13.12165833 -2.28992414 3 7 2834 14.89600000 3184057785 3184057785 -8.84300000
8.47054958 14.82038784 -2.17282367 2 8 2835 17.20800000 3184057787 3184057787 -7.25400000
12.07558537 26.93223000 0.17154445 33 9 2835 29.51600000 3184057787 3184057787 0.33300000
21.18264389 37.04693222 -0.24802923 24 10 2836 42.67600000 3184057789 3184057789 -0.33300000
8.57166767 16.85191917 -2.03655744 1 11 2836 19.01600000 3184057789 3184057789 -6.14800000
11.04801846 17.29524994 -1.91576314 2 12 2837 20.61200000 3184057791 3184057791 -5.33300000
41.22867584 81.02067566 2.11536384 28 13 2837 90.93200000 3184057791 3184057791 1.33300000
40.42178345 63.25441360 0.87391937 28 14 2838 75.07200000 3184057794 3184057794 0.66700000
11.23470497 22.06838989 -1.73163474 2 15 2838 24.82400000 3184057794 3184057794 -4.00000000
11.09984779 19.38927460 -1.82386601 3 16 2839 22.41600000 3184057796 3184057796 -4.66700000
41.29158401 72.12835693 1.45071387 28 18 2839 83.12400000 3184057798 3184057798 1.00000000
10.77108192 23.97793579 -1.68464160 3 19 2839 26.34000000 3184057798 3184057798 -3.66700000
14.29200172 22.34778023 -1.54487002 4 20 2840 26.57200000 3184057801 3184057801 -3.33300000
42.14063644 82.70565033 5.40576601 33 21 2840 92.98000000 3184057801 3184057801 3.33300000
40.84573364 71.29181671 3.34744120 28 22 2841 82.23200000 3184057803 3184057803 2.33300000
13.57151604 26.62411118 -1.39202511 2 23 2841 29.91600000 3184057803 3184057803 -2.66700000
14.32975483 25.00092316 -1.51020634 5 24 2842 28.85600000 3184057805 3184057805 -3.00000000
49.18127441 85.77117920 8.07135582 28 26 2843 99.20000000 3184057808 3184057808 4.66700000
12.08693981 26.85704231 -1.19988775 4 27 2843 29.47600000 3184057808 3184057808 -2.33300000
17.64569283 27.54940987 -1.14246988 5 28 2844 32.73600000 3184057810 3184057810 -2.00000000
13.46561241 26.38220215 -0.68924034 7 31 2844 29.62800000 3184057812 3184057812 -1.33300000
2.87327766 4.99274921 -2.68616176 15 0 2852 6.35600000 3184057833 3184057833 -25.00000000
11.97755814 26.50268173 -0.50765562 12 1 2852 29.08800000 3184057833 3184057833 -1.00000000
18.38719368 31.93759918 -1.07250977 7 2 2853 36.86800000 3184057835 3184057835 -1.66700000
3.75016260 7.31900787 -2.30217361 13 3 2853 8.54000000 3184057835 3184057835 -15.63900000
6.10967779 10.60791111 -2.44832826 4 4 2854 12.48400000 3184057838 3184057838 -11.31000000
13.50982094 26.35511780 0.00000000 3 5 2854 29.61600000 3184057838 3184057838 0.00000000
21.11604881 32.82857513 -0.45442131 18 6 2855 39.03600000 3184057840 3184057840 -0.66700000
6.71296072 13.09009457 -2.28869438 2 7 2855 14.88800000 3184057840 3184057840 -8.84300000
8.51628780 14.78041553 -2.17130828 2 8 2855 17.19600000 3184057842 3184057842 -7.25400000
12.12664413 26.79516792 0.17094001 24 9 2855 29.41200000 3184057842 3184057842 0.33300000
21.18598747 36.75444031 -0.24656463 24 10 2856 42.42400000 3184057844 3184057844 -0.33300000
8.61954784 16.80066490 -2.03398705 1 11 2856 18.99200000 3184057844 3184057844 -6.14800000
11.09754467 17.23983574 -1.91390431 2 12 2857 20.59200000 3184057847 3184057847 -5.33300000
14.44575787 28.14464188 0.73613882 4 13 2857 31.64400000 3184057847 3184057847 1.33300000
40.67481613 63.16337204 0.87461787 28 14 2858 75.13200000 3184057849 3184057849 0.66700000
11.30437851 22.01484108 -1.73051858 2 15 2858 24.80800000 3184057849 3184057849 -4.00000000
11.15550518 19.32969284 -1.82191324 3 16 2859 22.39200000 3184057851 3184057851 -4.66700000
41.44368744 71.78256989 1.44680452 28 18 2860 82.90000000 3184057854 3184057854 1.00000000
10.85064793 23.92012024 -1.68336248 3 19 2860 26.32000000 3184057854 3184057854 -3.66700000
14.36775970 22.29439926 -1.54463756 4 20 2860 26.56800000 3184057856 3184057856 -3.33300000
45.55033493 88.63137054 5.80343723 28 21 2860 99.82000000 3184057856 3184057856 3.33300000
40.90443802 70.82001495 3.33197236 28 22 2861 81.85200000 3184057858 3184057858 2.33300000
13.65706062 26.56236076 -1.39128065 2 23 2861 29.90000000 3184057858 3184057858 -2.66700000
14.40294838 24.92654037 -1.50874090 5 24 2862 28.82800000 3184057861 3184057861 -3.00000000
49.40655136 85.47127533 8.05931377 28 26 2863 99.05200000 3184057863 3184057863 4.66700000
12.22524452 26.91293716 -1.20428419 4 27 2863 29.58400000 3184057863 3184057863 -2.33300000
17.72440910 27.46077728 -1.14135313 5 28 2864 32.70400000 3184057865 3184057865 -2.00000000
13.62717533 26.47014427 -0.69277632 3 31 2864 29.78000000 3184057868 3184057868 -1.33300000
2.90706086 5.01091099 -2.70137596 11 0 2872 6.39200000 3184057888 3184057888 -25.00000000
12.12808990 26.58806610 -0.51009893 41 1 2872 29.22800000 3184057888 3184057888 -1.00000000
18.48652267 31.85247421 -1.07181168 7 2 2873 36.84400000 3184057891 3184057891 -1.66700000
3.79160404 7.33667040 -2.31187820 15 3 2873 8.57600000 3184057891 3184057891 -15.63900000
6.13879156 10.57295132 -2.44519043 4 4 2874 12.46800000 3184057893 3184057893 -11.31000000
13.61275768 26.32911682 0.00000000 3 5 2874 29.64000000 3184057893 3184057893 0.00000000
21.11738777 32.58013535 -0.45199999 18 6 2875 38.82800000 3184057895 3184057895 -0.66700000
6.75134945 13.05253983 -2.28623462 3 7 2875 14.87200000 3184057895 3184057895 -8.84300000
8.56384277 14.74373531 -2.17029834 2 8 2875 17.18800000 3184057897 3184057897 -7.25400000
12.17024517 26.64352417 0.17024258 33 9 2875 29.29200000 3184057897 3184057897 0.33300000
21.15137482 36.40013123 -0.24468157 15 10 2876 42.10000000 3184057900 3184057900 -0.33300000
8.68179607 16.77754021 -2.03484392 1 11 2876 19.00000000 3184057900 3184057900 -6.14800000
11.14898586 17.18762779 -1.91241717 2 12 2877 20.57600000 3184057902 3184057902 -5.33300000
40.40734863 62.26943970 0.86418748 28 14 2878 74.23600000 3184057904 3184057904 0.66700000
11.31325817 21.84414673 -1.72019470 2 15 2878 24.66000000 3184057904 3184057904 -4.00000000
11.21288681 19.27340508 -1.82028604 2 16 2879 22.37200000 3184057907 3184057907 -4.66700000
40.92530060 70.34494019 1.42055607 28 18 2879 81.39600000 3184057909 3184057909 1.00000000
10.92990971 23.88400650 -1.68336248 3 19 2879 26.32000000 3184057909 3184057909 -3.66700000
14.43027020 22.22066689 -1.54300964 4 20 2880 26.54000000 3184057911 3184057911 -3.33300000
45.97521210 88.69517517 5.81808805 42 21 2880 100.07200000 3184057911 3184057911 3.33300000
40.75522614 69.99639130 3.29989505 28 22 2881 81.06400000 3184057914 3184057914 2.33300000
13.73498154 26.48615074 -1.38979161 2 23 2881 29.86800000 3184057914 3184057914 -2.66700000
14.47981739 24.85885429 -1.50769424 5 24 2882 28.80800000 3184057916 3184057916 -3.00000000
49.70058823 85.29140472 8.05866241 28 26 2883 99.04400000 3184057918 3184057918 4.66700000
12.24082851 26.69934464 -1.19663119 4 27 2883 29.39600000 3184057918 3184057918 -2.33300000
17.74605179 27.28480148 -1.13660681 5 28 2884 32.56800000 3184057921 3184057921 -2.00000000
13.64393616 26.27690506 -0.68896115 3 31 2884 29.61600000 3184057923 3184057923 -1.33300000
2.87329102 4.91311073 -2.65404272 13 0 2892 6.28000000 3184057944 3184057944 -25.00000000
12.20744610 26.51650620 -0.50954044 61 1 2892 29.19600000 3184057944 3184057944 -1.00000000
18.55721474 31.71872902 -1.06948435 7 2 2893 36.76400000 3184057946 3184057946 -1.66700000
3.82431245 7.33705378 -2.31619143 15 3 2893 8.59200000 3184057946 3184057946 -15.63900000
6.17367935 10.54807377 -2.44440579 3 4 2894 12.46400000 3184057949 3184057949 -11.31000000
13.71567726 26.30272102 0.00000000 3 5 2894 29.66400000 3184057949 3184057949 0.00000000
21.10504913 32.32572556 -0.44943893 18 6 2894 38.60800000 3184057951 3184057951 -0.66700000
6.78911352 13.01956558 -2.28438997 2 7 2894 14.86000000 3184057951 3184057951 -8.84300000
8.61525631 14.71375275 -2.17029834 2 8 2895 17.18800000 3184057953 3184057953 -7.25400000
12.23135662 26.53186226 0.16980088 28 9 2895 29.21600000 3184057953 3184057953 0.33300000
21.14689636 36.10173416 -0.24317047 15 10 2896 41.84000000 3184057956 3184057956 -0.33300000
8.73294735 16.73302841 -2.03313041 1 11 2896 18.98400000 3184057956 3184057956 -6.14800000
11.20455551 17.14193916 -1.91167355 2 12 2897 20.56800000 3184057958 3184057958 -5.33300000
41.31415558 79.12757111 2.07711935 28 13 2897 89.28800000 3184057958 3184057958 1.33300000
40.50844955 61.95058823 0.86171955 28 14 2898 74.02400000 3184057960 3184057960 0.66700000
11.38389683 21.79391289 -1.71935761 2 15 2898 24.64800000 3184057960 3184057960 -4.00000000
11.28614521 19.24446297 -1.82126236 3 16 2899 22.38400000 3184057962 3184057962 -4.66700000
40.98446274 69.88426971 1.41413355 28 18 2899 81.02800000 3184057965 3184057965 1.00000000
10.96969700 23.75148582 -1.67671084 3 19 2899 26.21600000 3184057965 3184057965 -3.66700000
14.38529968 21.98304176 -1.52998650 4 20 2900 26.31600000 3184057967 3184057967 -3.33300000
46.47324371 88.89511108 5.84180880 42 21 2900 100.48000000 3184057967 3184057967 3.33300000
40.81319046 69.53659058 3.28491473 28 22 2901 80.69600000 3184057969 3184057969 2.33300000
13.81809330 26.42034149 -1.38886094 2 23 2901 29.84800000 3184057969 3184057969 -2.66700000
14.50178051 24.69793129 -1.50099528 5 24 2902 28.68000000 3184057972 3184057972 -3.00000000
50.25040817 85.54708862 8.09934521 28 26 2903 99.54400000 3184057974 3184057974 4.66700000
12.35912704 26.71086121 -1.19907367 4 27 2903 29.45600000 3184057974 3184057974 -2.33300000
17.83680344 27.21600342 -1.13632762 5 28 2904 32.56000000 3184057976 3184057976 -2.00000000
13.76154900 26.27871513 -0.69026387 3 31 2904 29.67200000 3184057979 3184057979 -1.33300000
2.86649013 4.86245251 -2.63206649 17 0 2912 6.22800000 3184057999 3184057999 -25.00000000
18.68813133 31.68819809 -1.07064807 7 2 2913 36.80400000 3184058002 3184058002 -1.66700000
3.85706949 7.33729744 -2.32050467 31 3 2913 8.60800000 3184058002 3184058002 -15.63900000
6.20448208 10.51632500 -2.44205260 4 4 2914 12.45200000 3184058004 3184058004 -11.31000000
13.81671619 26.27238464 0.00000000 3 5 2914 29.68400000 3184058004 3184058004 0.00000000
21.10784340 32.08478546 -0.44711071 17 6 2914 38.40800000 3184058006 3184058006 -0.66700000
6.82716036 12.98179531 -2.28193021 2 7 2914 14.84400000 3184058006 3184058006 -8.84300000
8.65849686 14.66992092 -2.16827798 2 8 2915 17.17200000 3184058009 3184058009 -7.25400000
12.30196095 26.44186020 0.16949865 20 9 2915 29.16400000 3184058009 3184058009 0.33300000
21.14669609 35.81414795 -0.24172911 15 10 2916 41.59200000 3184058011 3184058011 -0.33300000
8.78389359 16.68836594 -2.03141689 1 11 2916 18.96800000 3184058011 3184058011 -6.14800000
11.25117970 17.08276558 -1.90944290 2 12 2917 20.54400000 3184058013 3184058013 -5.33300000
41.15785217 78.16198730 2.05553102 28 13 2917 88.36000000 3184058013 3184058013 1.33300000
40.53739929 61.52491379 0.85776156 28 14 2918 73.68400000 3184058015 3184058015 0.66700000
11.45804310 21.75051117 -1.71907854 2 15 2918 24.64400000 3184058015 3184058015 -4.00000000
11.34310818 19.18779182 -1.81963503 2 16 2919 22.36400000 3184058018 3184058018 -4.66700000
13.42009926 28.79261398 0.92449719 4 17 2919 31.78000000 3184058018 3184058018 1.66700000
41.00631332 69.36551666 1.40652430 28 18 2919 80.59200000 3184058020 3184058020 1.00000000
11.03567410 23.67686844 -1.67415249 3 19 2919 26.17600000 3184058020 3184058020 -3.66700000
14.53448772 22.04270744 -1.53766084 4 20 2920 26.44800000 3184058022 3184058022 -3.33300000
46.39960861 88.00469208 5.79390240 28 21 2920 99.65600000 3184058022 3184058022 3.33300000
40.65475845 68.71607208 3.25283742 28 22 2921 79.90800000 3184058025 3184058025 2.33300000
13.89904785 26.35074234 -1.38774419 2 23 2921 29.82400000 3184058025 3184058025 -2.66700000
14.57976627 24.63340950 -1.50015783 5 24 2922 28.66400000 3184058027 3184058027 -3.00000000
50.38825226 85.10015869 8.07363415 28 26 2923 99.22800000 3184058029 3184058029 4.66700000
12.45228958 26.66755867 -1.19907367 4 27 2923 29.45600000 3184058029 3184058029 -2.33300000
17.91186905 27.12355232 -1.13507128 5 28 2924 32.52400000 3184058032 3184058032 -2.00000000
13.89614773 26.31184769 -0.69240409 3 31 2924 29.76400000 3184058034 3184058034 -1.33300000
2.89725995 4.87372684 -2.64389992 18 0 2933 6.25600000 3184058055 3184058055 -25.00000000
12.39857769 26.43209267 -0.50961030 41 1 2933 29.20000000 3184058055 3184058055 -1.00000000
3.87491202 7.30609703 -2.31511331 27 3 2934 8.58800000 3184058057 3184058057 -15.63900000
6.24097919 10.49014282 -2.44126797 4 4 2935 12.44800000 3184058059 3184058059 -11.31000000
21.37838364 40.29167557 0.00000000 16 5 2935 45.61200000 3184058059 3184058059 0.00000000
21.11477280 31.84053612 -0.44478250 17 6 2935 38.20800000 3184058062 3184058062 -0.66700000
6.86728525 12.94271946 -2.27947068 2 7 2935 14.82800000 3184058062 3184058062 -8.84300000
8.71220684 14.63808727 -2.16827798 1 8 2936 17.17200000 3184058064 3184058064 -7.25400000
12.39028931 26.37849045 0.16938241 12 9 2936 29.14400000 3184058064 3184058064 0.33300000
21.15708542 35.53362656 -0.24035750 15 10 2937 41.35600000 3184058066 3184058066 -0.33300000
8.80210018 16.57527351 -2.02156401 1 11 2937 18.87600000 3184058066 3184058066 -6.14800000
11.30490494 17.02814102 -1.90795588 2 12 2938 20.52800000 3184058068 3184058068 -5.33300000
41.25268555 77.65039825 2.04603982 28 13 2938 87.95200000 3184058068 3184058068 1.33300000
40.63871002 61.18934250 0.85515398 28 14 2939 73.46000000 3184058071 3184058071 0.66700000
11.53581238 21.70484543 -1.71879947 2 15 2939 24.64000000 3184058071 3184058071 -4.00000000
11.40927601 19.13923836 -1.81898415 2 16 2940 22.35600000 3184058073 3184058073 -4.66700000
40.75409317 68.33850861 1.38886249 28 18 2941 79.58000000 3184058075 3184058075 1.00000000
11.12310505 23.62709618 -1.67364085 3 19 2941 26.16800000 3184058075 3184058075 -3.66700000
14.52455425 21.85293579 -1.52812600 4 20 2941 26.28400000 3184058078 3184058078 -3.33300000
41.75036240 78.48796082 5.17739630 36 21 2941 89.05200000 3184058078 3184058078 3.33300000
40.77733994 68.35036469 3.24257922 28 22 2942 79.65600000 3184058080 3184058080 2.33300000
13.95799351 26.22907639 -1.38402176 2 23 2942 29.74400000 3184058080 3184058080 -2.66700000
14.66176510 24.56608582 -1.49932051 5 24 2943 28.64800000 3184058082 3184058082 -3.00000000
50.34216309 84.31587219 8.01667881 28 26 2944 98.52800000 3184058085 3184058085 4.66700000
12.54994774 26.62173843 -1.19907367 4 27 2944 29.45600000 3184058085 3184058085 -2.33300000
17.95135307 26.96787262 -1.13130212 5 28 2945 32.41600000 3184058087 3184058087 -2.00000000
14.01129723 26.29603195 -0.69333464 3 31 2945 29.80400000 3184058089 3184058089 -1.33300000
2.93847799 4.90401030 -2.66587591 13 0 2953 6.30800000 3184058110 3184058110 -25.00000000
12.38125992 26.15730095 -0.50514245 16 1 2953 28.94400000 3184058110 3184058110 -1.00000000
18.69444847 31.18671608 -1.05819726 14 2 2954 36.37600000 3184058112 3184058112 -1.66700000
3.90220809 7.29592276 -2.31619143 17 3 2954 8.59200000 3184058112 3184058112 -15.63900000
6.26948977 10.45483875 -2.43813014 4 4 2955 12.43200000 3184058114 3184058114 -11.31000000
21.30565262 39.81827164 0.00000000 15 5 2955 45.16000000 3184058114 3184058114 0.00000000
21.11352921 31.58669472 -0.44231459 17 6 2956 37.99600000 3184058117 3184058117 -0.66700000
6.90721512 12.90352440 -2.27701092 3 7 2956 14.81200000 3184058117 3184058117 -8.84300000
8.72242451 14.53953457 -2.15817642 1 8 2956 17.09200000 3184058119 3184058119 -7.25400000
12.48571873 26.34230804 0.16942891 12 9 2956 29.15200000 3184058119 3184058119 0.33300000
21.14514160 35.23320007 -0.23882316 15 10 2957 41.09200000 3184058121 3184058121 -0.33300000
8.86178207 16.54795265 -2.02199221 1 11 2957 18.88000000 3184058121 3184058121 -6.14800000
11.36206055 16.98526573 -1.90758407 2 12 2958 20.52400000 3184058124 3184058124 -5.33300000
41.25532532 77.00538635 2.03282619 28 13 2958 87.38400000 3184058124 3184058124 1.33300000
40.71636200 60.84434509 0.85231352 28 14 2959 73.21600000 3184058126 3184058126 0.66700000
11.60396671 21.65037918 -1.71768343 2 15 2959 24.62400000 3184058126 3184058126 -4.00000000
11.47396183 19.09587860 -1.81865871 2 16 2960 22.35200000 3184058128 3184058128 -4.66700000
40.41815186 67.26709747 1.36980450 28 18 2960 78.48800000 3184058131 3184058131 1.00000000
11.18769646 23.56123352 -1.67159426 3 19 2960 26.13600000 3184058131 3184058131 -3.66700000
14.60963440 21.81537437 -1.52905631 4 20 2961 26.30000000 3184058133 3184058133 -3.33300000
41.62957001 77.60629272 5.12879181 36 21 2961 88.21600000 3184058133 3184058133 3.33300000
40.82825089 67.89592743 3.22776175 28 22 2962 79.29200000 3184058135 3184058135 2.33300000
14.04001808 26.16259003 -1.38309109 2 23 2962 29.72400000 3184058135 3184058135 -2.66700000
14.73713207 24.49764252 -1.49827373 5 24 2963 28.62800000 3184058138 3184058138 -3.00000000
50.67728806 84.20794678 8.02318764 28 26 2964 98.60800000 3184058140 3184058140 4.66700000
12.63764763 26.56694221 -1.19858515 4 27 2964 29.44400000 3184058140 3184058140 -2.33300000
18.03424644 26.88844681 -1.13060415 5 28 2965 32.39600000 3184058142 3184058142 -2.00000000
14.13030338 26.28676796 -0.69445127 3 31 2966 29.85200000 3184058144 3184058144 -1.33300000
2.96682334 4.91234207 -2.67601871 13 0 2973 6.33200000 3184058165 3184058165 -25.00000000
18.81766891 31.14522552 -1.05901182 7 2 2974 36.40400000 3184058167 3184058167 -1.66700000
3.90936685 7.24835491 -2.30540848 21 3 2974 8.55200000 3184058167 3184058167 -15.63900000
6.29783010 10.41946316 -2.43499231 3 4 2975 12.41600000 3184058170 3184058170 -11.31000000
21.29636002 39.46907806 0.00000000 15 5 2975 44.84800000 3184058170 3184058170 0.00000000
21.10970879 31.34361076 -0.43993983 17 6 2976 37.79200000 3184058172 3184058172 -0.66700000
6.94470501 12.86542320 -2.27455139 2 7 2976 14.79600000 3184058172 3184058172 -8.84300000
8.77312374 14.50899887 -2.15817642 1 8 2976 17.09200000 3184058174 3184058174 -7.25400000
12.57931995 26.30217361 0.16945216 12 9 2976 29.15600000 3184058174 3184058174 0.33300000
21.14171219 34.95040512 -0.23740505 15 10 2977 40.84800000 3184058177 3184058177 -0.33300000
8.90626335 16.49242401 -2.01899362 1 11 2977 18.85200000 3184058177 3184058177 -6.14800000
11.41460323 16.93559456 -1.90646875 2 12 2978 20.51200000 3184058179 3184058179 -5.33300000
41.25966644 76.37186432 2.01989198 28 13 2978 86.82800000 3184058179 3184058179 1.33300000
40.82787704 60.55261230 0.85021818 28 14 2979 73.03600000 3184058181 3184058181 0.66700000
11.68136692 21.61325264 -1.71796238 2 15 2979 24.62800000 3184058181 3184058181 -4.00000000
11.48065662 18.95681763 -1.80922043 2 16 2980 22.23600000 3184058184 3184058184 -4.66700000
40.48282623 66.84508514 1.36408007 28 18 2980 78.16000000 3184058186 3184058186 1.00000000
11.25779819 23.49683762 -1.66980338 3 19 2980 26.10800000 3184058186 3184058186 -3.66700000
14.68792915 21.76755524 -1.52928877 4 20 2981 26.30400000 3184058188 3184058188 -3.33300000
41.89071274 77.44294739 5.12762928 36 21 2981 88.19600000 3184058188 3184058188 3.33300000
40.81227112 67.33601379 3.20789647 28 22 2982 78.80400000 3184058191 3184058191 2.33300000
14.10463333 26.06422424 -1.38048542 2 23 2982 29.66800000 3184058191 3184058191 -2.66700000
14.75213909 24.32991791 -1.49115610 5 24 2983 28.49200000 3184058193 3184058193 -3.00000000
51.07636642 84.20438385 8.03978634 28 26 2984 98.81200000 3184058195 3184058195 4.66700000
14.02737617 29.22501564 -1.32070696 5 27 2984 32.44400000 3184058195 3184058195 -2.33300000
18.09218216 26.77233696 -1.12837052 5 28 2985 32.33200000 3184058197 3184058197 -2.00000000
18.56472206 34.26323318 -0.90679723 5 31 2985 38.98000000 3184058200 3184058200 -1.33300000
3.01411271 4.95150232 -2.70306635 11 0 2993 6.39600000 3184058220 3184058220 -25.00000000
12.62260151 26.19272423 -0.50751597 4 1 2993 29.08000000 3184058220 3184058220 -1.00000000
18.96994209 31.15106201 -1.06145537 7 2 2994 36.48800000 3184058223 3184058223 -1.66700000
3.94384623 7.25158358 -2.31080008 15 3 2994 8.57200000 3184058223 3184058223 -15.63900000
6.33416224 10.39741611 -2.43499231 4 4 2995 12.41600000 3184058225 3184058225 -11.31000000
21.29444885 39.13800812 0.00000000 15 5 2995 44.55600000 3184058225 3184058225 0.00000000
21.10126877 31.10793304 -0.43761161 17 6 2995 37.59200000 3184058227 3184058227 -0.66700000
6.98166323 12.83190727 -2.27270651 2 7 2995 14.78400000 3184058227 3184058227 -8.84300000
8.81132603 14.45795631 -2.15514612 1 8 2996 17.06800000 3184058230 3184058230 -7.25400000
12.66410160 26.24369431 0.16935916 12 9 2996 29.14000000 3184058230 3184058230 0.33300000
21.14073372 34.67489243 -0.23603344 15 10 2997 40.61200000 3184058232 3184058232 -0.33300000
8.95997429 16.45424843 -2.01813674 1 11 2997 18.84400000 3184058232 3184058232 -6.14800000
11.43561363 16.83963585 -1.90014851 2 12 2998 20.44400000 3184058234 3184058234 -5.33300000
41.26965714 75.75681305 2.00742292 28 13 2998 86.29200000 3184058234 3184058234 1.33300000
40.83221817 60.10534668 0.84593421 28 14 2999 72.66800000 3184058237 3184058237 0.66700000
11.75864983 21.57584763 -1.71824145 2 15 2999 24.63200000 3184058237 3184058237 -4.00000000
11.53014183 18.88940430 -1.80661678 2 16 3000 22.20400000 3184058239 3184058239 -4.66700000
40.40752029 66.19814301 1.35374832 28 18 3000 77.56800000 3184058241 3184058241 1.00000000
11.33627415 23.45021057 -1.66929173 3 19 3000 26.10000000 3184058241 3184058241 -3.66700000
14.79300880 21.75908089 -1.53231204 4 20 3001 26.35600000 3184058244 3184058244 -3.33300000
48.53968430 88.99111938 5.90343618 42 21 3001 101.54000000 3184058244 3184058244 3.33300000
40.06990433 65.59354401 3.13152957 28 22 3002 76.92800000 3184058246 3184058246 2.33300000
14.19170094 26.00781631 -1.38011312 2 23 3002 29.66000000 3184058246 3184058246 -2.66700000
14.84114265 24.28509140 -1.49157476 5 24 3003 28.50000000 3184058248 3184058248 -3.00000000
51.36998367 84.02558136 8.03978634 28 26 3004 98.81200000 3184058250 3184058250 4.66700000
14.12407970 29.16508293 -1.32021856 5 27 3004 32.43200000 3184058250 3184058250 -2.33300000
18.19452286 26.72223663 -1.12892890 5 28 3005 32.34800000 3184058253 3184058253 -2.00000000
18.62688637 34.07916641 -0.90372646 5 31 3006 38.84800000 3184058255 3184058255 -1.33300000
2.99725389 4.88533020 -2.67263794 13 0 3013 6.32400000 3184058276 3184058276 -25.00000000
12.81188869 26.34992218 -0.51142532 4 1 3013 29.30400000 3184058276 3184058276 -1.00000000
19.05346680 31.04376411 -1.06005907 7 2 3014 36.44000000 3184058278 3184058278 -1.66700000
3.98024774 7.25803709 -2.31726980 15 3 3014 8.59600000 3184058278 3184058278 -15.63900000
6.36631298 10.36855698 -2.43342328 3 4 3015 12.40800000 3184058280 3184058280 -11.31000000
21.28663826 38.80041885 0.00000000 15 5 3015 44.25600000 3184058280 3184058280 0.00000000
21.10139847 30.87557983 -0.43537652 16 6 3015 37.40000000 3184058283 3184058283 -0.66700000
7.02261019 12.80052757 -2.27147675 2 7 3015 14.77600000 3184058283 3184058283 -8.84300000
8.85550976 14.41696739 -2.15363073 1 8 3016 17.05600000 3184058285 3184058285 -7.25400000
12.77139091 26.23169518 0.16956839 4 9 3016 29.17600000 3184058285 3184058285 0.33300000
21.14018250 34.40322495 -0.23468508 15 10 3017 40.38000000 3184058287 3184058287 -0.33300000
9.01352787 16.41590118 -2.01728010 1 11 3017 18.83600000 3184058287 3184058287 -6.14800000
11.48083115 16.77989388 -1.89791787 2 12 3018 20.42000000 3184058290 3184058290 -5.33300000
41.03327560 74.70100403 1.98322928 28 13 3018 85.25200000 3184058290 3184058290 1.33300000
40.90848541 59.76771164 0.84318691 28 14 3019 72.43200000 3184058292 3184058292 0.66700000
11.75125790 21.38430023 -1.70624340 2 15 3019 24.46000000 3184058292 3184058292 -4.00000000
11.60018539 18.85583305 -1.80726767 2 16 3020 22.21200000 3184058294 3184058294 -4.66700000
40.55242920 65.91703033 1.35088611 28 18 3020 77.40400000 3184058297 3184058297 1.00000000
11.37606430 23.32438850 -1.66315186 3 19 3020 26.00400000 3184058297 3184058297 -3.66700000
14.85758877 21.69083977 -1.53114927 4 20 3021 26.33600000 3184058299 3184058299 -3.33300000
48.83078384 88.78615570 5.90111065 42 21 3021 101.50000000 3184058299 3184058299 3.33300000
40.16242599 65.23205566 3.12094569 28 22 3022 76.66800000 3184058301 3184058301 2.33300000
14.27469444 25.94411659 -1.37936866 2 23 3022 29.64400000 3184058301 3184058301 -2.66700000
14.91115856 24.20933151 -1.49010932 5 24 3023 28.47200000 3184058303 3184058303 -3.00000000
51.67552185 83.86611938 8.04173946 28 26 3024 98.83600000 3184058306 3184058306 4.66700000
14.22228909 29.10842133 -1.31989288 5 27 3024 32.42400000 3184058306 3184058306 -2.33300000
18.27864456 26.64537811 -1.12837052 5 28 3025 32.33200000 3184058308 3184058308 -2.00000000
18.72257042 33.97190857 -0.90260983 5 31 3026 38.80000000 3184058310 3184058310 -1.33300000
2.99056530 4.83835936 -2.65235209 13 0 3032 6.27600000 3184058331 3184058331 -25.00000000
19.10373688 30.89539146 -1.05715001 7 2 3033 36.34000000 3184058333 3184058333 -1.66700000
4.01361084 7.26165438 -2.32266140 14 3 3033 8.61600000 3184058333 3184058333 -15.63900000
6.39859772 10.34405327 -2.43263888 4 4 3034 12.40400000 3184058336 3184058336 -11.31000000
21.27969933 38.48458099 0.00000000 15 5 3034 43.97600000 3184058336 3184058336 0.00000000
21.09481621 30.64728928 -0.43314141 16 6 3034 37.20800000 3184058338 3184058338 -0.66700000
7.05736923 12.76333427 -2.26901722 2 7 3034 14.76000000 3184058338 3184058338 -8.84300000
8.89909363 14.38077450 -2.15262079 1 8 3035 17.04800000 3184058340 3184058340 -7.25400000
12.85830784 26.18919945 0.16956839 4 9 3035 29.17600000 3184058340 3184058340 0.33300000
21.12361717 34.12207413 -0.23324372 15 10 3036 40.13200000 3184058343 3184058343 -0.33300000
9.06598949 16.38244057 -2.01685166 1 11 3036 18.83200000 3184058343 3184058343 -6.14800000
11.53867245 16.74500847 -1.89828968 2 12 3037 20.42400000 3184058345 3184058345 -5.33300000
40.81204224 73.71788025 1.96071053 28 13 3037 84.28400000 3184058345 3184058345 1.33300000
40.90669250 59.34193039 0.83908927 28 14 3038 72.08000000 3184058347 3184058347 0.66700000
11.82597351 21.35219383 -1.70680141 2 15 3038 24.46800000 3184058347 3184058347 -4.00000000
11.66895103 18.82742691 -1.80824411 2 16 3039 22.22400000 3184058350 3184058350 -4.66700000
40.44422150 65.25527954 1.34006560 28 18 3039 76.78400000 3184058352 3184058352 1.00000000
11.44453907 23.26862526 -1.66187274 3 19 3039 25.98400000 3184058352 3184058352 -3.66700000
14.81832790 21.48038864 -1.51975405 4 20 3040 26.14000000 3184058354 3184058354 -3.33300000
48.91585541 88.24654388 5.87599468 42 21 3040 101.06800000 3184058354 3184058354 3.33300000
40.28161621 64.94228363 3.11345553 28 22 3041 76.48400000 3184058356 3184058356 2.33300000
14.31608105 25.81626701 -1.37508774 2 23 3041 29.55200000 3184058356 3184058356 -2.66700000
14.97872162 24.13938522 -1.48885334 5 24 3042 28.44800000 3184058359 3184058359 -3.00000000
51.91339874 83.62993622 8.03555584 28 26 3043 98.76000000 3184058361 3184058361 4.66700000
14.24808121 28.91769218 -1.31337965 5 27 3043 32.26400000 3184058361 3184058361 -2.33300000
18.30100822 26.48923683 -1.12432218 5 28 3044 32.21600000 3184058363 3184058363 -2.00000000
2.99785233 4.81250572 -2.64389992 13 0 3052 6.25600000 3184058386 3184058386 -25.00000000
19.17974663 30.77761841 -1.05540454 7 2 3053 36.28000000 3184058389 3184058389 -1.66700000
4.03330898 7.23750591 -2.31942630 10 3 3053 8.60400000 3184058389 3184058389 -15.63900000
6.43051624 10.31499767 -2.43106985 4 4 3054 12.39600000 3184058391 3184058391 -11.31000000
21.27561188 38.16201019 0.00000000 15 5 3054 43.69200000 3184058391 3184058391 0.00000000
21.08998299 30.41241646 -0.43085977 16 6 3054 37.01200000 3184058393 3184058393 -0.66700000
7.10187864 12.73862171 -2.26901722 2 7 3054 14.76000000 3184058393 3184058393 -8.84300000
8.94293785 14.33952236 -2.15110540 1 8 3055 17.03600000 3184058396 3184058396 -7.25400000
13.05439472 26.35563087 0.17094001 4 9 3055 29.41200000 3184058396 3184058396 0.33300000
21.12402916 33.85808563 -0.23194185 15 10 3056 39.90800000 3184058398 3184058398 -0.33300000
9.10761738 16.32291031 -2.01342440 1 11 3056 18.80000000 3184058398 3184058398 -6.14800000
11.59478188 16.70135689 -1.89791787 2 12 3057 20.42000000 3184058400 3184058400 -5.33300000
40.95801926 73.37593842 1.95540655 28 13 3057 84.05600000 3184058400 3184058400 1.33300000
40.97441101 58.99838257 0.83624887 28 14 3058 71.83600000 3184058402 3184058402 0.66700000
11.90043449 21.31078339 -1.70680141 2 15 3058 24.46800000 3184058402 3184058402 -4.00000000
11.72826385 18.77643585 -1.80726767 2 16 3059 22.21200000 3184058405 3184058405 -4.66700000
40.63997650 65.06282806 1.33901846 28 18 3059 76.72400000 3184058407 3184058407 1.00000000
11.50972366 23.19635201 -1.65957022 3 19 3059 25.94800000 3184058407 3184058407 -3.66700000
14.86359119 21.38590431 -1.51673079 4 20 3060 26.08800000 3184058409 3184058409 -3.33300000
41.22064590 73.75566101 4.92065430 39 21 3060 84.63600000 3184058409 3184058409 3.33300000
40.24112701 64.37425995 3.09293914 28 22 3061 75.98000000 3184058412 3184058412 2.33300000
14.37881088 25.71731186 -1.37248206 2 23 3061 29.49600000 3184058412 3184058412 -2.66700000
15.03959465 24.04969788 -1.48655045 5 24 3062 28.40400000 3184058414 3184058414 -3.00000000
52.34667206 83.67466736 8.05736065 28 26 3063 99.02800000 3184058416 3184058416 4.66700000
14.34004116 28.84988594 -1.31256557 5 27 3063 32.24400000 3184058416 3184058416 -2.33300000
18.38194275 26.40878868 -1.12362421 5 28 3064 32.19600000 3184058419 3184058419 -2.00000000
18.76970100 33.51571274 -0.89386290 10 31 3065 38.42400000 3184058421 3184058421 -1.33300000
3.03583550 4.83578587 -2.66249514 14 0 3072 6.30000000 3184058442 3184058442 -25.00000000
13.07539845 26.20228386 -0.51114607 4 1 3072 29.28800000 3184058442 3184058442 -1.00000000
19.28493690 30.70709610 -1.05528820 7 2 3073 36.27600000 3184058444 3184058444 -1.66700000
4.02269888 7.15957832 -2.29893875 15 3 3073 8.52800000 3184058444 3184058444 -15.63900000
6.46022320 10.28252411 -2.42871642 3 4 3074 12.38400000 3184058446 3184058446 -11.31000000
21.26365662 37.82948303 0.00000000 14 5 3074 43.39600000 3184058446 3184058446 0.00000000
21.08605957 30.18123245 -0.42862469 24 6 3074 36.82000000 3184058449 3184058449 -0.66700000
7.13661814 12.69652653 -2.26594257 2 7 3074 14.74000000 3184058449 3184058449 -8.84300000
8.98871422 14.30149937 -2.15009522 1 8 3075 17.02800000 3184058451 3184058451 -7.25400000
21.12072754 33.59112930 -0.23061673 14 10 3076 39.68000000 3184058453 3184058453 -0.33300000
9.16259003 16.28755379 -2.01299620 1 11 3076 18.79600000 3184058453 3184058453 -6.14800000
11.64387894 16.64772797 -1.89643073 2 12 3077 20.40400000 3184058455 3184058455 -5.33300000
41.32961273 73.43813324 1.96089661 28 13 3077 84.29200000 3184058455 3184058455 1.33300000
40.50595856 57.89150238 0.82255894 28 14 3078 70.66000000 3184058458 3184058458 0.66700000
11.97670746 21.27259064 -1.70708048 2 15 3078 24.47200000 3184058458 3184058458 -4.00000000
11.77886677 18.71176529 -1.80498946 2 16 3079 22.18400000 3184058460 3184058460 -4.66700000
40.63887024 64.55841827 1.33154881 28 18 3079 76.29600000 3184058462 3184058462 1.00000000
11.58169079 23.13818741 -1.65829110 3 19 3079 25.92800000 3184058462 3184058462 -3.66700000
41.43864441 73.54174805 4.91600323 39 21 3080 84.55600000 3184058465 3184058465 3.33300000
40.29942703 63.96963882 3.08023858 28 22 3081 75.66800000 3184058467 3184058467 2.33300000
14.45279694 25.63911819 -1.37099302 2 23 3081 29.46400000 3184058467 3184058467 -2.66700000
15.07446766 23.91932678 -1.48173559 5 24 3082 28.31200000 3184058469 3184058469 -3.00000000
52.74474335 83.66005707 8.07363415 28 26 3083 99.22800000 3184058472 3184058472 4.66700000
14.43349266 28.78536415 -1.31191421 5 27 3083 32.22800000 3184058472 3184058472 -2.33300000
18.46253777 26.32809639 -1.12292624 5 28 3084 32.17600000 3184058474 3184058474 -2.00000000
18.84929276 33.39756775 -0.89237404 5 31 3084 38.36000000 3184058476 3184058476 -1.33300000
3.07207918 4.85579491 -2.67939973 16 0 3092 6.34000000 3184058497 3184058497 -25.00000000
13.32502747 26.47084618 -0.51728934 4 1 3092 29.64000000 3184058497 3184058497 -1.00000000
19.36421013 30.59567070 -1.05377555 7 2 3093 36.22400000 3184058499 3184058499 -1.66700000
3.94514513 6.96450949 -2.24071050 25 3 3093 8.31200000 3184058499 3184058499 -15.63900000
6.49817467 10.26322556 -2.42950106 3 4 3094 12.38800000 3184058502 3184058502 -11.31000000
21.26344299 37.52186584 0.00000000 14 5 3094 43.12800000 3184058502 3184058502 0.00000000
21.08370399 29.94349670 -0.42634302 24 6 3095 36.62400000 3184058504 3184058504 -0.66700000
7.18310547 12.67028427 -2.26594257 2 7 3095 14.74000000 3184058504 3184058504 -8.84300000
9.03433514 14.26333141 -2.14908528 1 8 3095 17.02000000 3184058506 3184058506 -7.25400000
13.37309933 26.53174210 0.17268358 4 9 3095 29.71200000 3184058506 3184058506 0.33300000
21.12010384 33.33137131 -0.22933811 22 10 3096 39.46000000 3184058508 3184058508 -0.33300000
9.21546459 16.24855232 -2.01213932 1 11 3096 18.78800000 3184058508 3184058508 -6.14800000
11.71338940 16.62326050 -1.89828968 2 12 3097 20.42400000 3184058511 3184058511 -5.33300000
41.05880737 72.36476898 1.93605161 28 13 3097 83.22400000 3184058511 3184058511 1.33300000
40.51652527 57.47842026 0.81869411 28 14 3098 70.32800000 3184058513 3184058513 0.66700000
12.04892063 21.22718430 -1.70680141 2 15 3098 24.46800000 3184058513 3184058513 -4.00000000
11.85051823 18.68063545 -1.80596590 2 16 3099 22.19600000 3184058515 3184058515 -4.66700000
41.25241852 81.70133972 2.66364574 28 17 3099 91.56400000 3184058515 3184058515 1.66700000
40.75949478 64.22668457 1.32777905 28 18 3100 76.08000000 3184058518 3184058518 1.00000000
11.65921879 23.08133125 -1.65726781 3 19 3100 25.91200000 3184058518 3184058518 -3.66700000
14.89513588 21.11520195 -1.50487041 8 20 3100 25.88400000 3184058520 3184058520 -3.33300000
44.33223343 78.03884888 5.22693062 35 21 3100 89.90400000 3184058520 3184058520 3.33300000
40.17545319 63.28196716 3.05386019 28 22 3101 75.02000000 3184058522 3184058522 2.33300000
14.53233433 25.57114220 -1.37006235 2 23 3101 29.44400000 3184058522 3184058522 -2.66700000
15.13217163 23.82609940 -1.47922349 5 24 3102 28.26400000 3184058525 3184058525 -3.00000000
14.52306080 28.71340752 -1.31093729 5 27 3103 32.20400000 3184058527 3184058527 -2.33300000
18.53818130 26.24063492 -1.12194908 5 28 3104 32.14800000 3184058529 3184058529 -2.00000000
19.01124382 33.41150665 -0.89451426 5 31 3104 38.45200000 3184058532 3184058532 -1.33300000
3.09206152 4.85169554 -2.68278074 17 0 3111 6.34800000 3184058552 3184058552 -25.00000000
13.42178535 26.44434357 -0.51763839 4 1 3111 29.66000000 3184058552 3184058552 -1.00000000
19.42902184 30.47397614 -1.05179739 7 2 3112 36.15600000 3184058555 3184058555 -1.66700000
3.92811632 6.88113880 -2.21806598 21 3 3112 8.22800000 3184058555 3184058555 -15.63900000
6.52373648 10.22839260 -2.42636323 4 4 3113 12.37200000 3184058557 3184058557 -11.31000000
21.25484848 37.21842194 0.00000000 14 5 3113 42.86000000 3184058557 3184058557 0.00000000
21.07877541 29.72659492 -0.42424762 16 6 3114 36.44400000 3184058559 3184058559 -0.66700000
7.21331787 12.62580299 -2.26225305 2 7 3114 14.71600000 3184058559 3184058559 -8.84300000
9.07304668 14.21991348 -2.14706492 1 8 3114 17.00400000 3184058561 3184058561 -7.25400000
13.41570282 26.39810371 0.17210239 4 9 3114 29.61200000 3184058561 3184058561 0.33300000
21.11430550 33.07908249 -0.22808275 14 10 3115 39.24400000 3184058564 3184058564 -0.33300000
9.26732254 16.21445084 -2.01171088 1 11 3115 18.78400000 3184058564 3184058564 -6.14800000
11.75692558 16.56808472 -1.89643073 2 12 3116 20.40400000 3184058566 3184058566 -5.33300000
40.90950775 71.54779816 1.91781330 28 13 3116 82.44000000 3184058566 3184058566 1.33300000
40.47537994 57.01759338 0.81403768 28 14 3117 69.92800000 3184058568 3184058568 0.66700000
12.11528301 21.18018532 -1.70624340 2 15 3117 24.46000000 3184058568 3184058568 -4.00000000
11.89737320 18.61771774 -1.80368769 2 16 3118 22.16800000 3184058571 3184058571 -4.66700000
41.18754196 80.90490723 2.64211869 28 17 3118 90.82400000 3184058571 3184058571 1.66700000
40.86846161 63.95340729 1.32477725 28 18 3118 75.90800000 3184058573 3184058573 1.00000000
11.72986221 23.04103088 -1.65701199 3 19 3118 25.90800000 3184058573 3184058573 -3.66700000
14.90494633 20.98105049 -1.49882400 4 20 3119 25.78000000 3184058575 3184058575 -3.33300000
44.46578979 77.67307281 5.21227932 35 21 3119 89.65200000 3184058575 3184058575 3.33300000
40.28818512 62.99687576 3.04653287 28 22 3120 74.84000000 3184058578 3184058578 2.33300000
14.57932281 25.45693207 -1.36652601 2 23 3120 29.36800000 3184058578 3184058578 -2.66700000
15.21755600 23.78588295 -1.47985148 5 24 3121 28.27600000 3184058580 3184058580 -3.00000000
14.09890842 27.64680290 -1.26436818 4 27 3122 31.06000000 3184058582 3184058582 -2.33300000
19.10602188 33.32052612 -0.89376986 5 31 3123 38.42000000 3184058587 3184058587 -1.33300000
3.10701919 4.83782196 -2.68109035 10 0 3131 6.34400000 3184058608 3184058608 -25.00000000
13.44657803 26.26561165 -0.51505542 8 1 3131 29.51200000 3184058608 3184058608 -1.00000000
19.49637604 30.34542084 -1.04970288 7 2 3132 36.08400000 3184058610 3184058610 -1.66700000
3.92713523 6.82398415 -2.20404816 16 3 3132 8.17600000 3184058610 3184058610 -15.63900000
6.55727959 10.20225811 -2.42557859 4 4 3133 12.36800000 3184058613 3184058613 -11.31000000
21.25091934 36.91174316 0.00000000 14 5 3133 42.59200000 3184058613 3184058613 0.00000000
21.07496452 29.51330948 -0.42219880 16 6 3133 36.26800000 3184058615 3184058615 -0.66700000
7.25514698 12.60181332 -2.26225305 2 7 3133 14.71600000 3184058615 3184058615 -8.84300000
9.11833668 14.18148136 -2.14605474 1 8 3134 16.99600000 3184058617 3184058617 -7.25400000
13.55338383 26.44009972 0.17268358 4 9 3134 29.71200000 3184058617 3184058617 0.33300000
21.10413933 32.81005859 -0.22673437 14 10 3135 39.01200000 3184058620 3184058620 -0.33300000
9.31393719 16.16477394 -2.00956893 1 11 3135 18.76400000 3184058620 3184058620 -6.14800000
11.79615879 16.50102615 -1.89345658 2 12 3136 20.37200000 3184058622 3184058622 -5.33300000
41.04117966 71.20015717 1.91232312 28 13 3136 82.20400000 3184058622 3184058622 1.33300000
40.51129913 56.64822388 0.81077814 28 14 3137 69.64800000 3184058624 3184058624 0.66700000
12.18316269 21.12739563 -1.70540631 2 15 3137 24.44800000 3184058624 3184058624 -4.00000000
11.96012974 18.57272339 -1.80336213 2 16 3138 22.16400000 3184058626 3184058626 -4.66700000
14.40280437 28.04890633 0.91763180 4 17 3138 31.54400000 3184058626 3184058626 1.66700000
40.60641861 63.05715561 1.30913997 28 18 3138 75.01200000 3184058629 3184058629 1.00000000
11.77010441 22.92182350 -1.65138364 3 19 3138 25.82000000 3184058629 3184058629 -3.66700000
15.04316425 21.01981926 -1.50533557 4 20 3139 25.89200000 3184058631 3184058631 -3.33300000
44.86439133 77.73873901 5.22716331 35 21 3139 89.90800000 3184058631 3184058631 3.33300000
40.30865479 62.54678726 3.03155255 28 22 3140 74.47200000 3184058633 3184058633 2.33300000
14.64611912 25.36782265 -1.36447871 2 23 3140 29.32400000 3184058633 3184058633 -2.66700000
15.28317642 23.70575905 -1.47817671 5 24 3141 28.24400000 3184058636 3184058636 -3.00000000
14.10209370 27.41616249 -1.25606382 4 27 3142 30.85600000 3184058638 3184058638 -2.33300000
18.58828163 25.93513680 -1.11427116 15 28 3143 31.92800000 3184058640 3184058640 -2.00000000
19.21421051 33.23978424 -0.89339763 5 31 3143 38.40400000 3184058643 3184058643 -1.33300000
3.10305762 4.79292727 -2.66249514 15 0 3152 6.30000000 3184058663 3184058663 -25.00000000
13.61434269 26.35473061 -0.51777798 4 1 3152 29.66800000 3184058663 3184058663 -1.00000000
19.58790398 30.24355507 -1.04865563 6 2 3153 36.04800000 3184058666 3184058666 -1.66700000
3.95018625 6.80621290 -2.20296979 25 3 3153 8.17200000 3184058666 3184058666 -15.63900000
6.59249592 10.17486477 -2.42479420 4 4 3154 12.36400000 3184058668 3184058668 -11.31000000
21.25551605 36.60876083 0.00000000 21 5 3154 42.33200000 3184058668 3184058668 0.00000000
21.07318878 29.28328323 -0.42001027 23 6 3154 36.08000000 3184058670 3184058670 -0.66700000
7.29533243 12.56488323 -2.26040840 2 7 3154 14.70400000 3184058670 3184058670 -8.84300000
9.16377831 14.13797665 -2.14453959 1 8 3155 16.98400000 3184058673 3184058673 -7.25400000
13.65020084 26.39024734 0.17268358 4 9 3155 29.71200000 3184058673 3184058673 0.33300000
21.10891533 32.55461502 -0.22550225 14 10 3156 38.80000000 3184058675 3184058675 -0.33300000
9.37312126 16.13052750 -2.00956893 1 11 3156 18.76400000 3184058675 3184058675 -6.14800000
11.85888672 16.46091080 -1.89382839 2 12 3157 20.37600000 3184058677 3184058677 -5.33300000
40.88987350 70.34052277 1.89324737 28 13 3157 81.38400000 3184058677 3184058677 1.33300000
40.61809540 56.35983276 0.80877590 28 14 3158 69.47600000 3184058679 3184058679 0.66700000
12.26252270 21.08605003 -1.70568526 2 15 3158 24.45200000 3184058679 3184058679 -4.00000000
12.03680515 18.54213905 -1.80466402 2 16 3159 22.18000000 3184058682 3184058682 -4.66700000
40.57165527 78.30410767 2.56659961 28 17 3159 88.22800000 3184058682 3184058682 1.66700000
40.67176056 62.65295792 1.30383444 28 18 3159 74.70800000 3184058684 3184058684 1.00000000
11.85220146 22.87498474 -1.65112782 3 19 3159 25.81600000 3184058684 3184058684 -3.66700000
15.14112759 20.99369240 -1.50742853 4 20 3160 25.92800000 3184058686 3184058686 -3.33300000
45.10281754 77.49440002 5.22181416 35 21 3160 89.81600000 3184058686 3184058686 3.33300000
40.13264465 61.77524567 3.00126648 28 22 3161 73.72800000 3184058689 3184058689 2.33300000
14.71286106 25.26908112 -1.36205900 2 23 3161 29.27200000 3184058689 3184058689 -2.66700000
15.36778259 23.64623642 -1.47796738 5 24 3162 28.24000000 3184058691 3184058691 -3.00000000
14.16750240 27.29689217 -1.25297010 4 27 3163 30.78000000 3184058693 3184058693 -2.33300000
18.64342308 25.81174278 -1.11189795 5 28 3164 31.86000000 3184058696 3184058696 -2.00000000
19.26743698 33.05167389 -0.89023387 5 31 3164 38.26800000 3184058698 3184058698 -1.33300000
