# .PCD v0.7 - Point Cloud Data file format
VERSION 0.7
FIELDS x y z intensity laser_id azimuth distance_m adjustedtime timestamp vertical_angle
SIZE 4 4 4 1 1 2 8 8 4 8
TYPE F F F U U U F U U F
COUNT 1 1 1 1 1 1 1 1 1 1
WIDTH 508
HEIGHT 1
VIEWPOINT 0 0 0 1 0 0 0
POINTS 508
DATA ascii
38.25176620 -50.96509171 -2.59614754 28 27 14731 63.77600000 3187390664 3187390664 -2.33300000
38.83213425 -71.57946777 -2.84375048 28 28 14732 81.48400000 3187390667 3187390667 -2.00000000
38.29067230 -56.59763336 -1.59008217 37 31 14732 68.35200000 3187390669 3187390669 -1.33300000
3.22352123 -5.32056999 -2.90085173 17 0 14739 6.86400000 3187390689 3187390689 -25.00000000
38.12494659 -50.94412994 -1.11067116 56 1 14739 63.64000000 3187390689 3187390689 -1.00000000
38.20592880 -63.08548737 -2.14641595 28 2 14740 73.78400000 3187390691 3187390691 -1.66700000
5.93417311 -8.79777336 -2.97072053 6 3 14740 11.02000000 3187390691 3187390691 -15.63900000
7.72293806 -12.75711060 -2.98255181 3 4 14741 15.20800000 3187390694 3187390694 -11.31000000
38.16286469 -56.60008240 0.00000000 48 5 14741 68.26400000 3187390694 3187390694 0.00000000
36.89973068 -68.27310181 -0.90348774 29 6 14741 77.61200000 3187390696 3187390696 -0.66700000
10.14653778 -15.04852486 -2.82366586 3 7 14741 18.36800000 3187390696 3187390696 -8.84300000
11.85147762 -19.58454132 -2.91376543 2 8 14742 23.07600000 3187390698 3187390698 -7.25400000
38.31897354 -51.25931931 0.37196249 56 9 14742 64.00000000 3187390698 3187390698 0.33300000
37.77642441 -62.45006180 -0.42419997 28 10 14743 72.98800000 3187390701 3187390701 -0.33300000
14.09084511 -20.91415024 -2.71640944 48 11 14743 25.36400000 3187390701 3187390701 -6.14800000
15.12695503 -28.02346230 -2.97272301 4 12 14744 31.98400000 3187390703 3187390703 -5.33300000
42.36052322 -62.89672852 1.76455569 26 13 14744 75.85200000 3187390703 3187390703 1.33300000
36.58425522 -67.80252075 0.89692217 28 14 14745 77.04800000 3187390705 3187390705 0.66700000
19.81524658 -29.43268204 -2.48109818 14 15 14745 35.56800000 3187390705 3187390705 -4.00000000
17.69939995 -29.29437065 -2.79405594 6 16 14746 34.34000000 3187390707 3187390707 -4.66700000
39.98488235 -53.56574631 1.94534218 28 17 14746 66.87200000 3187390707 3187390707 1.66700000
38.57623291 -63.84772873 1.30208910 28 18 14746 74.60800000 3187390710 3187390710 1.00000000
19.97189522 -26.75535011 -2.13976336 11 19 14746 33.45600000 3187390710 3187390710 -3.66700000
19.82534218 -36.77351379 -2.43300176 19 20 14747 41.84800000 3187390712 3187390712 -3.33300000
42.22061539 -62.75989532 4.40507746 36 21 14747 75.76800000 3187390712 3187390712 3.33300000
39.16199875 -64.86837769 3.08707738 28 22 14748 75.83600000 3187390714 3187390714 2.33300000
19.93593979 -29.64544868 -1.66413915 11 23 14748 35.76400000 3187390714 3187390714 -2.66700000
19.82374763 -32.84923553 -2.01074743 26 24 14749 38.42000000 3187390717 3187390717 -3.00000000
38.20197678 -51.25188065 -2.60428905 28 27 14750 63.97600000 3187390719 3187390719 -2.33300000
38.87874222 -72.23586273 -2.86469030 28 28 14751 82.08400000 3187390721 3187390721 -2.00000000
38.22541428 -56.90687180 -1.59520006 37 31 14751 68.57200000 3187390724 3187390724 -1.33300000
3.21987057 -5.35664654 -2.91437554 17 0 14759 6.89600000 3187390744 3187390744 -25.00000000
38.21640396 -51.43967056 -1.11855960 28 1 14759 64.09200000 3187390744 3187390744 -1.00000000
38.23260117 -63.62973022 -2.16037941 28 2 14760 74.26400000 3187390747 3187390747 -1.66700000
5.90985537 -8.82803631 -2.97395539 6 3 14760 11.03200000 3187390747 3187390747 -15.63900000
7.68845797 -12.80080318 -2.98647404 3 4 14761 15.22800000 3187390749 3187390749 -11.31000000
38.29652786 -57.22827530 0.00000000 48 5 14761 68.86000000 3187390749 3187390749 0.00000000
37.06175232 -69.14884949 -0.91335940 29 6 14761 78.46000000 3187390751 3187390751 -0.66700000
10.10713577 -15.10356045 -2.82735515 3 7 14761 18.39200000 3187390751 3187390751 -8.84300000
11.83206177 -19.70743752 -2.92588735 2 8 14762 23.17200000 3187390754 3187390754 -7.25400000
38.39248657 -51.73324585 0.37442672 56 9 14762 64.42400000 3187390754 3187390754 0.33300000
37.78667450 -62.96223831 -0.42678043 56 10 14763 73.43200000 3187390756 3187390756 -0.33300000
14.04649448 -21.00618744 -2.72197866 34 11 14763 25.41600000 3187390756 3187390756 -6.14800000
15.09294796 -28.19547653 -2.98536348 4 12 14764 32.12000000 3187390758 3187390758 -5.33300000
42.04515457 -62.90125275 1.76055443 26 13 14764 75.68000000 3187390758 3187390758 1.33300000
37.28330994 -69.67901611 0.92001808 28 14 14765 79.03200000 3187390760 3187390760 0.66700000
19.80992889 -29.64765358 -2.49337530 14 15 14765 35.74400000 3187390760 3187390760 -4.00000000
17.58883667 -29.34229660 -2.79275417 18 16 14766 34.32400000 3187390763 3187390763 -4.66700000
39.91906357 -53.86882782 1.95127666 56 17 14766 67.07600000 3187390763 3187390763 1.66700000
38.37574768 -64.01972961 1.30285704 28 18 14766 74.65200000 3187390765 3187390765 1.00000000
19.97106934 -26.94998169 -2.14974093 12 19 14766 33.61200000 3187390765 3187390765 -3.66700000
19.79287529 -37.02209473 -2.44486213 19 20 14767 42.05200000 3187390767 3187390767 -3.33300000
42.73966980 -64.01279449 4.48251867 38 21 14767 77.10000000 3187390767 3187390767 3.33300000
38.91479111 -64.97039795 3.08544898 57 22 14768 75.79600000 3187390770 3187390770 2.33300000
19.91884422 -29.84447289 -1.67139792 11 23 14768 35.92000000 3187390770 3187390770 -2.66700000
19.81976700 -33.10330200 -2.02205205 17 24 14769 38.63600000 3187390772 3187390772 -3.00000000
38.36279678 -51.84434509 -2.62757349 57 27 14770 64.54800000 3187390774 3187390774 -2.33300000
38.72047043 -72.54747009 -2.87167025 28 28 14771 82.28400000 3187390777 3187390777 -2.00000000
38.13745117 -57.20632172 -1.59985268 38 31 14771 68.77200000 3187390779 3187390779 -1.33300000
3.26518559 -5.47739983 -2.97354198 17 0 14780 7.03600000 3187390800 3187390800 -25.00000000
38.32664871 -51.98500061 -1.12735569 56 1 14780 64.59600000 3187390800 3187390800 -1.00000000
38.72366333 -64.98533630 -2.20157170 28 2 14781 75.68000000 3187390802 3187390802 -1.66700000
5.87959003 -8.85284615 -2.97503376 6 3 14781 11.03600000 3187390802 3187390802 -15.63900000
7.64550352 -12.83563709 -2.98804307 3 4 14782 15.23600000 3187390804 3187390804 -11.31000000
38.37191772 -57.79814148 0.00000000 49 5 14782 69.37600000 3187390804 3187390804 0.00000000
37.43481827 -70.46398163 -0.92891186 29 6 14782 79.79600000 3187390807 3187390807 -0.66700000
10.07138538 -15.17013931 -2.83288956 3 7 14782 18.42800000 3187390807 3187390807 -8.84300000
11.76787090 -19.76430893 -2.92790747 2 8 14783 23.18800000 3187390809 3187390809 -7.25400000
38.43032455 -52.18280411 0.37665850 56 9 14783 64.80800000 3187390809 3187390809 0.33300000
37.72340393 -63.38216400 -0.42868677 56 10 14784 73.76000000 3187390811 3187390811 -0.33300000
14.01557732 -21.12712479 -2.73097467 11 11 14784 25.50000000 3187390811 3187390811 -6.14800000
15.01003838 -28.28930473 -2.98945308 4 12 14785 32.16400000 3187390813 3187390813 -5.33300000
41.77675629 -62.99827957 1.75897253 26 13 14785 75.61200000 3187390813 3187390813 1.33300000
37.11575317 -69.98127747 0.92220658 28 14 14786 79.22000000 3187390816 3187390816 0.66700000
19.79372787 -29.85974884 -2.50509453 14 15 14786 35.91200000 3187390816 3187390816 -4.00000000
17.53210258 -29.49223900 -2.80089068 18 16 14787 34.42400000 3187390818 3187390818 -4.66700000
40.54330826 -55.13249969 1.99165428 28 17 14787 68.46400000 3187390818 3187390818 1.66700000
38.15824890 -64.21474457 1.30383444 28 18 14788 74.70800000 3187390820 3187390820 1.00000000
19.95965004 -27.15190125 -2.15971828 12 19 14788 33.76800000 3187390820 3187390820 -3.66700000
19.81411171 -37.39077759 -2.46439672 19 20 14788 42.38800000 3187390823 3187390823 -3.33300000
42.57973862 -64.28220367 4.49042559 38 21 14788 77.23600000 3187390823 3187390823 3.33300000
38.80498886 -65.32907104 3.09570718 28 22 14789 76.04800000 3187390825 3187390825 2.33300000
19.90859222 -30.06719780 -1.67977357 11 23 14789 36.10000000 3187390825 3187390825 -2.66700000
19.80434990 -33.35432816 -2.03293777 26 24 14790 38.84400000 3187390827 3187390827 -3.00000000
38.19617462 -52.01681519 -2.62920189 57 27 14791 64.58800000 3187390830 3187390830 -2.33300000
38.59077454 -72.94684601 -2.88186073 28 28 14792 82.57600000 3187390832 3187390832 -2.00000000
38.15473938 -57.68926620 -1.60943711 38 31 14792 69.18400000 3187390834 3187390834 -1.33300000
3.24050975 -5.47940254 -2.96847057 17 0 14800 7.02400000 3187390855 3187390855 -25.00000000
38.26541901 -52.28306580 -1.13091588 28 1 14800 64.80000000 3187390855 3187390855 -1.00000000
38.35211945 -64.87573242 -2.19331002 28 2 14801 75.39600000 3187390857 3187390857 -1.66700000
5.85501194 -8.88296413 -2.97826862 7 3 14801 11.04800000 3187390857 3187390857 -15.63900000
7.60863400 -12.87575340 -2.99118090 3 4 14802 15.25200000 3187390859 3187390859 -11.31000000
38.27336884 -58.08871841 0.00000000 49 5 14802 69.56400000 3187390859 3187390859 0.00000000
37.27134705 -70.78120422 -0.93128663 29 6 14803 80.00000000 3187390862 3187390862 -0.66700000
10.03310871 -15.23335743 -2.83780885 3 7 14803 18.46000000 3187390862 3187390862 -8.84300000
11.72100830 -19.84284782 -2.93346334 2 8 14803 23.23200000 3187390864 3187390864 -7.25400000
38.37069321 -52.48454285 0.37786737 56 9 14803 65.01600000 3187390864 3187390864 0.33300000
37.72157288 -63.88544464 -0.43119749 56 10 14804 74.19200000 3187390866 3187390866 -0.33300000
14.93530655 -28.38734818 -2.99428606 4 12 14805 32.21600000 3187390869 3187390869 -5.33300000
41.67750931 -63.32744598 1.76409042 26 13 14805 75.83200000 3187390869 3187390869 1.33300000
36.98108673 -70.31926727 0.92495388 28 14 14806 79.45600000 3187390871 3187390871 0.66700000
19.78148651 -30.06866837 -2.51681352 14 15 14806 36.08000000 3187390871 3187390871 -4.00000000
17.49993134 -29.67344856 -2.81228161 19 16 14807 34.56400000 3187390873 3187390873 -4.66700000
44.67423248 -61.19633102 2.20506239 28 17 14807 75.80000000 3187390873 3187390873 1.66700000
38.21936798 -64.80599213 1.31325865 28 18 14807 75.24800000 3187390876 3187390876 1.00000000
19.95423317 -27.33400917 -2.16892815 12 19 14807 33.91200000 3187390876 3187390876 -3.66700000
19.78934860 -37.66120529 -2.47765255 9 20 14808 42.61600000 3187390878 3187390878 -3.33300000
40.95561218 -62.30155945 4.34205484 35 21 14808 74.68400000 3187390878 3187390878 3.33300000
38.69033813 -65.65695190 3.10482574 28 22 14809 76.27200000 3187390880 3187390880 2.33300000
19.90006447 -30.28343391 -1.68796301 12 23 14809 36.27600000 3187390880 3187390880 -2.66700000
19.80133438 -33.61599350 -2.04466105 18 24 14810 39.06800000 3187390883 3187390883 -3.00000000
69.27763367 -117.65703583 11.14628220 28 26 14811 136.99200000 3187390885 3187390885 4.66700000
38.01436996 -52.14982986 -2.62920189 57 27 14811 64.58800000 3187390885 3187390885 -2.33300000
38.48260880 -73.36077881 -2.89288902 28 28 14812 82.89200000 3187390887 3187390887 -2.00000000
38.25674820 -58.30683899 -1.62274361 39 31 14813 69.75600000 3187390889 3187390889 -1.33300000
3.21314645 -5.47448587 -2.96001840 18 0 14819 7.00400000 3187390910 3187390910 -25.00000000
38.24937057 -52.62642670 -1.13559318 28 1 14819 65.06800000 3187390910 3187390910 -1.00000000
37.83935165 -64.49561310 -2.17620468 28 2 14820 74.80800000 3187390912 3187390912 -1.66700000
5.83395910 -8.91522408 -2.98258185 6 3 14820 11.06400000 3187390912 3187390912 -15.63900000
7.57581615 -12.91783047 -2.99510336 3 4 14821 15.27200000 3187390915 3187390915 -11.31000000
38.22723770 -58.43959808 0.00000000 49 5 14821 69.83200000 3187390915 3187390915 0.00000000
38.06974030 -72.88264465 -0.95726955 29 6 14822 82.23200000 3187390917 3187390917 -0.66700000
9.99335289 -15.28308487 -2.84088326 3 7 14822 18.48000000 3187390917 3187390917 -8.84300000
11.66116238 -19.89187622 -2.93497849 5 8 14822 23.24400000 3187390919 3187390919 -7.25400000
38.39853668 -52.88986588 0.37986669 56 9 14822 65.36000000 3187390919 3187390919 0.33300000
37.61264801 -64.18618774 -0.43238312 28 10 14823 74.39600000 3187390922 3187390922 -0.33300000
13.92149162 -21.29860115 -2.74082756 2 11 14823 25.59200000 3187390922 3187390922 -6.14800000
14.88715553 -28.52498817 -3.00358057 4 12 14824 32.31600000 3187390924 3187390924 -5.33300000
41.46509171 -63.46195602 1.76399744 26 13 14824 75.82800000 3187390924 3187390924 1.33300000
36.85684586 -70.65074158 0.92770118 28 14 14825 79.69200000 3187390926 3187390926 0.66700000
19.77767563 -30.28109741 -2.52909064 10 15 14825 36.25600000 3187390926 3187390926 -4.00000000
17.46788979 -29.84486198 -2.82302165 12 16 14826 34.69600000 3187390929 3187390929 -4.66700000
43.66846085 -60.23703003 2.16526651 28 17 14826 74.43200000 3187390929 3187390929 1.66700000
38.16788864 -65.21195984 1.31891322 28 18 14826 75.57200000 3187390931 3187390931 1.00000000
19.95485497 -27.52607346 -2.17890549 12 19 14826 34.06800000 3187390931 3187390931 -3.66700000
19.77693939 -37.94262695 -2.49183846 9 20 14827 42.86000000 3187390933 3187390933 -3.33300000
40.64403152 -62.27651596 4.33089209 35 21 14827 74.49200000 3187390933 3187390933 3.33300000
38.47038269 -65.78144836 3.10466290 28 22 14828 76.26800000 3187390936 3187390936 2.33300000
19.89559364 -30.49650383 -1.69615257 12 23 14828 36.45200000 3187390936 3187390936 -2.66700000
19.80466080 -33.87803650 -2.05659366 18 24 14829 39.29600000 3187390938 3187390938 -3.00000000
68.90518951 -117.91709900 11.14921093 28 26 14830 137.02800000 3187390940 3187390940 4.66700000
37.95371628 -52.43100357 -2.63701773 85 27 14830 64.78000000 3187390940 3187390940 -2.33300000
38.21697998 -73.44543457 -2.89121389 28 28 14831 82.84400000 3187390942 3187390942 -2.00000000
38.19345856 -58.61100769 -1.62786150 40 31 14831 69.97600000 3187390945 3187390945 -1.33300000
3.19948959 -5.49506712 -2.96508980 16 0 14839 7.01600000 3187390965 3187390965 -25.00000000
38.19882202 -52.94449234 -1.13957238 28 1 14839 65.29600000 3187390965 3187390965 -1.00000000
38.69804382 -66.48989105 -2.23892379 28 2 14840 76.96400000 3187390968 3187390968 -1.66700000
5.80699968 -8.94199467 -2.98473835 6 3 14840 11.07200000 3187390968 3187390968 -15.63900000
7.53067827 -12.94419670 -2.99510336 3 4 14841 15.27200000 3187390970 3187390970 -11.31000000
38.15804672 -58.78069305 0.00000000 49 5 14841 70.08000000 3187390970 3187390970 0.00000000
37.89408493 -73.13633728 -0.95894587 29 6 14841 82.37600000 3187390972 3187390972 -0.66700000
9.95768166 -15.33934593 -2.84518766 3 7 14841 18.50800000 3187390972 3187390972 -8.84300000
11.61160374 -19.96676064 -2.94002938 2 8 14842 23.28400000 3187390975 3187390975 -7.25400000
38.47561264 -53.38702011 0.38247043 56 9 14842 65.80800000 3187390975 3187390975 0.33300000
37.79242706 -65.01216125 -0.43705592 56 10 14843 75.20000000 3187390977 3187390977 -0.33300000
13.94228935 -21.49387360 -2.75967669 3 11 14843 25.76800000 3187390977 3187390977 -6.14800000
14.81494999 -28.62983704 -3.00915718 4 12 14844 32.37600000 3187390979 3187390979 -5.33300000
41.14541245 -63.45532227 1.75980997 52 13 14844 75.64800000 3187390979 3187390979 1.33300000
36.51812363 -70.60133362 0.92537296 28 14 14845 79.49200000 3187390982 3187390982 0.66700000
19.77385902 -30.50732422 -2.54220486 10 15 14845 36.44400000 3187390982 3187390982 -4.00000000
17.39363289 -29.95737076 -2.82790375 6 16 14846 34.75600000 3187390984 3187390984 -4.66700000
43.13796997 -59.94448471 2.14932513 56 17 14846 73.88400000 3187390984 3187390984 1.66700000
37.99023056 -65.43125916 1.32065845 28 18 14846 75.67200000 3187390986 3187390986 1.00000000
19.94492149 -27.71544266 -2.18837118 12 19 14846 34.21600000 3187390986 3187390986 -3.66700000
19.80387497 -38.32006454 -2.51207089 9 20 14847 43.20800000 3187390989 3187390989 -3.33300000
41.15794754 -63.54751968 4.40926313 37 21 14847 75.84000000 3187390989 3187390989 3.33300000
38.27261734 -65.97064209 3.10726810 28 22 14848 76.33200000 3187390991 3187390991 2.33300000
19.89325142 -30.72676277 -1.70508647 12 23 14848 36.64400000 3187390991 3187390991 -2.66700000
19.79048538 -34.12664795 -2.06747961 18 24 14849 39.50400000 3187390993 3187390993 -3.00000000
68.35520172 -117.91891479 11.12675476 28 26 14850 136.75200000 3187390995 3187390995 4.66700000
38.02234650 -52.91369629 -2.65460324 57 27 14850 65.21200000 3187390995 3187390995 -2.33300000
38.60004425 -74.81825256 -2.93993354 28 28 14851 84.24000000 3187390998 3187390998 -2.00000000
38.12166595 -58.97224808 -1.63400292 20 31 14852 70.24000000 3187391000 3187391000 -1.33300000
3.17932773 -5.50675726 -2.96508980 21 0 14860 7.01600000 3187391021 3187391021 -25.00000000
38.03245163 -53.12316513 -1.14041007 28 1 14860 65.34400000 3187391021 3187391021 -1.00000000
38.56800079 -66.82867432 -2.24555659 28 2 14861 77.19200000 3187391023 3187391023 -1.66700000
5.78044462 -8.97293282 -2.98797321 6 3 14861 11.08400000 3187391023 3187391023 -15.63900000
7.49886465 -12.99889088 -3.00137901 3 4 14862 15.30400000 3187391025 3187391025 -11.31000000
38.12642670 -59.20601273 0.00000000 49 5 14862 70.42000000 3187391025 3187391025 0.00000000
37.43941498 -72.91181183 -0.95419633 29 6 14862 81.96800000 3187391028 3187391028 -0.66700000
9.91423321 -15.39567852 -2.84887719 3 7 14862 18.53200000 3187391028 3187391028 -8.84300000
11.57996941 -20.08137131 -2.95063591 2 8 14863 23.36800000 3187391030 3187391030 -7.25400000
38.49141312 -53.82375717 0.38458595 56 9 14863 66.17200000 3187391030 3187391030 0.33300000
37.35013962 -64.79676819 -0.43468463 28 10 14864 74.79200000 3187391032 3187391032 -0.33300000
13.87417698 -21.56155205 -2.76181865 3 11 14864 25.78800000 3187391032 3187391032 -6.14800000
14.76807308 -28.79734802 -3.02105403 4 12 14865 32.50400000 3187391035 3187391035 -5.33300000
40.91688919 -63.61242676 1.75999618 26 13 14865 75.65600000 3187391035 3187391035 1.33300000
36.31019974 -70.83436584 0.92667681 28 14 14866 79.60400000 3187391037 3187391037 0.66700000
19.75902367 -30.73062897 -2.55476117 10 15 14866 36.62400000 3187391037 3187391037 -4.00000000
17.38317490 -30.19367218 -2.84417653 6 16 14867 34.95600000 3187391039 3187391039 -4.66700000
43.49653244 -60.91240311 2.17829919 28 17 14867 74.88000000 3187391039 3187391039 1.66700000
38.01355743 -66.02758026 1.32987332 28 18 14867 76.20000000 3187391042 3187391042 1.00000000
19.94063568 -27.92479897 -2.19911599 12 19 14867 34.38400000 3187391042 3187391042 -3.66700000
19.77069283 -38.60208893 -2.52579165 19 20 14868 43.44400000 3187391044 3187391044 -3.33300000
40.71970367 -63.37878418 4.38717031 36 21 14868 75.46000000 3187391044 3187391044 3.33300000
37.99070740 -66.04119110 3.10401154 28 22 14869 76.25200000 3187391046 3187391046 2.33300000
19.88414192 -30.96084595 -1.71402049 12 23 14869 36.83600000 3187391046 3187391046 -2.66700000
19.77877235 -34.39633942 -2.07941222 18 24 14870 39.73200000 3187391048 3187391048 -3.00000000
67.81526947 -117.98200989 11.10917950 28 26 14871 136.53600000 3187391051 3187391051 4.66700000
38.16923904 -53.53106308 -2.67853904 57 27 14871 65.80000000 3187391051 3187391051 -2.33300000
38.50936508 -75.31871796 -2.95403290 28 28 14872 84.64400000 3187391053 3187391053 -2.00000000
38.61113358 -60.21234512 -1.66443110 21 31 14873 71.54800000 3187391055 3187391055 -1.33300000
3.16368937 -5.52411318 -2.96847057 14 0 14880 7.02400000 3187391076 3187391076 -25.00000000
38.13869858 -53.66635895 -1.14920604 56 1 14880 65.84800000 3187391076 3187391076 -1.00000000
38.84302139 -67.85119629 -2.27534533 28 2 14881 78.21600000 3187391078 3187391078 -1.66700000
5.75323772 -8.99954700 -2.99012995 6 3 14881 11.09200000 3187391078 3187391078 -15.63900000
7.46123648 -13.03860474 -3.00451684 3 4 14882 15.32000000 3187391081 3187391081 -11.31000000
38.21676636 -59.80387497 0.00000000 50 5 14882 70.97200000 3187391081 3187391081 0.00000000
37.21189499 -73.09552765 -0.95489478 29 6 14882 82.02800000 3187391083 3187391083 -0.66700000
9.87958622 -15.46016598 -2.85441136 3 7 14882 18.56800000 3187391083 3187391083 -8.84300000
11.52359390 -20.14578056 -2.95417142 5 8 14883 23.39600000 3187391085 3187391085 -7.25400000
38.53252029 -54.28069305 0.38688746 56 9 14883 66.56800000 3187391085 3187391085 0.33300000
37.42353058 -65.45108032 -0.43819505 28 10 14884 75.39600000 3187391088 3187391088 -0.33300000
13.82237244 -21.64672089 -2.76653099 3 11 14884 25.83200000 3187391088 3187391088 -6.14800000
14.68190193 -28.87712479 -3.02402830 4 12 14885 32.53600000 3187391090 3187391090 -5.33300000
40.89253235 -64.06497955 1.76855695 26 13 14885 76.02400000 3187391090 3187391090 1.33300000
36.25661469 -71.34220886 0.93165916 28 14 14886 80.03200000 3187391092 3187391092 0.66700000
19.75894928 -30.96760559 -2.56871247 10 15 14886 36.82400000 3187391092 3187391092 -4.00000000
17.30732918 -30.30609703 -2.84905839 6 16 14887 35.01600000 3187391095 3187391095 -4.66700000
43.26977158 -61.04429245 2.17760110 28 17 14887 74.85600000 3187391095 3187391095 1.66700000
37.71937943 -66.04872894 1.32763946 28 18 14887 76.07200000 3187391097 3187391097 1.00000000
19.93075752 -28.11798859 -2.20883751 12 19 14887 34.53600000 3187391097 3187391097 -3.66700000
19.73526192 -38.86669540 -2.53858232 19 20 14888 43.66400000 3187391099 3187391099 -3.33300000
40.20197296 -63.05587387 4.35507774 35 21 14888 74.90800000 3187391099 3187391099 3.33300000
37.76192856 -66.17687225 3.10417438 28 22 14889 76.25600000 3187391101 3187391101 2.33300000
19.87687683 -31.18843460 -1.72276831 12 23 14889 37.02400000 3187391101 3187391101 -2.66700000
19.77337456 -34.66641617 -2.09155416 18 24 14890 39.96400000 3187391104 3187391104 -3.00000000
68.26792145 -119.73496246 11.25172997 28 26 14891 138.28800000 3187391106 3187391106 4.66700000
38.22459030 -54.00650787 -2.69563603 28 27 14891 66.22000000 3187391106 3187391106 -2.33300000
38.51552200 -75.98396301 -2.97483301 28 28 14892 85.24000000 3187391108 3187391108 -2.00000000
38.40930557 -60.36025238 -1.66480339 21 31 14893 71.56400000 3187391111 3187391111 -1.33300000
3.17857099 -5.59075165 -2.99889922 17 0 14898 7.09600000 3187391131 3187391131 -25.00000000
38.10369110 -53.97541428 -1.15325499 28 1 14898 66.08000000 3187391131 3187391131 -1.00000000
38.75017929 -68.18493652 -2.28244328 28 2 14899 78.46000000 3187391134 3187391134 -1.66700000
5.72906542 -9.02408028 -2.99228644 6 3 14899 11.10000000 3187391134 3187391134 -15.63900000
7.42798758 -13.07562256 -3.00765467 3 4 14900 15.33600000 3187391136 3187391136 -11.31000000
38.28160858 -60.32216263 0.00000000 25 5 14900 71.44400000 3187391136 3187391136 0.00000000
37.85852432 -74.94713593 -0.97752506 29 6 14900 83.97200000 3187391138 3187391138 -0.66700000
9.84791088 -15.51782417 -2.85933065 3 7 14900 18.60000000 3187391138 3187391138 -8.84300000
11.46612453 -20.19223595 -2.95568657 2 8 14901 23.40800000 3187391141 3187391141 -7.25400000
38.50011063 -54.59761429 0.38828233 56 9 14901 66.80800000 3187391141 3187391141 0.33300000
37.31250381 -65.73529816 -0.43931094 56 10 14902 75.58800000 3187391143 3187391143 -0.33300000
13.82032299 -21.79415703 -2.77981091 3 11 14902 25.95600000 3187391143 3187391143 -6.14800000
14.62519169 -28.99066734 -3.03109193 4 12 14903 32.61200000 3187391145 3187391145 -5.33300000
40.57759476 -64.01412201 1.76362514 26 13 14903 75.81200000 3187391145 3187391145 1.33300000
37.13985825 -73.65214539 0.96029621 28 14 14904 82.49200000 3187391147 3187391147 0.66700000
19.75980759 -31.18457413 -2.58154750 10 15 14904 37.00800000 3187391147 3187391147 -4.00000000
17.26315498 -30.45049095 -2.85752034 6 16 14905 35.12000000 3187391150 3187391150 -4.66700000
43.16755676 -61.30742645 2.18213916 56 17 14905 75.01200000 3187391150 3187391150 1.66700000
38.04425049 -67.10627747 1.34648812 28 18 14905 77.15200000 3187391152 3187391152 1.00000000
19.93424988 -28.31101990 -2.21907067 12 19 14905 34.69600000 3187391152 3187391152 -3.66700000
19.77836037 -39.25659180 -2.55997729 19 20 14906 44.03200000 3187391154 3187391154 -3.33300000
39.98231888 -63.14812088 4.35275221 35 21 14906 74.86800000 3187391154 3187391154 3.33300000
37.56763077 -66.31951904 3.10531425 28 22 14907 76.28400000 3187391157 3187391157 2.33300000
19.88136673 -31.41278648 -1.73170233 12 23 14907 37.21600000 3187391157 3187391157 -2.66700000
19.78049278 -34.93344498 -2.10390544 19 24 14908 40.20000000 3187391159 3187391159 -3.00000000
66.34201050 -117.21137238 10.99494362 28 26 14909 135.13200000 3187391161 3187391161 4.66700000
38.27770615 -54.44346619 -2.71143055 28 27 14909 66.60800000 3187391161 3187391161 -2.33300000
38.56221390 -76.67242432 -2.99702907 28 28 14910 85.87600000 3187391164 3187391164 -2.00000000
38.33484268 -60.66316605 -1.66982818 21 31 14911 71.78000000 3187391166 3187391166 -1.33300000
3.15547466 -5.59549761 -2.99551821 18 0 14918 7.08800000 3187391187 3187391187 -25.00000000
38.02980423 -54.27185822 -1.15674555 28 1 14918 66.28000000 3187391187 3187391187 -1.00000000
38.80644226 -68.84223938 -2.29989767 28 2 14919 79.06000000 3187391189 3187391189 -1.66700000
5.70369005 -9.05380154 -2.99552131 7 3 14919 11.11200000 3187391189 3187391189 -15.63900000
7.39770365 -13.12880898 -3.01393056 1 4 14920 15.36800000 3187391191 3187391191 -11.31000000
38.27756882 -60.78374863 0.00000000 50 5 14920 71.83200000 3187391191 3187391191 0.00000000
37.46056747 -74.80702972 -0.97398615 29 6 14920 83.66800000 3187391194 3187391194 -0.66700000
9.80632019 -15.57217312 -2.86301994 3 7 14920 18.62400000 3187391194 3187391194 -8.84300000
11.40530777 -20.24942207 -2.95821190 2 8 14921 23.42800000 3187391196 3187391196 -7.25400000
38.44921112 -54.93156815 0.38970044 56 9 14921 67.05200000 3187391196 3187391196 0.33300000
37.08674240 -65.87211609 -0.43935743 56 10 14922 75.59600000 3187391198 3187391198 -0.33300000
13.76746178 -21.87929153 -2.78452325 3 11 14922 26.00000000 3187391198 3187391198 -6.14800000
14.55597210 -29.10565948 -3.03778386 4 12 14923 32.68400000 3187391200 3187391200 -5.33300000
40.34963989 -64.14860535 1.76343906 52 13 14923 75.80400000 3187391200 3187391200 1.33300000
36.95765305 -73.93160248 0.96225196 28 14 14924 82.66000000 3187391203 3187391203 0.66700000
19.75490570 -31.41888237 -2.59521985 10 15 14924 37.20400000 3187391203 3187391203 -4.00000000
17.18216133 -30.55574036 -2.86175132 6 16 14925 35.17200000 3187391205 3187391205 -4.66700000
43.10675430 -61.67730713 2.18993545 28 17 14925 75.28000000 3187391205 3187391205 1.66700000
37.77841187 -67.18289185 1.34537113 28 18 14925 77.08800000 3187391207 3187391207 1.00000000
19.92906189 -28.51457787 -2.22955990 12 19 14925 34.86000000 3187391207 3187391207 -3.66700000
19.74291229 -39.52902222 -2.57323313 10 20 14926 44.26000000 3187391210 3187391210 -3.33300000
40.29273605 -64.13262177 4.41089106 37 21 14926 75.86800000 3187391210 3187391210 3.33300000
39.63819885 -70.54785919 3.29680133 28 22 14927 80.98800000 3187391212 3187391212 2.33300000
19.87147331 -31.64102745 -1.74045014 12 23 14927 37.40400000 3187391212 3187391212 -2.66700000
19.76992798 -35.20080185 -2.11583805 19 24 14928 40.42800000 3187391214 3187391214 -3.00000000
65.71778107 -117.05983734 10.95914364 28 26 14929 134.69200000 3187391217 3187391217 4.66700000
38.29557037 -54.87500000 -2.72624803 28 27 14929 66.97200000 3187391217 3187391217 -2.33300000
38.52265549 -77.26449585 -3.01489782 28 28 14930 86.38800000 3187391219 3187391219 -2.00000000
38.12921906 -60.78318024 -1.66964209 21 31 14930 71.77200000 3187391221 3187391221 -1.33300000
3.13317585 -5.60386133 -2.99382782 17 0 14939 7.08400000 3187391242 3187391242 -25.00000000
38.14341354 -54.86074448 -1.16630948 28 1 14939 66.82800000 3187391242 3187391242 -1.00000000
38.82304382 -69.46566010 -2.31595564 28 2 14940 79.61200000 3187391244 3187391244 -1.66700000
5.68067408 -9.09097862 -3.00091290 6 3 14940 11.13200000 3187391244 3187391244 -15.63900000
7.37822866 -13.20719814 -3.02569747 1 4 14941 15.42800000 3187391247 3187391247 -11.31000000
38.23253250 -61.20861053 0.00000000 50 5 14941 72.16800000 3187391247 3187391247 0.00000000
37.31700516 -75.24055481 -0.97775787 29 6 14942 83.99200000 3187391249 3187391249 -0.66700000
9.76529503 -15.63988495 -2.86855412 2 7 14942 18.66000000 3187391249 3187391249 -8.84300000
11.34068584 -20.30841064 -2.96073723 5 8 14942 23.44800000 3187391251 3187391251 -7.25400000
38.55107880 -55.50907135 0.39279237 56 9 14942 67.58400000 3187391251 3187391251 0.33300000
36.84700775 -66.01109314 -0.43938068 56 10 14943 75.60000000 3187391253 3187391253 -0.33300000
13.69138908 -21.93635368 -2.78538013 3 11 14943 26.00800000 3187391253 3187391253 -6.14800000
14.48633194 -29.23375320 -3.04559112 4 12 14944 32.76800000 3187391256 3187391256 -5.33300000
40.13330078 -64.32659912 1.76427650 26 13 14944 75.84000000 3187391256 3187391256 1.33300000
38.63393021 -77.99837494 1.01333296 28 14 14945 87.04800000 3187391258 3187391258 0.66700000
19.74941826 -31.66713715 -2.60972929 15 15 14945 37.41200000 3187391258 3187391258 -4.00000000
17.12441063 -30.71601105 -2.87086415 6 16 14946 35.28400000 3187391260 3187391260 -4.66700000
43.32242203 -62.47229385 2.21250963 28 17 14946 76.05600000 3187391260 3187391260 1.66700000
37.59220505 -67.45671844 1.34795403 28 18 14947 77.23600000 3187391263 3187391263 1.00000000
19.91039276 -28.72211647 -2.23979306 13 19 14947 35.02000000 3187391263 3187391263 -3.66700000
19.75375938 -39.91606522 -2.59369802 10 20 14947 44.61200000 3187391265 3187391265 -3.33300000
39.94969559 -64.10702515 4.39903069 73 21 14947 75.66400000 3187391265 3187391265 3.33300000
39.41437149 -70.75551605 3.29973221 28 22 14948 81.06000000 3187391267 3187391267 2.33300000
19.86945152 -31.89678764 -1.75050092 12 23 14948 37.62000000 3187391267 3187391267 -2.66700000
19.76514816 -35.49638367 -2.12923598 19 24 14949 40.68400000 3187391270 3187391270 -3.00000000
64.61162567 -116.08417511 10.84555912 28 26 14950 133.29600000 3187391272 3187391272 4.66700000
38.40361786 -55.46186829 -2.74839282 28 27 14950 67.51600000 3187391272 3187391272 -2.33300000
38.52427292 -77.98220062 -3.03737307 28 28 14951 87.03200000 3187391274 3187391274 -2.00000000
38.10687637 -61.24507904 -1.67848206 21 31 14951 72.15200000 3187391277 3187391277 -1.33300000
3.13216209 -5.64592123 -3.01073241 15 0 14958 7.12400000 3187391297 3187391297 -25.00000000
38.19531250 -55.32593155 -1.17349982 28 1 14958 67.24000000 3187391297 3187391297 -1.00000000
38.77668381 -69.92620087 -2.32700992 28 2 14959 79.99200000 3187391300 3187391300 -1.66700000
5.65049601 -9.10976601 -3.00091290 6 3 14959 11.13200000 3187391300 3187391300 -15.63900000
7.34389925 -13.24874496 -3.02961993 1 4 14960 15.44800000 3187391302 3187391302 -11.31000000
38.14316940 -61.51863098 0.00000000 51 5 14960 72.38400000 3187391302 3187391302 0.00000000
37.22087479 -75.67613983 -0.98180896 29 6 14961 84.34000000 3187391304 3187391304 -0.66700000
9.72378922 -15.68897915 -2.87162876 3 7 14961 18.68000000 3187391304 3187391304 -8.84300000
11.32904911 -20.44655991 -2.97538447 5 8 14961 23.56400000 3187391306 3187391306 -7.25400000
38.49622726 -55.82429886 0.39411750 28 9 14961 67.81200000 3187391306 3187391306 0.33300000
36.70930099 -66.27988434 -0.44035709 56 10 14962 75.76800000 3187391309 3187391309 -0.33300000
13.63951588 -22.01544189 -2.78966403 3 11 14962 26.04800000 3187391309 3187391309 -6.14800000
14.41917038 -29.34239769 -3.05191135 4 12 14963 32.83600000 3187391311 3187391311 -5.33300000
39.26075363 -63.39520645 1.73515105 25 13 14963 74.58800000 3187391311 3187391311 1.33300000
38.30452728 -77.98246002 1.01147044 28 14 14964 86.88800000 3187391313 3187391313 0.66700000
19.74091339 -31.88852119 -2.62256432 10 15 14964 37.59600000 3187391313 3187391313 -4.00000000
17.07842255 -30.87379837 -2.88030243 6 16 14965 35.40000000 3187391316 3187391316 -4.66700000
43.11048508 -62.60902786 2.21227694 28 17 14965 76.04800000 3187391316 3187391316 1.66700000
38.21252823 -69.07933044 1.37797225 28 18 14965 78.95600000 3187391318 3187391318 1.00000000
19.90382576 -28.90617180 -2.24925876 19 19 14965 35.16800000 3187391318 3187391318 -3.66700000
19.73036003 -40.20360947 -2.60811639 10 20 14966 44.86000000 3187391320 3187391320 -3.33300000
39.51631546 -63.88257217 4.37461233 36 21 14966 75.24400000 3187391320 3187391320 3.33300000
39.24911880 -71.01175690 3.30559397 28 22 14967 81.20400000 3187391323 3187391323 2.33300000
19.85603142 -32.11203384 -1.75869036 12 23 14967 37.79600000 3187391323 3187391323 -2.66700000
19.76709557 -35.77850723 -2.14221525 19 24 14968 40.93200000 3187391325 3187391325 -3.00000000
64.06249237 -116.00115204 10.81789494 28 26 14969 132.95600000 3187391327 3187391327 4.66700000
38.38704681 -55.83262253 -2.76044202 57 27 14969 67.81200000 3187391327 3187391327 -2.33300000
38.07024765 -77.71104431 -3.02187753 28 28 14970 86.58800000 3187391330 3187391330 -2.00000000
38.15362549 -61.77598572 -1.68955529 44 31 14970 72.62800000 3187391332 3187391332 -1.33300000
3.10970068 -5.65418673 -3.00904202 14 0 14979 7.12000000 3187391353 3187391353 -25.00000000
38.32451248 -55.95058823 -1.18376184 28 1 14979 67.82800000 3187391353 3187391353 -1.00000000
38.74356842 -70.47428894 -2.34050798 28 2 14980 80.45600000 3187391355 3187391355 -1.66700000
3.62092042 -5.88572216 -1.93447280 12 3 14980 7.17600000 3187391355 3187391355 -15.63900000
7.30473614 -13.29275990 -3.03354216 1 4 14981 15.46800000 3187391358 3187391358 -11.31000000
37.91114807 -61.64780045 0.00000000 51 5 14981 72.37200000 3187391358 3187391358 0.00000000
37.42096329 -76.75834656 -0.99414849 29 6 14981 85.40000000 3187391360 3187391360 -0.66700000
9.68759918 -15.75312710 -2.87716293 2 7 14981 18.71600000 3187391360 3187391360 -8.84300000
11.25785351 -20.49490166 -2.97639465 5 8 14982 23.57200000 3187391362 3187391362 -7.25400000
38.62790680 -56.45689774 0.39758140 56 9 14982 68.40800000 3187391362 3187391362 0.33300000
36.57393646 -66.61032867 -0.44165894 28 10 14983 75.99200000 3187391365 3187391365 -0.33300000
13.62536144 -22.17371368 -2.80337238 3 11 14983 26.17600000 3187391365 3187391365 -6.14800000
14.36383057 -29.50247383 -3.06306481 4 12 14984 32.95600000 3187391367 3187391367 -5.33300000
38.92348480 -63.36830521 1.73049843 50 13 14984 74.38800000 3187391367 3187391367 1.33300000
37.57739258 -77.21602631 0.99973625 28 14 14985 85.88000000 3187391369 3187391369 0.66700000
19.72620964 -32.12728119 -2.63623667 10 15 14985 37.79200000 3187391369 3187391369 -4.00000000
17.02457428 -31.04454994 -2.89039159 6 16 14986 35.52400000 3187391371 3187391371 -4.66700000
42.97545242 -62.90527344 2.21716404 28 17 14986 76.21600000 3187391371 3187391371 1.66700000
37.58793640 -68.54212952 1.36449897 28 18 14986 78.18400000 3187391374 3187391374 1.00000000
19.89232063 -29.11736298 -2.26000357 13 19 14986 35.33600000 3187391374 3187391374 -3.66700000
19.73478699 -40.58809280 -2.62834883 10 20 14987 45.20800000 3187391376 3187391376 -3.33300000
39.73714828 -64.76898193 4.42530966 37 21 14987 76.11600000 3187391376 3187391376 3.33300000
40.42129898 -73.76986694 3.42706442 28 22 14988 84.18800000 3187391378 3187391378 2.33300000
19.84264755 -32.35490036 -1.76799655 12 23 14988 37.99600000 3187391378 3187391378 -2.66700000
19.74904060 -36.05741882 -2.15456676 20 24 14989 41.16800000 3187391381 3187391381 -3.00000000
63.61967087 -116.20370483 10.81496620 28 26 14990 132.92000000 3187391383 3187391383 4.66700000
38.51548386 -56.46158981 -2.78454089 28 27 14990 68.40400000 3187391383 3187391383 -2.33300000
38.66490555 -79.66261292 -3.09223509 28 28 14991 88.60400000 3187391385 3187391385 -2.00000000
38.21311951 -62.38258362 -1.70230353 22 31 14991 73.17600000 3187391388 3187391388 -1.33300000
3.06043434 -5.61090326 -2.98030400 16 0 14999 7.05200000 3187391408 3187391408 -25.00000000
38.22341537 -56.22293472 -1.18669379 28 1 14999 67.99600000 3187391408 3187391408 -1.00000000
38.79399490 -71.15322113 -2.35854411 28 2 15000 81.07600000 3187391411 3187391411 -1.66700000
7.25829124 -13.31817722 -3.03354216 1 4 15001 15.46800000 3187391413 3187391413 -11.31000000
37.76031494 -61.88560867 0.00000000 51 5 15001 72.49600000 3187391413 3187391413 0.00000000
37.16149902 -76.90650177 -0.99438131 29 6 15001 85.42000000 3187391415 3187391415 -0.66700000
9.64078617 -15.80034351 -2.87962270 3 7 15001 18.73200000 3187391415 3187391415 -8.84300000
11.19953156 -20.55846596 -2.97993016 5 8 15002 23.60000000 3187391418 3187391418 -7.25400000
38.62834549 -56.88258743 0.39962718 56 9 15002 68.76000000 3187391418 3187391418 0.33300000
36.52483749 -67.07482910 -0.44389072 28 10 15003 76.37600000 3187391420 3187391420 -0.33300000
13.55822849 -22.23811913 -2.80551434 3 11 15003 26.19600000 3187391420 3187391420 -6.14800000
14.27114487 -29.57395363 -3.06529546 4 12 15004 32.98000000 3187391422 3187391422 -5.33300000
38.84148407 -63.73257446 1.73673296 25 13 15004 74.65600000 3187391422 3187391422 1.33300000
39.04355621 -80.94567108 1.04625404 28 14 15005 89.87600000 3187391424 3187391424 0.66700000
19.72397041 -32.37655258 -2.65102506 10 15 15005 38.00400000 3187391424 3187391424 -4.00000000
16.94467735 -31.15632248 -2.89527345 6 16 15006 35.58400000 3187391427 3187391427 -4.66700000
42.65687561 -62.90929413 2.21204424 28 17 15006 76.04000000 3187391427 3187391427 1.66700000
37.29303741 -68.57102966 1.36247444 28 18 15006 78.06800000 3187391429 3187391429 1.00000000
19.88689232 -29.32869148 -2.27100420 13 19 15006 35.50800000 3187391429 3187391429 -3.66700000
19.69873810 -40.87616730 -2.64253473 10 20 15007 45.45200000 3187391431 3187391431 -3.33300000
39.58141327 -65.02326965 4.43321657 75 21 15007 76.25200000 3187391431 3187391431 3.33300000
40.15591431 -73.89646912 3.42641330 28 22 15008 84.17200000 3187391434 3187391434 2.33300000
19.84589958 -32.61511612 -1.77841949 12 23 15008 38.22000000 3187391434 3187391434 -2.66700000
19.74317360 -36.34727478 -2.16775537 20 24 15009 41.42000000 3187391436 3187391436 -3.00000000
63.48568344 -116.92608643 10.86150646 28 26 15010 133.49200000 3187391438 3187391438 4.66700000
38.52206421 -56.89685440 -2.79935837 28 27 15010 68.76800000 3187391438 3187391438 -2.33300000
38.65173721 -80.34826660 -3.11359358 28 28 15011 89.21600000 3187391441 3187391441 -2.00000000
38.29005432 -63.00084305 -1.71551704 23 31 15011 73.74400000 3187391443 3187391443 -1.33300000
2.99426007 -5.53545904 -2.93466115 16 0 15019 6.94400000 3187391464 3187391464 -25.00000000
38.23720551 -56.66765213 -1.19325590 56 1 15019 68.37200000 3187391464 3187391464 -1.00000000
38.80782318 -71.77356720 -2.37460208 28 2 15020 81.62800000 3187391466 3187391466 -1.66700000
3.56976557 -5.89438343 -1.92908132 220 3 15020 7.15600000 3187391466 3187391466 -15.63900000
7.26211119 -13.43659878 -3.05472302 1 4 15021 15.57600000 3187391468 3187391468 -11.31000000
37.52127457 -61.97940063 0.00000000 51 5 15021 72.45200000 3187391468 3187391468 0.00000000
36.97919846 -77.21612549 -0.99670953 29 6 15021 85.62000000 3187391471 3187391471 -0.66700000
9.59580803 -15.85080528 -2.88269711 2 7 15021 18.75200000 3187391471 3187391471 -8.84300000
11.13713074 -20.61488914 -2.98245549 5 8 15022 23.62000000 3187391473 3187391473 -7.25400000
38.67770386 -57.38525009 0.40220767 56 9 15022 69.20400000 3187391473 3187391473 0.33300000
36.87017059 -68.27537537 -0.45098126 28 10 15023 77.59600000 3187391475 3187391475 -0.33300000
13.50728035 -22.32954788 -2.81108332 3 11 15023 26.24800000 3187391475 3187391475 -6.14800000
14.22796822 -29.74934196 -3.07830763 4 12 15024 33.12000000 3187391477 3187391477 -5.33300000
38.79465866 -64.15863800 1.74464250 51 13 15024 74.99600000 3187391477 3187391477 1.33300000
38.82459259 -81.21498108 1.04797685 28 14 15025 90.02400000 3187391480 3187391480 0.66700000
19.72229576 -32.62960815 -2.66609240 10 15 15025 38.22000000 3187391480 3187391480 -4.00000000
16.91341019 -31.35914612 -2.90861726 6 16 15026 35.74800000 3187391482 3187391482 -4.66700000
42.24727249 -62.77585983 2.20215344 56 17 15026 75.70000000 3187391482 3187391482 1.66700000
37.21606827 -69.03112793 1.36889696 28 18 15027 78.43600000 3187391484 3187391484 1.00000000
19.87284470 -29.54049110 -2.28174925 13 19 15027 35.67600000 3187391484 3187391484 -3.66700000
19.70910454 -41.26537704 -2.66323233 10 20 15027 45.80800000 3187391487 3187391487 -3.33300000
40.59905243 -67.22221375 4.57344818 40 21 15027 78.66400000 3187391487 3187391487 3.33300000
39.95080948 -74.13469696 3.43097234 28 22 15028 84.28400000 3187391489 3187391489 2.33300000
19.83518410 -32.85522461 -1.78772581 12 23 15028 38.42000000 3187391489 3187391489 -2.66700000
19.73741722 -36.64104080 -2.18115330 20 24 15029 41.67600000 3187391491 3187391491 -3.00000000
38.44582748 -57.21342468 -2.80831385 28 27 15030 68.98800000 3187391494 3187391494 -2.33300000
38.50350189 -80.76054382 -3.12434244 28 28 15031 89.52400000 3187391496 3187391496 -2.00000000
38.12153244 -63.21973038 -1.71784329 46 31 15031 73.84400000 3187391498 3187391498 -1.33300000
2.99302959 -5.57730103 -2.95156598 13 0 15038 6.98400000 3187391519 3187391519 -25.00000000
38.29838943 -57.16627502 -1.20107460 28 1 15038 68.82000000 3187391519 3187391519 -1.00000000
38.82475281 -72.37751770 -2.39031100 28 2 15039 82.16800000 3187391521 3187391521 -1.66700000
3.55019927 -5.90618896 -1.92908132 151 3 15039 7.15600000 3187391521 3187391521 -15.63900000
7.21566057 -13.45715046 -3.05393839 3 4 15040 15.57200000 3187391523 3187391523 -11.31000000
37.62044144 -62.61092758 0.00000000 51 5 15040 73.04400000 3187391523 3187391523 0.00000000
36.78833008 -77.51094818 -0.99885148 29 6 15041 85.80400000 3187391526 3187391526 -0.66700000
9.55670071 -15.91131020 -2.88761640 3 7 15041 18.78400000 3187391526 3187391526 -8.84300000
11.07433224 -20.66220093 -2.98397064 5 8 15041 23.63200000 3187391528 3187391528 -7.25400000
38.71632385 -57.85559464 0.40460217 56 9 15041 69.61600000 3187391528 3187391528 0.33300000
36.99678802 -69.05658722 -0.45532855 28 10 15042 78.34400000 3187391530 3187391530 -0.33300000
13.44134617 -22.38785553 -2.81279683 3 11 15042 26.26400000 3187391530 3187391530 -6.14800000
14.12411880 -29.78556442 -3.07719231 4 12 15043 33.10800000 3187391533 3187391533 -5.33300000
38.48085403 -64.11891937 1.74008286 51 13 15043 74.80000000 3187391533 3187391533 1.33300000
38.58246994 -81.40110779 1.04872191 28 14 15044 90.08800000 3187391535 3187391535 0.66700000
19.71867371 -32.86933899 -2.68032265 10 15 15044 38.42400000 3187391535 3187391535 -4.00000000
16.83942032 -31.47130203 -2.91382456 6 16 15045 35.81200000 3187391537 3187391537 -4.66700000
41.99666214 -62.85244751 2.19994259 56 17 15045 75.62400000 3187391537 3187391537 1.66700000
37.84620667 -70.73102570 1.40024149 28 18 15045 80.23200000 3187391540 3187391540 1.00000000
19.88195992 -29.75545502 -2.29351735 13 19 15045 35.86000000 3187391540 3187391540 -3.66700000
19.68324280 -41.56509399 -2.67834830 10 20 15046 46.06800000 3187391542 3187391542 -3.33300000
40.39028168 -67.38044739 4.57507563 40 21 15046 78.69200000 3187391542 3187391542 3.33300000
39.94406128 -74.71440125 3.45165181 28 22 15047 84.79200000 3187391544 3187391544 2.33300000
19.82880974 -33.09219360 -1.79703200 13 23 15047 38.62000000 3187391544 3187391544 -2.66700000
19.73064804 -36.92119598 -2.19392323 20 24 15048 41.92000000 3187391547 3187391547 -3.00000000
63.06401062 -118.05879974 10.92659760 28 26 15049 134.29200000 3187391549 3187391549 4.66700000
38.38010406 -57.52678299 -2.81743240 28 27 15049 69.21200000 3187391549 3187391549 -2.33300000
38.64549255 -81.75517273 -3.15784597 28 28 15050 90.48400000 3187391551 3187391551 -2.00000000
37.98274231 -63.48968124 -1.72156549 23 31 15051 74.00400000 3187391553 3187391553 -1.33300000
3.00079203 -5.63891935 -2.97861362 13 0 15058 7.04800000 3187391574 3187391574 -25.00000000
38.22925949 -57.49610901 -1.20519340 28 1 15058 69.05600000 3187391574 3187391574 -1.00000000
38.59252548 -72.55142975 -2.39159107 28 2 15059 82.21200000 3187391576 3187391576 -1.66700000
7.16864252 -13.48225498 -3.05393839 5 4 15060 15.57200000 3187391579 3187391579 -11.31000000
37.57370377 -63.03047562 0.00000000 51 5 15060 73.38000000 3187391579 3187391579 0.00000000
37.68877029 -80.12901306 -1.03088772 29 6 15061 88.55600000 3187391581 3187391581 -0.66700000
9.51728725 -15.97173500 -2.89253569 2 7 15061 18.81600000 3187391581 3187391581 -8.84300000
11.01703739 -20.72876167 -2.98801136 5 8 15061 23.66400000 3187391583 3187391583 -7.25400000
38.69559479 -58.26361465 0.40650851 56 9 15061 69.94400000 3187391583 3187391583 0.33300000
37.91526413 -71.36832428 -0.46969563 28 10 15062 80.81600000 3187391586 3187391586 -0.33300000
13.42824268 -22.54397583 -2.82650542 3 11 15062 26.39200000 3187391586 3187391586 -6.14800000
14.06240749 -29.92479897 -3.08648658 4 12 15063 33.20800000 3187391588 3187391588 -5.33300000
38.18315506 -64.12915802 1.73673296 50 13 15063 74.65600000 3187391588 3187391588 1.33300000
38.56847000 -82.11091614 1.05612564 28 14 15064 90.72400000 3187391590 3187391590 0.66700000
19.71401978 -33.12313080 -2.69539022 10 15 15064 38.64000000 3187391590 3187391590 -4.00000000
16.78365135 -31.63202095 -2.92326283 6 16 15065 35.92800000 3187391593 3187391593 -4.66700000
41.83004379 -63.07863235 2.20273519 28 17 15065 75.72000000 3187391593 3187391593 1.66700000
37.58408356 -70.83443451 1.39968300 28 18 15065 80.20000000 3187391595 3187391595 1.00000000
19.87063026 -29.96439934 -2.30426216 13 19 15065 36.02800000 3187391595 3187391595 -3.66700000
19.69241142 -41.96250916 -2.69951105 10 20 15066 46.43200000 3187391597 3187391597 -3.33300000
40.67940140 -68.40309143 4.63484287 41 21 15066 79.72000000 3187391597 3187391597 3.33300000
40.14914703 -75.73262787 3.49219608 28 22 15067 85.78800000 3187391600 3187391600 2.33300000
19.83159828 -33.36041641 -1.80782723 13 23 15067 38.85200000 3187391600 3187391600 -2.66700000
19.72135353 -37.21573639 -2.20732141 21 24 15068 42.17600000 3187391602 3187391602 -3.00000000
62.83813858 -118.63052368 10.95914364 28 26 15069 134.69200000 3187391604 3187391604 4.66700000
38.35999680 -57.93365860 -2.83078432 28 27 15069 69.54000000 3187391604 3187391604 -2.33300000
38.52097702 -82.23347473 -3.17110777 28 28 15070 90.86400000 3187391606 3187391606 -2.00000000
38.05169678 -64.08635712 -1.73431361 23 31 15070 74.55200000 3187391609 3187391609 -1.33300000
2.99025202 -5.66911936 -2.98875642 17 0 15079 7.07200000 3187391629 3187391629 -25.00000000
38.24068832 -57.97302628 -1.21224415 28 1 15079 69.46000000 3187391629 3187391629 -1.00000000
38.22751999 -72.50494385 -2.38542390 28 2 15080 82.00000000 3187391632 3187391632 -1.66700000
5.48627758 -9.27678871 -3.01708746 6 3 15080 11.19200000 3187391632 3187391632 -15.63900000
7.07346153 -13.42169094 -3.03432679 3 4 15081 15.47200000 3187391634 3187391634 -11.31000000
37.65591049 -63.69804001 0.00000000 26 5 15081 73.99600000 3187391634 3187391634 0.00000000
37.96306992 -81.44917297 -1.04616082 29 6 15081 89.86800000 3187391636 3187391636 -0.66700000
9.47756863 -16.03207970 -2.89745498 2 7 15081 18.84800000 3187391636 3187391636 -8.84300000
10.98722363 -20.85676765 -3.00063801 5 8 15082 23.76400000 3187391639 3187391639 -7.25400000
38.60723114 -58.59543610 0.40783361 56 9 15082 70.17200000 3187391639 3187391639 0.33300000
37.63665771 -71.47496033 -0.46948639 28 10 15083 80.78000000 3187391641 3187391641 -0.33300000
13.34957027 -22.59988976 -2.82736206 3 11 15083 26.40000000 3187391641 3187391641 -6.14800000
14.00305271 -30.08445930 -3.09763980 4 12 15084 33.32800000 3187391643 3187391643 -5.33300000
37.89905548 -64.18603516 1.73449969 50 13 15084 74.56000000 3187391643 3187391643 1.33300000
38.39042282 -82.51645660 1.05952477 28 14 15085 91.01600000 3187391646 3187391646 0.66700000
19.69592476 -33.37041855 -2.70962048 10 15 15085 38.84400000 3187391646 3187391646 -4.00000000
16.70100403 -31.75683784 -2.92912102 6 16 15086 36.00000000 3187391648 3187391648 -4.66700000
43.44006729 -66.03067780 2.30024672 28 17 15086 79.07200000 3187391648 3187391648 1.66700000
37.32607269 -70.97525024 1.39975286 28 18 15086 80.20400000 3187391650 3187391650 1.00000000
