# .PCD v0.7 - Point Cloud Data file format
VERSION 0.7
FIELDS x y z intensity laser_id azimuth distance_m adjustedtime timestamp vertical_angle
SIZE 4 4 4 1 1 2 8 8 4 8
TYPE F F F U U U F U U F
COUNT 1 1 1 1 1 1 1 1 1 1
WIDTH 522
HEIGHT 1
VIEWPOINT 0 0 0 1 0 0 0
POINTS 522
DATA ascii
15.50462246 11.72605419 -1.81464005 2 12 4870 19.52400000 3176063372 3176063372 -5.33300000
40.25654221 37.14767075 1.27463400 26 13 4870 54.79200000 3176063372 3176063372 1.33300000
40.76234818 30.81713867 0.59490591 18 14 4871 51.10400000 3176063375 3176063375 0.66700000
16.76485443 15.46474648 -1.59491205 2 15 4871 22.86400000 3176063375 3176063375 -4.00000000
16.06173897 13.42017365 -1.70865393 2 16 4872 21.00000000 3176063377 3176063377 -4.66700000
40.10609436 40.78377151 1.66467667 46 17 4872 57.22400000 3176063377 3176063377 1.66700000
40.25082779 33.61912155 0.91541362 35 18 4873 52.45200000 3176063379 3176063379 1.00000000
16.75993156 17.03717804 -1.53165519 3 19 4873 23.94800000 3176063379 3176063379 -3.66700000
19.50273132 14.73375320 -1.42347574 3 20 4873 24.48400000 3176063382 3176063382 -3.33300000
39.98973083 36.86270905 3.16741395 25 21 4873 54.48000000 3176063382 3176063382 3.33300000
40.06378555 33.45102692 2.12638545 29 22 4874 52.23600000 3176063384 3176063384 2.33300000
19.70173836 18.15479088 -1.24796474 4 23 4874 26.82000000 3176063384 3176063384 -2.66700000
20.12361908 16.79614067 -1.37371421 9 24 4875 26.24800000 3176063386 3176063386 -3.00000000
43.55321884 40.11943817 7.27072525 55 25 4875 59.66000000 3176063386 3176063386 7.00000000
42.64199448 35.57843399 4.53362846 42 26 4876 55.72000000 3176063389 3176063389 4.66700000
20.20776367 20.52054024 -1.17334664 8 27 4876 28.82400000 3176063389 3176063389 -2.33300000
20.82346725 15.70870876 -0.91087687 10 28 4877 26.10000000 3176063391 3176063391 -2.00000000
20.91885567 19.25609779 -0.66160369 17 31 4877 28.44000000 3176063393 3176063393 -1.33300000
3.99909353 3.32719183 -2.42582893 6 0 4884 5.74000000 3176063414 3176063414 -25.00000000
20.91891861 21.18346024 -0.51966286 12 1 4884 29.77600000 3176063414 3176063414 -1.00000000
20.85753632 17.34703064 -0.78951710 15 2 4885 27.14000000 3176063416 3176063416 -1.66700000
6.63444710 6.09001017 -2.52106881 6 3 4885 9.35200000 3176063416 3176063416 -15.63900000
9.04221630 7.51766253 -2.35183859 1 4 4886 11.99200000 3176063418 3176063418 -11.31000000
40.27378845 36.95588684 0.00000000 29 5 4886 54.66000000 3176063418 3176063418 0.00000000
35.02922440 26.32937813 -0.51015884 11 6 4887 43.82400000 3176063421 3176063421 -0.66700000
10.20303249 9.35918999 -2.15402913 2 7 4887 14.01200000 3176063421 3176063421 -8.84300000
12.31030750 10.23110771 -2.03746414 2 8 4887 16.13600000 3176063423 3176063423 -7.25400000
40.26563263 40.73215103 0.33288318 46 9 4887 57.27600000 3176063423 3176063423 0.33300000
39.55346680 32.86125183 -0.29887185 12 10 4888 51.42400000 3176063425 3176063425 -0.33300000
13.04095173 11.95820808 -1.90589905 1 11 4888 17.79600000 3176063425 3176063425 -6.14800000
15.53386879 11.66739845 -1.81352460 2 12 4889 19.51200000 3176063428 3176063428 -5.33300000
40.12009811 36.77618027 1.26644540 25 13 4889 54.44000000 3176063428 3176063428 1.33300000
40.70758820 30.56412125 0.59262425 18 14 4890 50.90800000 3176063430 3176063430 0.66700000
16.81604576 15.40906715 -1.59491205 2 15 4890 22.86400000 3176063430 3176063430 -4.00000000
16.09694862 13.35919952 -1.70767760 2 16 4891 20.98800000 3176063432 3176063432 -4.66700000
40.09766006 40.50563431 1.65874231 45 17 4891 57.02000000 3176063432 3176063432 1.66700000
40.16543579 33.33414841 0.91108543 34 18 4891 52.20400000 3176063435 3176063435 1.00000000
16.80213928 16.97309303 -1.53063178 3 19 4891 23.93200000 3176063435 3176063435 -3.66700000
19.51634598 14.64263725 -1.42091763 3 20 4892 24.44000000 3176063437 3176063437 -3.33300000
40.05579376 36.67865753 3.16299534 25 21 4892 54.40400000 3176063437 3176063437 3.33300000
40.03605652 33.20317841 2.11905813 28 22 4893 52.05600000 3176063439 3176063439 2.33300000
19.75299263 18.08126450 -1.24740636 4 23 4893 26.80800000 3176063439 3176063439 -2.66700000
20.16690636 16.71911812 -1.37287676 9 24 4894 26.23200000 3176063442 3176063442 -3.00000000
42.24495316 38.65614319 7.03088617 24 25 4894 57.69200000 3176063442 3176063442 7.00000000
42.55100632 35.26384735 4.51149750 41 26 4895 55.44800000 3176063444 3176063444 4.66700000
20.26163101 20.43922424 -1.17253256 8 27 4895 28.80400000 3176063444 3176063444 -2.33300000
20.80825806 15.58923531 -0.90794533 10 28 4896 26.01600000 3176063446 3176063446 -2.00000000
20.92691231 19.12899971 -0.65974265 21 31 4897 28.36000000 3176063448 3176063448 -1.33300000
4.00451565 3.30929351 -2.42244792 6 0 4903 5.73200000 3176063469 3176063469 -25.00000000
20.91574097 21.04022789 -0.51784778 12 1 4903 29.67200000 3176063469 3176063469 -1.00000000
20.85946083 17.23193169 -0.78742260 19 2 4904 27.06800000 3176063471 3176063471 -1.66700000
6.65745211 6.07057142 -2.52214718 6 3 4904 9.35600000 3176063471 3176063471 -15.63900000
9.07919312 7.49762630 -2.35497642 1 4 4905 12.00800000 3176063474 3176063474 -11.31000000
40.26013184 36.69817734 0.00000000 43 5 4905 54.47600000 3176063474 3176063474 0.00000000
35.12275314 26.21785736 -0.51025194 11 6 4906 43.83200000 3176063476 3176063476 -0.66700000
10.23109150 9.32264137 -2.15341401 2 7 4906 14.00800000 3176063476 3176063476 -8.84300000
12.37476826 10.21548939 -2.04251480 2 8 4906 16.17600000 3176063478 3176063478 -7.25400000
40.31866074 40.51617813 0.33220899 45 9 4906 57.16000000 3176063478 3176063478 0.33300000
39.57583618 32.65861893 -0.29822090 35 10 4907 51.31200000 3176063481 3176063481 -0.33300000
13.08053493 11.91489697 -1.90589905 1 11 4907 17.79600000 3176063481 3176063481 -6.14800000
15.57566643 11.61820412 -1.81389642 2 12 4908 19.51600000 3176063483 3176063483 -5.33300000
40.20339203 36.60793304 1.26523566 25 13 4908 54.38800000 3176063483 3176063483 1.33300000
40.76703262 30.39788055 0.59201890 18 14 4909 50.85600000 3176063485 3176063485 0.66700000
16.85820007 15.34516048 -1.59407496 2 15 4909 22.85200000 3176063485 3176063485 -4.00000000
16.12885666 13.29560280 -1.70637572 2 16 4910 20.97200000 3176063488 3176063488 -4.66700000
39.86486435 40.00426483 1.64361513 43 17 4910 56.50000000 3176063488 3176063488 1.66700000
40.40228271 33.30507278 0.91394764 34 18 4910 52.36800000 3176063490 3176063490 1.00000000
16.85269737 16.91162682 -1.53012013 3 19 4910 23.92400000 3176063490 3176063490 -3.66700000
19.61602974 14.61601257 -1.42463863 3 20 4911 24.50400000 3176063492 3176063492 -3.33300000
39.94384003 36.33335495 3.14462328 24 21 4911 54.08800000 3176063492 3176063492 3.33300000
40.26007843 33.16425323 2.12508297 29 22 4912 52.20400000 3176063495 3176063495 2.33300000
19.80693054 18.01028633 -1.24703407 7 23 4912 26.80000000 3176063495 3176063495 -2.66700000
20.20990372 16.64199448 -1.37203944 9 24 4913 26.21600000 3176063497 3176063497 -3.00000000
43.44523239 39.49055481 7.20881557 53 25 4913 59.15200000 3176063497 3176063497 7.00000000
42.90164185 35.31511307 4.53623199 42 26 4914 55.75200000 3176063499 3176063499 4.66700000
20.31800652 20.36060524 -1.17188120 8 27 4914 28.78800000 3176063499 3176063499 -2.33300000
20.80852509 15.48196697 -0.90571171 10 28 4915 25.95200000 3176063501 3176063501 -2.00000000
20.90994263 18.99325562 -0.65732330 24 31 4915 28.25600000 3176063504 3176063504 -1.33300000
4.01043797 3.29069567 -2.41906691 6 0 4923 5.72400000 3176063524 3176063524 -25.00000000
20.91832161 20.89642715 -0.51610255 12 1 4923 29.57200000 3176063524 3176063524 -1.00000000
20.85147285 17.10322952 -0.78486264 23 2 4924 26.98000000 3176063527 3176063527 -1.66700000
6.67574644 6.04471016 -2.52106881 6 3 4924 9.35200000 3176063527 3176063527 -15.63900000
9.09014416 7.45345306 -2.35105419 1 4 4925 11.98800000 3176063529 3176063529 -11.31000000
40.23081589 36.41515350 0.00000000 28 5 4925 54.26400000 3176063529 3176063529 0.00000000
35.51475143 26.32752609 -0.51467556 11 6 4925 44.21200000 3176063531 3176063531 -0.66700000
10.25608921 9.28335762 -2.15218425 2 7 4925 14.00000000 3176063531 3176063531 -8.84300000
12.42569542 10.18480873 -2.04504013 4 8 4926 16.19600000 3176063534 3176063534 -7.25400000
40.33809662 40.25370026 0.33120933 45 9 4926 56.98800000 3176063534 3176063534 0.33300000
39.51942825 32.38084412 -0.29694229 22 10 4927 51.09200000 3176063536 3176063536 -0.33300000
13.10140038 11.85048962 -1.90290034 1 11 4927 17.76800000 3176063536 3176063536 -6.14800000
15.55531311 11.51873112 -1.80683267 2 12 4928 19.44000000 3176063538 3176063538 -5.33300000
40.20042419 36.34936523 1.26114130 37 13 4928 54.21200000 3176063538 3176063538 1.33300000
40.72179794 30.14354706 0.58983040 17 14 4929 50.66800000 3176063541 3176063541 0.66700000
16.90870094 15.28354549 -1.59379590 2 15 4929 22.84800000 3176063541 3176063541 -4.00000000
16.18442345 13.24679756 -1.70735216 2 16 4930 20.98400000 3176063543 3176063543 -4.66700000
39.98160553 39.84228516 1.64268422 21 17 4930 56.46800000 3176063543 3176063543 1.66700000
40.25213242 32.94598770 0.90794396 33 18 4930 52.02400000 3176063545 3176063545 1.00000000
16.91445351 16.85551453 -1.53037596 3 19 4930 23.92800000 3176063545 3176063545 -3.66700000
19.63161469 14.52132893 -1.42208040 3 20 4931 24.46000000 3176063548 3176063548 -3.33300000
40.01708221 36.14552307 3.14043736 24 21 4931 54.01600000 3176063548 3176063548 3.33300000
40.23019791 32.90459061 2.11742997 42 22 4932 52.01600000 3176063550 3176063550 2.33300000
19.83409119 17.90890312 -1.24480057 7 23 4932 26.75200000 3176063550 3176063550 -2.66700000
20.27405739 16.57640457 -1.37245810 9 24 4933 26.22400000 3176063552 3176063552 -3.00000000
42.49235916 38.35439682 7.02844858 24 25 4933 57.67200000 3176063552 3176063552 7.00000000
43.03391647 35.17271042 4.53720856 63 26 4934 55.76400000 3176063554 3176063554 4.66700000
20.37762260 20.27828217 -1.17122984 8 27 4934 28.77200000 3176063554 3176063554 -2.33300000
20.81099129 15.37123680 -0.90347815 10 28 4935 25.88800000 3176063557 3176063557 -2.00000000
20.91407776 18.85757637 -0.65527612 24 31 4936 28.16800000 3176063559 3176063559 -1.33300000
4.01908970 3.27438688 -2.41737652 7 0 4943 5.72000000 3176063580 3176063580 -25.00000000
20.92299271 20.75568199 -0.51442713 12 1 4943 29.47600000 3176063580 3176063580 -1.00000000
20.85834503 16.98741531 -0.78288448 15 2 4944 26.91200000 3176063582 3176063582 -1.66700000
6.69967031 6.02394629 -2.52214718 6 3 4944 9.35600000 3176063582 3176063582 -15.63900000
9.11914825 7.42415380 -2.35183859 1 4 4945 11.99200000 3176063584 3176063584 -11.31000000
40.26843262 36.19427872 0.00000000 42 5 4945 54.14400000 3176063584 3176063584 0.00000000
35.52589798 26.14412880 -0.51351148 11 6 4945 44.11200000 3176063587 3176063587 -0.66700000
10.28255272 9.24221706 -2.15095448 2 7 4945 13.99200000 3176063587 3176063587 -8.84300000
12.40577507 10.09628868 -2.03594875 2 8 4946 16.12400000 3176063589 3176063589 -7.25400000
40.43574524 40.07041550 0.33086061 45 9 4946 56.92800000 3176063589 3176063589 0.33300000
39.52982330 32.15939713 -0.29617512 11 10 4947 50.96000000 3176063591 3176063591 -0.33300000
13.15452099 11.81531525 -1.90461385 1 11 4947 17.78400000 3176063591 3176063591 -6.14800000
15.65318775 11.50682354 -1.81352460 2 12 4948 19.51200000 3176063594 3176063594 -5.33300000
40.14852905 36.04851913 1.25555825 25 13 4948 53.97200000 3176063594 3176063594 1.33300000
40.79131699 29.97516441 0.58931822 35 14 4949 50.62400000 3176063596 3176063596 0.66700000
16.95897865 15.22176456 -1.59351683 2 15 4949 22.84400000 3176063596 3176063596 -4.00000000
16.21509552 13.17765045 -1.70572484 2 16 4950 20.96400000 3176063598 3176063598 -4.66700000
39.98402023 39.56748581 1.63709891 43 17 4950 56.27600000 3176063598 3176063598 1.66700000
39.97582245 32.48746872 0.89914799 32 18 4950 51.52000000 3176063601 3176063601 1.00000000
16.89374161 16.71775055 -1.52321279 3 19 4950 23.81600000 3176063601 3176063601 -3.66700000
19.68218422 14.45271301 -1.42208040 3 20 4951 24.46000000 3176063603 3176063603 -3.33300000
39.87249756 35.76298523 3.11927485 36 21 4951 53.65200000 3176063603 3176063603 3.33300000
39.94148636 32.43642044 2.09626222 26 22 4952 51.49600000 3176063605 3176063605 2.33300000
19.88458252 17.82889175 -1.24405611 7 23 4952 26.73600000 3176063605 3176063605 -2.66700000
20.32249260 16.49798012 -1.37183011 9 24 4953 26.21200000 3176063607 3176063607 -3.00000000
43.20248795 38.72256470 7.12350702 25 25 4953 58.45200000 3176063607 3176063607 7.00000000
42.92735291 34.83638000 4.51312447 41 26 4954 55.46800000 3176063610 3176063610 4.66700000
20.39426994 20.15365028 -1.16813612 8 27 4954 28.69600000 3176063610 3176063610 -2.33300000
20.80004311 15.25122356 -0.90068620 10 28 4955 25.80800000 3176063612 3176063612 -2.00000000
20.91423225 18.72577286 -0.65322900 27 31 4956 28.08000000 3176063614 3176063614 -1.33300000
4.02767658 3.25805783 -2.41568589 7 0 4963 5.71600000 3176063635 3176063635 -25.00000000
20.91838837 20.60674095 -0.51254225 12 1 4963 29.36800000 3176063635 3176063635 -1.00000000
20.85222435 16.86170769 -0.78044087 15 2 4964 26.82800000 3176063637 3176063637 -1.66700000
6.71778345 5.99795771 -2.52106881 6 3 4964 9.35200000 3176063637 3176063637 -15.63900000
9.14195728 7.38981104 -2.35105419 1 4 4965 11.98800000 3176063640 3176063640 -11.31000000
40.23934937 35.91499329 0.00000000 42 5 4965 53.93600000 3176063640 3176063640 0.00000000
35.71706009 26.09310341 -0.51495498 11 6 4965 44.23600000 3176063642 3176063642 -0.66700000
10.30885410 9.20100403 -2.14972472 2 7 4965 13.98400000 3176063642 3176063642 -8.84300000
12.44402790 10.05541706 -2.03645396 2 8 4966 16.12800000 3176063644 3176063644 -7.25400000
40.62668610 39.97952652 0.33127907 67 9 4966 57.00000000 3176063644 3176063644 0.33300000
39.57338333 31.96592140 -0.29566368 22 10 4967 50.87200000 3176063647 3176063647 -0.33300000
13.20162010 11.77462006 -1.90547073 1 11 4967 17.79200000 3176063647 3176063647 -6.14800000
15.69969273 11.45680904 -1.81426823 2 12 4968 19.52000000 3176063649 3176063649 -5.33300000
40.30098343 35.93210983 1.25639570 12 13 4968 54.00800000 3176063649 3176063649 1.33300000
40.54348755 29.57565880 0.58424270 17 14 4969 50.18800000 3176063651 3176063651 0.66700000
17.00307274 15.15450859 -1.59267986 2 15 4969 22.83200000 3176063651 3176063651 -4.00000000
16.26099586 13.12096882 -1.70572484 2 16 4970 20.96400000 3176063654 3176063654 -4.66700000
39.99641418 39.30436707 1.63197899 42 17 4970 56.10000000 3176063654 3176063654 1.66700000
39.96448135 32.24726868 0.89635557 32 18 4970 51.36000000 3176063656 3176063656 1.00000000
17.01463127 16.72023201 -1.52884102 3 19 4970 23.90400000 3176063656 3176063656 -3.66700000
19.62602615 14.30629826 -1.41440606 3 20 4971 24.32800000 3176063658 3176063658 -3.33300000
39.94341660 35.57578278 3.11508870 36 21 4971 53.58000000 3176063658 3176063658 3.33300000
39.96112823 32.22154236 2.09137726 26 22 4972 51.37600000 3176063660 3176063660 2.33300000
19.93177605 17.74608803 -1.24312556 7 23 4972 26.71600000 3176063660 3176063660 -2.66700000
20.37995720 16.42694092 -1.37183011 9 24 4973 26.21200000 3176063663 3176063663 -3.00000000
43.48271179 38.70085907 7.14739323 51 25 4973 58.64800000 3176063663 3176063663 7.00000000
42.77550507 34.46620178 4.48448420 60 26 4974 55.11600000 3176063665 3176063665 4.66700000
20.46164131 20.07954025 -1.16797328 8 27 4974 28.69200000 3176063665 3176063665 -2.33300000
20.80144119 15.14088440 -0.89845264 10 28 4975 25.74400000 3176063667 3176063667 -2.00000000
20.91073418 18.59154129 -0.65108877 23 31 4976 27.98800000 3176063670 3176063670 -1.33300000
4.03337145 3.23943853 -2.41230512 8 0 4983 5.70800000 3176063690 3176063690 -25.00000000
20.91871834 20.46367836 -0.51079702 12 1 4983 29.26800000 3176063690 3176063690 -1.00000000
20.84860039 16.73875427 -0.77811360 15 2 4984 26.74800000 3176063693 3176063693 -1.66700000
6.73579741 5.97191668 -2.51999044 6 3 4984 9.34800000 3176063693 3176063693 -15.63900000
9.16769695 7.35785437 -2.35105419 1 4 4985 11.98800000 3176063695 3176063695 -11.31000000
40.21778870 35.64431000 0.00000000 41 5 4985 53.74000000 3176063695 3176063695 0.00000000
35.95039368 26.07158661 -0.51700377 11 6 4985 44.41200000 3176063697 3176063697 -0.66700000
10.33795071 9.16234207 -2.14910984 2 7 4985 13.98000000 3176063697 3176063697 -8.84300000
12.47286224 10.00695133 -2.03544378 2 8 4986 16.12000000 3176063700 3176063700 -7.25400000
40.57432175 39.65016174 0.32972148 44 9 4986 56.73200000 3176063700 3176063700 0.33300000
39.60983658 31.76752853 -0.29510573 21 10 4987 50.77600000 3176063702 3176063702 -0.33300000
13.22477722 11.71264458 -1.90290034 1 11 4987 17.76800000 3176063702 3176063702 -6.14800000
15.65895557 11.34352589 -1.80497384 2 12 4988 19.42000000 3176063704 3176063704 -5.33300000
40.29741669 35.67722702 1.25239444 37 13 4988 53.83600000 3176063704 3176063704 1.33300000
40.53309631 29.35185051 0.58261293 34 14 4989 50.04800000 3176063706 3176063706 0.66700000
17.04989052 15.08977509 -1.59212172 2 15 4989 22.82400000 3176063706 3176063706 -4.00000000
16.31914330 13.07409859 -1.70702660 2 16 4990 20.98000000 3176063709 3176063709 -4.66700000
40.24783325 39.27621460 1.63663340 64 17 4990 56.26000000 3176063709 3176063709 1.66700000
40.12673950 32.14758301 0.89747256 32 18 4990 51.42400000 3176063711 3176063711 1.00000000
17.00147057 16.59103966 -1.52244532 3 19 4990 23.80400000 3176063711 3176063711 -3.66700000
19.66613960 14.23068047 -1.41370845 3 20 4991 24.31600000 3176063713 3176063713 -3.33300000
40.02248764 35.39645386 3.11160040 24 21 4991 53.52000000 3176063713 3176063713 3.33300000
39.83623886 31.89202118 2.07900214 37 22 4992 51.07200000 3176063716 3176063716 2.33300000
19.98162460 17.66581917 -1.24238098 7 23 4992 26.70000000 3176063716 3176063716 -2.66700000
20.43405533 16.35320473 -1.37162077 9 24 4993 26.20800000 3176063718 3176063718 -3.00000000
42.25802231 37.34731293 6.92461586 22 25 4993 56.82000000 3176063718 3176063718 7.00000000
42.81772614 34.25441360 4.47634792 40 26 4994 55.01600000 3176063720 3176063720 4.66700000
20.52588272 20.00241470 -1.16764760 8 27 4994 28.68400000 3176063720 3176063720 -2.33300000
20.81204224 15.03774548 -0.89663786 10 28 4995 25.69200000 3176063723 3176063723 -2.00000000
20.91554832 18.46550369 -0.64922774 20 31 4996 27.90800000 3176063725 3176063725 -1.33300000
4.03331757 3.21629882 -2.40554309 7 0 5003 5.69200000 3176063746 3176063746 -25.00000000
20.92404366 20.32643890 -0.50919139 12 1 5003 29.17600000 3176063746 3176063746 -1.00000000
20.85062599 16.62101555 -0.77601910 15 2 5004 26.67600000 3176063748 3176063748 -1.66700000
6.75660229 5.94836807 -2.51999044 6 3 5004 9.34800000 3176063748 3176063748 -15.63900000
9.20252705 7.33314180 -2.35340738 1 4 5005 12.00000000 3176063750 3176063750 -11.31000000
40.23086548 35.40592957 0.00000000 40 5 5005 53.59200000 3176063750 3176063750 0.00000000
35.96002960 25.88751602 -0.51583970 11 6 5005 44.31200000 3176063753 3176063753 -0.66700000
10.35800171 9.11575508 -2.14665008 2 7 5005 13.96400000 3176063753 3176063753 -8.84300000
12.50771713 9.96335220 -2.03544378 2 8 5006 16.12000000 3176063755 3176063755 -7.25400000
40.60053253 39.39965057 0.32881483 65 9 5006 56.57600000 3176063755 3176063755 0.33300000
39.58593369 31.52193069 -0.29410607 31 10 5007 50.60400000 3176063757 3176063757 -0.33300000
13.27752686 11.67691612 -1.90461385 1 11 5007 17.78400000 3176063757 3176063757 -6.14800000
15.71139050 11.29809761 -1.80646086 2 12 5008 19.43600000 3176063759 3176063759 -5.33300000
40.00124359 35.16669846 1.23936701 23 13 5008 53.27600000 3176063759 3176063759 1.33300000
40.52812958 29.13314247 0.58107632 33 14 5009 49.91600000 3176063762 3176063762 0.66700000
16.99455833 14.93534088 -1.58207679 2 15 5009 22.68000000 3176063762 3176063762 -4.00000000
16.34596062 13.00216389 -1.70507395 2 16 5010 20.95600000 3176063764 3176063764 -4.66700000
40.28419113 39.03809738 1.63256073 42 17 5010 56.12000000 3176063764 3176063764 1.66700000
39.80051804 31.65876198 0.88769919 30 18 5010 50.86400000 3176063766 3176063766 1.00000000
17.05641365 16.52881432 -1.52218950 3 19 5010 23.80000000 3176063766 3176063766 -3.66700000
19.72542381 14.16893482 -1.41440606 3 20 5011 24.32800000 3176063769 3176063769 -3.33300000
39.64472580 34.81648636 3.07276344 23 21 5011 52.85200000 3176063769 3176063769 3.33300000
39.77211380 31.61350632 2.06988382 24 22 5012 50.84800000 3176063771 3176063771 2.33300000
20.02215004 17.57750893 -1.24107814 4 23 5012 26.67200000 3176063771 3176063771 -2.66700000
20.40344429 16.21219826 -1.36575913 9 24 5013 26.09600000 3176063773 3176063773 -3.00000000
42.37321091 37.18648148 6.92217875 45 25 5013 56.80000000 3176063773 3176063773 7.00000000
43.04941940 34.19401169 4.48806429 40 26 5014 55.16000000 3176063776 3176063776 4.66700000
20.56686020 19.90284920 -1.16601932 8 27 5014 28.64400000 3176063776 3176063776 -2.33300000
20.80593681 14.92306805 -0.89412510 10 28 5015 25.62000000 3176063778 3176063778 -2.00000000
20.90751648 18.33539963 -0.64708751 23 31 5015 27.81600000 3176063780 3176063780 -1.33300000
4.03599310 3.19544935 -2.40047169 5 0 5023 5.68000000 3176063801 3176063801 -25.00000000
20.92290878 20.18385887 -0.50744617 12 1 5023 29.07600000 3176063801 3176063801 -1.00000000
20.84581375 16.49850655 -0.77369183 15 2 5024 26.59600000 3176063803 3176063803 -1.66700000
6.77152443 5.91967630 -2.51783395 6 3 5024 9.34000000 3176063803 3176063803 -15.63900000
9.22191620 7.29610682 -2.35183859 1 4 5025 11.99200000 3176063806 3176063806 -11.31000000
40.26385117 35.18632126 0.00000000 26 5 5025 53.47200000 3176063806 3176063806 0.00000000
36.38013077 25.98803520 -0.52049613 11 6 5026 44.71200000 3176063808 3176063808 -0.66700000
10.38539028 9.07252884 -2.14542031 2 7 5026 13.95600000 3176063808 3176063808 -8.84300000
12.53930664 9.91716957 -2.03493881 2 8 5026 16.11600000 3176063810 3176063810 -7.25400000
40.70325089 39.22438049 0.32853585 21 9 5026 56.52800000 3176063810 3176063810 0.33300000
39.54825211 31.26696396 -0.29301345 20 10 5027 50.41600000 3176063812 3176063812 -0.33300000
13.31221581 11.62526608 -1.90375710 1 11 5027 17.77600000 3176063812 3176063812 -6.14800000
15.75721550 11.24781322 -1.80720448 2 12 5028 19.44400000 3176063815 3176063815 -5.33300000
40.10869217 35.01370621 1.23890173 23 13 5028 53.25600000 3176063815 3176063815 1.33300000
40.55469131 28.93806267 0.58000535 33 14 5029 49.82400000 3176063817 3176063817 0.66700000
17.05861473 14.88642216 -1.58319294 2 15 5029 22.69600000 3176063817 3176063817 -4.00000000
16.39437485 12.94749737 -1.70539939 2 16 5030 20.96000000 3176063819 3176063819 -4.66700000
40.25023651 38.73366928 1.62569535 41 17 5030 55.88400000 3176063819 3176063819 1.66700000
39.96337128 31.54984665 0.88874632 30 18 5031 50.92400000 3176063822 3176063822 1.00000000
17.11975670 16.46895599 -1.52244532 3 19 5031 23.80400000 3176063822 3176063822 -3.66700000
19.78126526 14.10463047 -1.41487122 3 20 5031 24.33600000 3176063824 3176063824 -3.33300000
39.63058472 34.55978394 3.06229854 22 21 5031 52.67200000 3176063824 3176063824 3.33300000
39.84457397 31.44477081 2.06792974 24 22 5032 50.80000000 3176063826 3176063826 2.33300000
20.07133675 17.49700928 -1.24033368 4 23 5032 26.65600000 3176063826 3176063826 -2.66700000
20.44109535 16.12603378 -1.36450303 9 24 5033 26.07200000 3176063829 3176063829 -3.00000000
42.47881317 37.01747894 6.91827869 44 25 5033 56.76800000 3176063829 3176063829 7.00000000
43.17164612 34.04600143 4.48838997 40 26 5034 55.16400000 3176063831 3176063831 4.66700000
20.62468147 19.81986046 -1.16536808 8 27 5034 28.62800000 3176063831 3176063831 -2.33300000
20.80253983 14.81093502 -0.89175195 10 28 5035 25.55200000 3176063833 3176063833 -2.00000000
20.91710854 18.21503639 -0.64541256 27 31 5035 27.74400000 3176063836 3176063836 -1.33300000
4.03857231 3.17462039 -2.39540029 4 0 5043 5.66800000 3176063856 3176063856 -25.00000000
20.92103577 20.04153442 -0.50570095 12 1 5043 28.97600000 3176063856 3176063856 -1.00000000
20.85297585 16.38611412 -0.77183002 18 2 5044 26.53200000 3176063859 3176063859 -1.66700000
6.79214668 5.89600325 -2.51783395 6 3 5044 9.34000000 3176063859 3176063859 -15.63900000
9.25658226 7.27114058 -2.35419202 1 4 5045 12.00400000 3176063861 3176063861 -11.31000000
40.28371048 34.95642471 0.00000000 26 5 5045 53.33600000 3176063861 3176063861 0.00000000
36.55219269 25.91872597 -0.52166021 11 6 5046 44.81200000 3176063863 3176063863 -0.66700000
10.42296696 9.04140186 -2.14665008 2 7 5046 13.96400000 3176063863 3176063863 -8.84300000
12.59569359 9.89049339 -2.03847432 2 8 5046 16.14400000 3176063865 3176063865 -7.25400000
40.76189423 39.00739288 0.32790816 43 9 5046 56.42000000 3176063865 3176063865 0.33300000
39.56275940 31.05463219 -0.29231602 19 10 5047 50.29600000 3176063868 3176063868 -0.33300000
13.34670448 11.57351589 -1.90290034 1 11 5047 17.76800000 3176063868 3176063868 -6.14800000
15.85162544 11.23188591 -1.81352460 2 12 5048 19.51200000 3176063870 3176063870 -5.33300000
40.34247208 34.97040176 1.24234474 24 13 5048 53.40400000 3176063870 3176063870 1.33300000
40.61955643 28.77089310 0.57949311 50 14 5049 49.78000000 3176063872 3176063872 0.66700000
17.09841156 14.81633377 -1.58207679 2 15 5049 22.68000000 3176063872 3176063872 -4.00000000
16.43319511 12.88527107 -1.70474839 2 16 5050 20.95200000 3176063875 3176063875 -4.66700000
40.09324265 38.31393433 1.61394286 60 17 5050 55.48000000 3176063875 3176063875 1.66700000
39.86320496 31.25674438 0.88420874 30 18 5050 50.66400000 3176063877 3176063877 1.00000000
17.15118790 16.39003181 -1.52039862 3 19 5050 23.77200000 3176063877 3176063877 -3.66700000
19.82060051 14.02857399 -1.41417360 3 20 5051 24.32400000 3176063879 3176063879 -3.33300000
39.74795914 34.41862106 3.06206584 34 21 5051 52.66800000 3176063879 3176063879 3.33300000
39.79050064 31.17731667 2.05946279 35 22 5052 50.59200000 3176063882 3176063882 2.33300000
20.12322807 17.41899490 -1.23977530 4 23 5052 26.64400000 3176063882 3176063882 -2.66700000
20.48468208 16.04472923 -1.36366570 9 24 5053 26.05600000 3176063884 3176063884 -3.00000000
42.77889633 37.01705551 6.94606495 45 25 5053 56.99600000 3176063884 3176063884 7.00000000
43.01399231 33.67881393 4.45974970 39 26 5054 54.81200000 3176063886 3176063886 4.66700000
20.67928314 19.73394966 -1.16455388 8 27 5054 28.60800000 3176063886 3176063886 -2.33300000
20.80840874 14.70592976 -0.88979757 13 28 5055 25.49600000 3176063889 3176063889 -2.00000000
20.91401672 18.08436775 -0.64336538 26 31 5055 27.65600000 3176063891 3176063891 -1.33300000
3.99247146 3.11589551 -2.36159086 2 0 5063 5.58800000 3176063911 3176063911 -25.00000000
20.91262817 19.89395714 -0.50381607 12 1 5063 28.86800000 3176063911 3176063911 -1.00000000
20.85330391 16.26895332 -0.76973552 18 2 5064 26.46000000 3176063913 3176063913 -1.66700000
6.80976868 5.86974335 -2.51675558 6 3 5064 9.33600000 3176063913 3176063913 -15.63900000
9.25716305 7.21948767 -2.34791613 1 4 5065 11.97200000 3176063916 3176063916 -11.31000000
40.29942703 34.72420883 0.00000000 39 5 5065 53.19600000 3176063916 3176063916 0.00000000
36.82435226 25.92862701 -0.52431440 12 6 5065 45.04000000 3176063918 3176063918 -0.66700000
10.44690418 9.00162792 -2.14542031 2 7 5065 13.95600000 3176063918 3176063918 -8.84300000
12.62701225 9.84402561 -2.03796911 2 8 5066 16.14000000 3176063920 3176063920 -7.25400000
40.76443100 38.73812103 0.32683879 42 9 5066 56.23600000 3176063920 3176063920 0.33300000
39.56365204 30.83274460 -0.29152560 19 10 5067 50.16000000 3176063923 3176063923 -0.33300000
13.39003658 11.52945137 -1.90332878 1 11 5067 17.77200000 3176063923 3176063923 -6.14800000
15.81580925 11.12378693 -1.80497384 2 12 5068 19.42000000 3176063925 3176063925 -5.33300000
40.23092270 34.62849045 1.23517966 23 13 5068 53.09600000 3176063925 3176063925 1.33300000
40.52014542 28.48860359 0.57665271 33 14 5069 49.53600000 3176063927 3176063927 0.66700000
17.17724800 14.77998161 -1.58458805 2 15 5069 22.71600000 3176063927 3176063927 -4.00000000
16.47178268 12.82293224 -1.70409751 2 16 5070 20.94400000 3176063929 3176063929 -4.66700000
40.13103104 38.08292389 1.61010289 39 17 5070 55.34800000 3176063929 3176063929 1.66700000
40.09830093 31.21567535 0.88700110 15 18 5070 50.82400000 3176063932 3176063932 1.00000000
17.20540047 16.32731438 -1.52014279 3 19 5070 23.76800000 3176063932 3176063932 -3.66700000
19.87271500 13.96159744 -1.41440606 3 20 5071 24.32800000 3176063934 3176063934 -3.33300000
39.65893936 34.10002899 3.04601955 33 21 5071 52.39200000 3176063934 3176063934 3.33300000
39.77921295 30.94497871 2.05327535 34 22 5072 50.44000000 3176063936 3176063936 2.33300000
20.16269684 17.33041382 -1.23847234 4 23 5072 26.61600000 3176063936 3176063936 -2.66700000
20.53425789 15.96822262 -1.36324704 9 24 5073 26.04800000 3176063939 3176063939 -3.00000000
43.00722122 36.95288467 6.96215200 46 25 5073 57.12800000 3176063939 3176063939 7.00000000
43.28866959 33.65079880 4.47602224 40 26 5074 55.01200000 3176063941 3176063941 4.66700000
20.73353577 19.64789963 -1.16373968 8 27 5074 28.58800000 3176063941 3176063941 -2.33300000
20.80070877 14.59188175 -0.88728482 10 28 5075 25.42400000 3176063943 3176063943 -2.00000000
20.90723228 17.95133781 -0.64122522 26 31 5075 27.56400000 3176063946 3176063946 -1.33300000
3.96320438 3.07085419 -2.33792424 3 0 5083 5.53200000 3176063966 3176063966 -25.00000000
20.91798401 19.76041603 -0.50228024 12 1 5083 28.78000000 3176063966 3176063966 -1.00000000
20.83726311 16.13974953 -0.76705921 18 2 5084 26.36800000 3176063969 3176063969 -1.66700000
6.82436371 5.84092760 -2.51459908 6 3 5084 9.32800000 3176063969 3176063969 -15.63900000
9.29781437 7.19913673 -2.35183859 1 4 5085 11.99200000 3176063971 3176063971 -11.31000000
40.26538467 34.45070267 0.00000000 25 5 5085 52.99200000 3176063971 3176063971 0.00000000
36.89168930 25.78388977 -0.52398843 12 6 5085 45.01200000 3176063973 3176063973 -0.66700000
10.47225475 8.95996761 -2.14419055 2 7 5085 13.94800000 3176063973 3176063973 -8.84300000
12.66443539 9.80231857 -2.03847432 2 8 5086 16.14400000 3176063976 3176063976 -7.25400000
40.74812698 38.45283890 0.32562989 41 9 5086 56.02800000 3176063976 3176063976 0.33300000
39.63307190 30.66508102 -0.29124662 19 10 5087 50.11200000 3176063978 3176063978 -0.33300000
13.42415428 11.47747231 -1.90247202 2 11 5087 17.76400000 3176063978 3176063978 -6.14800000
15.85780811 11.07079124 -1.80534554 2 12 5088 19.42400000 3176063980 3176063980 -5.33300000
40.20259857 34.36053848 1.23062015 23 13 5088 52.90000000 3176063980 3176063980 1.33300000
40.24870682 28.08833122 0.57139093 48 14 5089 49.08400000 3176063982 3176063982 0.66700000
17.21356773 14.70697212 -1.58319294 2 15 5089 22.69600000 3176063982 3176063982 -4.00000000
16.53221321 12.77754688 -1.70572484 2 16 5090 20.96400000 3176063985 3176063985 -4.66700000
40.02511215 37.71775436 1.60056114 38 17 5090 55.02000000 3176063985 3176063985 1.66700000
40.53928375 31.33231926 0.89433110 15 18 5090 51.24400000 3176063987 3176063987 1.00000000
17.25938225 16.26441956 -1.51988697 3 19 5090 23.76400000 3176063987 3176063987 -3.66700000
19.91477966 13.88757515 -1.41394103 3 20 5091 24.32000000 3176063989 3176063989 -3.33300000
39.66839981 33.86804199 3.03764749 22 21 5091 52.24800000 3176063989 3176063989 3.33300000
39.87117386 30.79372025 2.05246115 34 22 5092 50.42000000 3176063992 3176063992 2.33300000
20.21395111 17.25214577 -1.23791397 4 23 5092 26.60400000 3176063992 3176063992 -2.66700000
20.44442749 15.78415680 -1.35361719 9 24 5093 25.86400000 3176063994 3176063994 -3.00000000
43.45307922 37.07310486 7.01333714 47 25 5093 57.54800000 3176063994 3176063994 7.00000000
43.50370789 33.57500076 4.48611164 40 26 5094 55.13600000 3176063996 3176063996 4.66700000
20.81654549 19.58910179 -1.16455388 12 27 5094 28.60800000 3176063996 3176063996 -2.33300000
20.79902840 14.48263550 -0.88505125 10 28 5095 25.36000000 3176063999 3176063999 -2.00000000
20.90586281 17.82376480 -0.63927108 26 31 5095 27.48000000 3176064001 3176064001 -1.33300000
3.95378590 3.04152846 -2.32609081 4 0 5103 5.50400000 3176064022 3176064022 -25.00000000
20.91974449 19.62434578 -0.50067466 12 1 5103 28.68800000 3176064022 3176064022 -1.00000000
20.85227013 16.03523064 -0.76554650 15 2 5104 26.31600000 3176064024 3176064024 -1.66700000
6.84177542 5.81457615 -2.51352072 6 3 5104 9.32400000 3176064024 3176064024 -15.63900000
9.31666756 7.16185665 -2.35026956 3 4 5105 11.98400000 3176064026 3176064026 -11.31000000
40.21468353 34.16490936 0.00000000 25 5 5105 52.76800000 3176064026 3176064026 0.00000000
37.09648895 25.73475075 -0.52561820 12 6 5105 45.15200000 3176064029 3176064029 -0.66700000
10.49744320 8.91824055 -2.14296055 2 7 5105 13.94000000 3176064029 3176064029 -8.84300000
12.69542789 9.75563335 -2.03796911 2 8 5106 16.14000000 3176064031 3176064031 -7.25400000
40.84999847 38.28028107 0.32537419 41 9 5106 55.98400000 3176064031 3176064031 0.33300000
39.65422821 30.46076012 -0.29061893 18 10 5107 50.00400000 3176064033 3176064033 -0.33300000
13.46716785 11.43311787 -1.90290034 2 11 5107 17.76800000 3176064033 3176064033 -6.14800000
15.91272354 11.02671242 -1.80720448 2 12 5108 19.44400000 3176064035 3176064035 -5.33300000
40.27655792 34.18118286 1.22922432 23 13 5108 52.84000000 3176064035 3176064035 1.33300000
40.43527985 28.00915909 0.57264817 48 14 5109 49.19200000 3176064038 3176064038 0.66700000
17.24045753 14.62614441 -1.58096075 2 15 5109 22.66400000 3176064038 3176064038 -4.00000000
16.45652580 12.62753582 -1.69335747 2 16 5110 20.81200000 3176064040 3176064040 -4.66700000
40.15652466 37.57781219 1.60056114 38 17 5110 55.02000000 3176064040 3176064040 1.66700000
40.37776947 30.97175598 0.88825768 15 18 5111 50.89600000 3176064042 3176064042 1.00000000
17.31887817 16.20105171 -1.51988697 3 19 5111 23.76400000 3176064042 3176064042 -3.66700000
19.96313477 13.81797504 -1.41394103 3 20 5111 24.32000000 3176064045 3176064045 -3.33300000
39.78333282 33.72678375 3.03741503 33 21 5111 52.24400000 3176064045 3176064045 3.33300000
39.85155869 30.55707932 2.04594803 22 22 5112 50.26000000 3176064047 3176064047 2.33300000
20.26490402 17.17373085 -1.23735559 7 23 5112 26.59200000 3176064047 3176064047 -2.66700000
20.50256920 15.71512604 -1.35382652 9 24 5113 25.86800000 3176064049 3176064049 -3.00000000
43.38532257 36.75439072 6.98165083 46 25 5113 57.28800000 3176064049 3176064049 7.00000000
43.52254105 33.34777069 4.47602224 40 26 5114 55.01200000 3176064052 3176064052 4.66700000
20.81471443 19.45082664 -1.16064596 12 27 5114 28.51200000 3176064052 3176064052 -2.33300000
20.80999184 14.38267040 -0.88337606 10 28 5115 25.31200000 3176064054 3176064054 -2.00000000
20.90385818 17.69642258 -0.63731700 26 31 5115 27.39600000 3176064056 3176064056 -1.33300000
3.95285439 3.01890707 -2.31932902 4 0 5123 5.48800000 3176064077 3176064077 -25.00000000
20.91495895 19.48305130 -0.49892938 15 1 5123 28.58800000 3176064077 3176064077 -1.00000000
20.84455681 15.91382027 -0.76321924 14 2 5124 26.23600000 3176064079 3176064079 -1.66700000
6.86203051 5.79065847 -2.51352072 6 3 5124 9.32400000 3176064079 3176064079 -15.63900000
9.33849239 7.12691212 -2.34948516 3 4 5125 11.98000000 3176064081 3176064081 -11.31000000
40.25114441 33.95468903 0.00000000 25 5 5125 52.66000000 3176064081 3176064081 0.00000000
37.27293015 25.65530586 -0.52678227 12 6 5126 45.25200000 3176064084 3176064084 -0.66700000
10.53005981 8.87970543 -2.14296055 2 7 5126 13.94000000 3176064084 3176064084 -8.84300000
12.72624969 9.70885181 -2.03746414 2 8 5126 16.13600000 3176064086 3176064086 -7.25400000
40.83403397 37.99848557 0.32418856 41 9 5126 55.78000000 3176064086 3176064086 0.33300000
39.69670105 30.27364349 -0.29015398 27 10 5127 49.92400000 3176064088 3176064088 -0.33300000
13.50091362 11.38091183 -1.90204358 2 11 5127 17.76000000 3176064088 3176064088 -6.14800000
15.92814732 10.95530033 -1.80460203 2 12 5128 19.41600000 3176064091 3176064091 -5.33300000
40.26719284 33.93215561 1.22531617 23 13 5128 52.67200000 3176064091 3176064091 1.33300000
40.56576538 27.89050293 0.57311380 32 14 5129 49.23200000 3176064093 3176064093 0.66700000
17.31887245 14.58901215 -1.58347201 2 15 5129 22.70000000 3176064093 3176064093 -4.00000000
16.50684547 12.57484722 -1.69400835 2 16 5130 20.82000000 3176064095 3176064095 -4.66700000
40.00041580 37.17068100 1.58915770 37 17 5130 54.62800000 3176064095 3176064095 1.66700000
40.31800079 30.71408463 0.88469738 15 18 5130 50.69200000 3176064098 3176064098 1.00000000
17.35496330 16.12722778 -1.51835203 3 19 5130 23.74000000 3176064098 3176064098 -3.66700000
20.03099442 13.76177406 -1.41533637 3 20 5131 24.34400000 3176064100 3176064100 -3.33300000
39.91304016 33.59799576 3.03834534 33 21 5131 52.26000000 3176064100 3176064100 3.33300000
39.91027832 30.38147354 2.04350543 22 22 5132 50.20000000 3176064102 3176064102 2.33300000
20.32167244 17.10031700 -1.23716950 7 23 5132 26.58800000 3176064102 3176064102 -2.66700000
20.54776573 15.63620663 -1.35319853 9 24 5133 25.85600000 3176064105 3176064105 -3.00000000
42.56847000 35.80790329 6.83004570 42 25 5133 56.04400000 3176064105 3176064105 7.00000000
43.55300903 33.13047791 4.46723509 39 26 5134 54.90400000 3176064107 3176064107 4.66700000
20.81217384 19.31280518 -1.15673804 12 27 5134 28.41600000 3176064107 3176064107 -2.33300000
20.79743767 14.26697636 -0.88072371 9 28 5135 25.23600000 3176064109 3176064109 -2.00000000
20.91347122 17.57337952 -0.63564205 26 31 5136 27.32400000 3176064111 3176064111 -1.33300000
3.95759058 3.00071001 -2.31594801 5 0 5143 5.48000000 3176064132 3176064132 -25.00000000
20.90944290 19.34202957 -0.49718416 11 1 5143 28.48800000 3176064132 3176064132 -1.00000000
20.84262276 15.79748917 -0.76112473 18 2 5144 26.16400000 3176064134 3176064134 -1.66700000
6.88810682 5.77161789 -2.51567721 6 3 5144 9.33200000 3176064134 3176064134 -15.63900000
9.37894440 7.10611486 -2.35340738 1 4 5145 12.00000000 3176064137 3176064137 -11.31000000
40.12411118 33.60850143 0.00000000 24 5 5145 52.34000000 3176064137 3176064137 0.00000000
37.65948868 25.72810555 -0.53097308 12 6 5146 45.61200000 3176064139 3176064139 -0.66700000
10.54583931 8.83020687 -2.13988614 2 7 5146 13.92000000 3176064139 3176064139 -8.84300000
12.75373554 9.65957832 -2.03645396 1 8 5146 16.12800000 3176064141 3176064141 -7.25400000
40.71965790 37.62768555 0.32223573 19 9 5146 55.44400000 3176064141 3176064141 0.33300000
39.77024460 30.11074638 -0.28992149 18 10 5147 49.88400000 3176064144 3176064144 -0.33300000
13.54055786 11.33371544 -1.90204358 2 11 5147 17.76000000 3176064144 3176064144 -6.14800000
15.95642281 10.89289761 -1.80348670 2 12 5148 19.40400000 3176064146 3176064146 -5.33300000
40.25658417 33.68361282 1.22140789 22 13 5148 52.50400000 3176064146 3176064146 1.33300000
40.53072357 27.65855026 0.57125121 16 14 5149 49.07200000 3176064148 3176064148 0.66700000
17.35132790 14.51310825 -1.58179784 2 15 5149 22.67600000 3176064148 3176064148 -4.00000000
16.55699921 12.52196026 -1.69465923 2 16 5150 20.82800000 3176064151 3176064151 -4.66700000
40.17987823 37.07692337 1.59113586 18 17 5150 54.69600000 3176064151 3176064151 1.66700000
40.26547241 30.45253944 0.88120693 29 18 5150 50.49200000 3176064153 3176064153 1.00000000
17.39941788 16.05572128 -1.51732862 3 19 5150 23.72400000 3176064153 3176064153 -3.66700000
20.03931999 13.66477203 -1.41254568 3 20 5151 24.29600000 3176064155 3176064155 -3.33300000
39.85236740 33.30993652 3.02485704 32 21 5151 52.02800000 3176064155 3176064155 3.33300000
39.69404221 29.99859428 2.02705979 31 22 5152 49.79600000 3176064158 3176064158 2.33300000
20.35977554 17.01134300 -1.23586667 7 23 5152 26.56000000 3176064158 3176064158 -2.66700000
20.57991028 15.54753113 -1.35173309 9 24 5153 25.82800000 3176064160 3176064160 -3.00000000
43.70179749 36.50151443 6.99140072 47 25 5153 57.36800000 3176064160 3176064160 7.00000000
42.84757996 32.35837173 4.38326693 36 26 5154 53.87200000 3176064162 3176064162 4.66700000
20.82067871 19.18587303 -1.15348148 12 27 5154 28.33600000 3176064162 3176064162 -2.33300000
20.79424286 14.15829563 -0.87849015 9 28 5155 25.17200000 3176064164 3176064164 -2.00000000
20.90102005 17.44499588 -0.63350183 26 31 5155 27.23200000 3176064167 3176064167 -1.33300000
3.95066261 2.97379589 -2.30580521 4 0 5163 5.45600000 3176064187 3176064187 -25.00000000
20.90614319 19.20399094 -0.49550873 15 1 5163 28.39200000 3176064187 3176064187 -1.00000000
20.84652138 15.68617439 -0.75926292 14 2 5164 26.10000000 3176064190 3176064190 -1.66700000
6.90525055 5.74507523 -2.51459908 5 3 5164 9.32800000 3176064190 3176064190 -15.63900000
9.39115429 7.06390190 -2.35026956 3 4 5165 11.98400000 3176064192 3176064192 -11.31000000
40.18582535 33.42219925 0.00000000 24 5 5165 52.26800000 3176064192 3176064192 0.00000000
38.65486526 26.22053719 -0.54377830 12 6 5165 46.71200000 3176064194 3176064194 -0.66700000
10.58114147 8.80024242 -2.14111590 2 7 5165 13.92800000 3176064194 3176064194 -8.84300000
12.84446335 9.65792465 -2.04554534 2 8 5166 16.20000000 3176064197 3176064197 -7.25400000
40.82128143 37.45827484 0.32200328 19 9 5166 55.40400000 3176064197 3176064197 0.33300000
39.82714844 29.93568993 -0.28957278 18 10 5167 49.82400000 3176064199 3176064199 -0.33300000
13.58615494 11.29146481 -1.90290034 2 11 5167 17.76800000 3176064199 3176064199 -6.14800000
16.00094414 10.84160042 -1.80423021 2 12 5168 19.41200000 3176064201 3176064201 -5.33300000
40.30932236 33.48921967 1.21945381 33 13 5168 52.42000000 3176064201 3176064201 1.33300000
40.57072449 27.47877312 0.57045966 16 14 5169 49.00400000 3176064204 3176064204 0.66700000
17.39574242 14.44735336 -1.58123970 2 15 5169 22.66800000 3176064204 3176064204 -4.00000000
16.59104347 12.45690823 -1.69368291 2 16 5170 20.81600000 3176064206 3176064206 -4.66700000
40.16460800 36.80408478 1.58543408 18 17 5170 54.50000000 3176064206 3176064206 1.66700000
40.62419128 30.50150490 0.88672185 15 18 5170 50.80800000 3176064208 3176064208 1.00000000
17.44947052 15.98949337 -1.51681697 3 19 5170 23.71600000 3176064208 3176064208 -3.66700000
20.08689690 13.59473896 -1.41254568 3 20 5171 24.29600000 3176064211 3176064211 -3.33300000
39.88543320 33.10176468 3.01857805 32 21 5171 51.92000000 3176064211 3176064211 3.33300000
39.69940948 29.78549767 2.02201200 21 22 5172 49.67200000 3176064213 3176064213 2.33300000
20.41288185 16.93506813 -1.23549438 4 23 5172 26.55200000 3176064213 3176064213 -2.66700000
20.62766457 15.47080517 -1.35131443 9 24 5173 25.82000000 3176064215 3176064215 -3.00000000
43.79533005 36.32086563 6.98603821 46 25 5173 57.32400000 3176064215 3176064215 7.00000000
42.83905792 32.11773300 4.37089968 18 26 5174 53.72000000 3176064217 3176064217 4.66700000
20.81380844 19.04562759 -1.14941072 11 27 5174 28.23600000 3176064217 3176064217 -2.33300000
20.80379105 14.05876446 -0.87681496 13 28 5175 25.12400000 3176064220 3176064220 -2.00000000
20.90630913 17.31980133 -0.63173383 21 31 5176 27.15600000 3176064222 3176064222 -1.33300000
3.94649935 2.94913697 -2.29735279 4 0 5183 5.43600000 3176064243 3176064243 -25.00000000
20.90509033 19.06890869 -0.49390310 11 1 5183 28.30000000 3176064243 3176064243 -1.00000000
20.83708382 15.56545448 -0.75693572 14 2 5184 26.02000000 3176064245 3176064245 -1.66700000
6.91635370 5.71357679 -2.51136398 6 3 5184 9.31600000 3176064245 3176064245 -15.63900000
9.42203999 7.03577137 -2.35183859 1 4 5185 11.99200000 3176064247 3176064247 -11.31000000
40.22513962 33.21804428 0.00000000 35 5 5185 52.16800000 3176064247 3176064247 0.00000000
38.31151581 25.79282761 -0.53767836 12 6 5185 46.18800000 3176064250 3176064250 -0.66700000
10.60874748 8.76073647 -2.14050102 2 7 5185 13.92400000 3176064250 3176064250 -8.84300000
12.87491703 9.61065674 -2.04504013 2 8 5186 16.19600000 3176064252 3176064252 -7.25400000
40.78326035 37.16199112 0.32067814 38 9 5186 55.17600000 3176064252 3176064252 0.33300000
39.80316544 29.70079803 -0.28864288 18 10 5187 49.66400000 3176064254 3176064254 -0.33300000
13.54266644 11.17562675 -1.89133382 2 11 5187 17.66000000 3176064254 3176064254 -6.14800000
16.01555634 10.77012348 -1.80162787 2 12 5188 19.38400000 3176064257 3176064257 -5.33300000
40.29024506 33.23634338 1.21535945 22 13 5188 52.24400000 3176064257 3176064257 1.33300000
40.53030014 27.24550056 0.56855053 32 14 5189 48.84000000 3176064259 3176064259 0.66700000
17.44606781 14.38654327 -1.58123970 2 15 5189 22.66800000 3176064259 3176064259 -4.00000000
16.62483597 12.39177132 -1.69270647 2 16 5190 20.80400000 3176064261 3176064261 -4.66700000
40.26622009 36.63943863 1.58438683 36 17 5190 54.46400000 3176064261 3176064261 1.66700000
40.58611679 30.25195694 0.88358045 15 18 5190 50.62800000 3176064264 3176064264 1.00000000
17.51698685 15.93923283 -1.51784039 3 19 5190 23.73200000 3176064264 3176064264 -3.66700000
20.13091278 13.52231312 -1.41231310 3 20 5191 24.29200000 3176064266 3176064266 -3.33300000
39.99765396 32.95979691 3.01834536 21 21 5191 51.91600000 3176064266 3176064266 3.33300000
39.67493057 29.55124283 2.01549888 21 22 5192 49.51200000 3176064268 3176064268 2.33300000
20.45336723 16.84846687 -1.23437762 4 23 5192 26.52800000 3176064268 3176064268 -2.66700000
20.70717239 15.41779137 -1.35298920 9 24 5193 25.85200000 3176064270 3176064270 -3.00000000
43.95249557 36.19300842 6.99091291 46 25 5193 57.36400000 3176064270 3176064270 7.00000000
43.20995712 32.16080856 4.39726162 18 26 5194 54.04400000 3176064273 3176064273 4.66700000
20.81508827 18.91372681 -1.14582849 11 27 5194 28.14800000 3176064273 3176064273 -2.33300000
20.79961967 13.95043182 -0.87458140 13 28 5195 25.06000000 3176064275 3176064275 -2.00000000
20.90487289 17.19591141 -0.62987280 21 31 5196 27.07600000 3176064277 3176064277 -1.33300000
3.95385814 2.93318343 -2.29566240 5 0 5203 5.43200000 3176064298 3176064298 -25.00000000
20.90927887 18.93943596 -0.49243709 15 1 5203 28.21600000 3176064298 3176064298 -1.00000000
20.83669472 15.45213604 -0.75495756 18 2 5204 25.95200000 3176064300 3176064300 -1.66700000
6.93327713 5.68695641 -2.51028585 5 3 5204 9.31200000 3176064300 3176064300 -15.63900000
9.43393898 6.99349594 -2.34870076 3 4 5205 11.97600000 3176064303 3176064303 -11.31000000
40.18309402 32.94808197 0.00000000 23 5 5205 51.96400000 3176064303 3176064303 0.00000000
38.73055649 25.87892914 -0.54228824 12 6 5205 46.58400000 3176064305 3176064305 -0.66700000
10.63315105 8.71863937 -2.13927126 2 7 5205 13.91600000 3176064305 3176064305 -8.84300000
12.90519810 9.56329441 -2.04453516 1 8 5206 16.19200000 3176064307 3176064307 -7.25400000
40.75257111 36.87448502 0.31942278 38 9 5206 54.96000000 3176064307 3176064307 0.33300000
39.86481476 29.53072739 -0.28834066 18 10 5207 49.61200000 3176064310 3176064310 -0.33300000
13.65542412 11.18877983 -1.90161514 2 11 5207 17.75600000 3176064310 3176064310 -6.14800000
16.06630325 10.72299671 -1.80311489 2 12 5208 19.40000000 3176064312 3176064312 -5.33300000
39.92031479 32.69767761 1.20075023 31 13 5208 51.61600000 3176064312 3176064312 1.33300000
17.48074341 14.31291771 -1.57984459 2 15 5209 22.64800000 3176064314 3176064314 -4.00000000
16.66798973 12.33366394 -1.69270647 2 16 5210 20.80400000 3176064317 3176064317 -4.66700000
40.24256897 36.36195374 1.57845235 54 17 5210 54.26000000 3176064317 3176064317 1.66700000
40.52107620 29.98401833 0.87988055 14 18 5210 50.41600000 3176064319 3176064319 1.00000000
17.56067276 15.86728477 -1.51681697 3 19 5210 23.71600000 3176064319 3176064319 -3.66700000
20.20789528 13.47189617 -1.41440606 3 20 5211 24.32800000 3176064321 3176064321 -3.33300000
40.12173462 32.82756424 3.01904297 21 21 5211 51.92800000 3176064321 3176064321 3.33300000
39.72320938 29.37217522 2.01273084 21 22 5212 49.44400000 3176064323 3176064323 2.33300000
20.49968338 16.76684952 -1.23363316 4 23 5212 26.51200000 3176064323 3176064323 -2.66700000
20.76086426 15.34541607 -1.35298920 13 24 5213 25.85200000 3176064326 3176064326 -3.00000000
